# .PCD v0.7 - Point Cloud Data file format
VERSION 0.7
FIELDS x y z
SIZE 4 4 4
TYPE F F F
COUNT 1 1 1
WIDTH 1441
HEIGHT 1
VIEWPOINT 0 0 0 1 0 0 0
POINTS 1441
DATA ascii
-2.5702734 -5.778522 -0.54669636
-2.6101971 -5.7726278 -0.54764551
-2.6592982 -5.7863755 -0.55049294
-2.6985471 -5.7780738 -0.55126953
-2.7399299 -5.7740078 -0.55247754
-2.7947767 -5.797471 -0.55636042
-2.8399363 -5.7998977 -0.55825871
-2.8830121 -5.7975278 -0.55972558
-2.9090996 -5.7610536 -0.5579136
-2.9389393 -5.7324567 -0.55687815
-2.9814174 -5.7284555 -0.55825871
-3.0174413 -5.7118158 -0.55843133
-3.0566685 -5.7010961 -0.55920786
-3.0982587 -5.6944847 -0.56041586
-3.1466241 -5.6997876 -0.56283188
-3.1883543 -5.6925421 -0.56403995
-3.2251918 -5.6763358 -0.56438506
-3.2549856 -5.6478086 -0.56352222
-3.3006399 -5.6466517 -0.56542051
-3.3464022 -5.6451468 -0.5673188
-3.3866239 -5.6338997 -0.56826794
-3.42787 -5.624073 -0.5693897
-3.4602189 -5.599544 -0.56904453
-3.4802306 -5.5554123 -0.56671482
-3.5115819 -5.529748 -0.56628335
-3.5497596 -5.5147991 -0.56697363
-3.587342 -5.498755 -0.56757766
-3.6451919 -5.5132051 -0.57137424
-3.6667509 -5.472527 -0.56947595
-3.705857 -5.4581671 -0.57033885
-3.7545252 -5.4574866 -0.57266855
-3.791929 -5.4400678 -0.57327259
-3.8384559 -5.4354153 -0.57525712
-3.8798509 -5.4231043 -0.57646513
-3.9247468 -5.415329 -0.57819086
-3.9655654 -5.4015851 -0.57931262
-3.9938784 -5.3707557 -0.57862234
-4.0273566 -5.3469443 -0.57870859
-4.067945 -5.3324294 -0.57983035
-4.10607 -5.3144636 -0.58060688
-4.1441274 -5.2962308 -0.58138347
-4.1746902 -5.2683606 -0.5811246
-4.2125492 -5.249639 -0.58190119
-4.2823796 -5.2700825 -0.58707839
-4.3215995 -5.2521691 -0.58802754
-4.3613977 -5.2347383 -0.58906299
-4.4056416 -5.2223468 -0.59070241
-4.457015 -5.2179413 -0.59329098
-4.5156684 -5.2213898 -0.59682876
-4.5469651 -5.1928344 -0.59674245
-4.5952654 -5.1834741 -0.5988996
-4.6189981 -5.1462836 -0.59786415
-4.6685786 -5.1377525 -0.60019392
-4.7087846 -5.1185412 -0.60131562
-4.749609 -5.0997586 -0.60252362
-4.7890129 -5.0792179 -0.60355908
-4.8359103 -5.0663123 -0.60554367
-4.8925214 -5.0630512 -0.60873628
-4.9360366 -5.0457544 -0.61028939
-4.9626975 -5.0111256 -0.60977167
-5.0399075 -5.0270147 -0.61546659
-5.0706577 -4.9959955 -0.61546659
-5.0976477 -4.9613147 -0.61503518
-5.1272755 -4.9292517 -0.61494887
-5.184155 -4.9230814 -0.61814147
-5.2062716 -4.8836818 -0.61719233
-5.3062973 -4.916647 -0.62547582
-5.3642936 -4.9095545 -0.62875468
-5.4334874 -4.9119558 -0.63332784
-5.4560928 -4.8718891 -0.632465
-5.4814005 -4.8343654 -0.63194728
-5.5117116 -4.8012958 -0.63203359
-5.5486202 -4.7738833 -0.63289642
-5.6081767 -4.7655516 -0.63634789
-5.6876798 -4.7733188 -0.64204282
-5.7559819 -4.7707524 -0.64644343
-5.8113589 -4.7567997 -0.64937711
-5.9070711 -4.7749114 -0.65679777
-5.9899845 -4.7814603 -0.6627515
-6.0583324 -4.7754521 -0.66706586
-6.1158233 -4.7602177 -0.67017215
-6.1701946 -4.7420282 -0.67293334
-6.2301278 -4.7275658 -0.6762985
-6.2733707 -4.7000012 -0.67785162
-6.3004889 -4.6602354 -0.67767906
-6.2919531 -4.5944633 -0.67370987
-6.336998 -4.5680041 -0.67552191
-6.3941312 -4.5498276 -0.67862821
-6.425189 -4.5127983 -0.67897338
-6.4388385 -4.4636407 -0.67750651
-6.4513054 -4.4139233 -0.67595333
-6.4790926 -4.3748131 -0.67603964
-6.5273705 -4.3493385 -0.6782831
-6.6263595 -4.3568211 -0.68579
-6.7281909 -4.3648777 -0.69355577
-6.7858944 -4.3433833 -0.69674838
-6.8191562 -4.3059192 -0.69743866
-6.8674355 -4.2776914 -0.69968206
-6.8052711 -4.1812353 -0.69070828
-6.8214264 -4.1337209 -0.68975914
-6.9296165 -4.1413603 -0.69812894
-7.00983 -4.1311345 -0.70365125
-7.0574427 -4.1010594 -0.70589471
-7.1006269 -4.068078 -0.70770669
-7.1757689 -4.0528483 -0.71271133
-7.2501187 -4.0363641 -0.71762967
-7.2869768 -3.9985113 -0.71883768
-7.3166323 -3.9565673 -0.7193554
-7.3618736 -3.9228425 -0.72142625
-7.4254999 -3.8984356 -0.72530913
-7.4935274 -3.8756828 -0.72962344
-7.4931984 -3.8174207 -0.72729373
-7.5405235 -3.7834342 -0.72962344
-7.6118293 -3.7609248 -0.73428291
-7.6580558 -3.7254798 -0.73652637
-7.7274957 -3.7007961 -0.74101323
-7.7852039 -3.6698775 -0.74437845
-7.8825879 -3.6568363 -0.75154018
-7.9565377 -3.6319809 -0.75645852
-8.0222979 -3.6026819 -0.76060027
-8.0579224 -3.559428 -0.76189458
-8.1298685 -3.5317497 -0.76664031
-8.2329283 -3.5166268 -0.77431977
-8.2938499 -3.4826291 -0.7780301
-8.3325605 -3.438894 -0.77966952
-8.3932047 -3.4038002 -0.78337985
-8.4907503 -3.3828402 -0.79054165
-8.549386 -3.3455625 -0.79407936
-8.663681 -3.3291318 -0.80279428
-8.7212315 -3.2899745 -0.80624574
-8.7851667 -3.2526569 -0.81030118
-8.8611431 -3.2191 -0.81547838
-8.9145136 -3.176707 -0.81858468
-8.9648743 -3.1327937 -0.82143217
-8.9924107 -3.0806329 -0.8222087
-9.1443138 -3.0701053 -0.83437508
-9.2339592 -3.0372844 -0.8408466
-9.3870783 -3.0239432 -0.85309923
-9.4757671 -2.9884608 -0.85948443
-9.5548515 -2.9490654 -0.86500674
-9.5927954 -2.8964293 -0.86681879
-9.5989208 -2.8341293 -0.86578333
-9.6113443 -2.773797 -0.86535192
-9.6617441 -2.7242327 -0.86837196
-9.6926861 -2.668865 -0.86966622
-9.7704554 -2.6258891 -0.87518853
-9.8124037 -2.5727108 -0.8775183
-9.9882336 -2.553412 -0.89184183
-10.036583 -2.5002646 -0.89477557
-10.081749 -2.445915 -0.89745045
-10.093657 -2.3833218 -0.89719158
-10.104208 -2.3204515 -0.89684641
-10.156178 -2.2668729 -0.90021163
-10.160158 -2.2024026 -0.89934874
-10.168606 -2.1389945 -0.89891732
-10.14054 -2.0681996 -0.8952933
-10.154016 -2.0061326 -0.89537954
-10.138737 -1.9385527 -0.89296353
-10.128887 -1.8723227 -0.89106524
-10.129396 -1.8082122 -0.8901161
-10.122627 -1.7429827 -0.88856292
-10.120355 -1.6787194 -0.88744122
-10.14227 -1.6184742 -0.88847667
-10.17072 -1.5590796 -0.8901161
-10.190938 -1.4982378 -0.89106524
-10.212764 -1.437484 -0.892187
-10.22633 -1.3754565 -0.89261842
-10.240505 -1.3134433 -0.89313614
-10.266173 -1.2527559 -0.89468926
-10.297419 -1.1924902 -0.89676017
-10.310483 -1.129935 -0.89727789
-10.329114 -1.067879 -0.89831328
-10.341422 -1.0050588 -0.89883101
-10.371206 -0.94375241 -0.90090191
-10.376802 -0.88009804 -0.90090191
-10.341286 -0.81320935 -0.89736414
-10.367942 -0.75132477 -0.89926243
-10.435978 -0.6919108 -0.9047848
-10.466878 -0.62947804 -0.90711451
-10.473527 -0.5654037 -0.90737337
-10.463863 -0.50051022 -0.90625167
-10.444838 -0.43538338 -0.90435332
-10.438352 -0.37096861 -0.90357679
-10.40956 -0.30600631 -0.90090191
-10.423195 -0.2424064 -0.90193731
-10.430462 -0.17854847 -0.90245503
-10.425385 -0.11447951 -0.90193731
-10.443823 -0.050594859 -0.90349048
-10.467847 0.013519615 -0.90556139
-10.460593 0.077696905 -0.90495735
-10.448962 0.14173155 -0.90400821
-10.449887 0.2058818 -0.90418077
-10.446435 0.26994571 -0.90400821
-10.456532 0.33442116 -0.90504366
-10.466229 0.39903069 -0.90607905
-10.456616 0.46293417 -0.90547508
-10.4496 0.52688527 -0.90512991
-10.445175 0.5909366 -0.90504366
-10.476153 0.65719986 -0.90806365
-10.45801 0.72050893 -0.90685564
-10.476241 0.78638023 -0.90884024
-10.486114 0.85185677 -0.91013455
-10.468781 0.91514099 -0.9090991
-10.441145 0.97731584 -0.90720081
-10.412151 1.0390872 -0.90521622
-10.396663 1.10201 -0.90443963
-10.415447 1.1686709 -0.90668309
-10.423909 1.2344319 -0.90806365
-10.406253 1.2971359 -0.90720081
-10.39217 1.3601873 -0.90668309
-10.408305 1.4273112 -0.90884024
-10.425978 1.4949671 -0.91116995
-10.423506 1.559944 -0.91177398
-10.389129 1.620034 -0.90961683
-10.358341 1.6803993 -0.90780479
-10.350782 1.744422 -0.90806365
-10.353624 1.810303 -0.90927166
-10.334479 1.8723764 -0.90858138
-10.319859 1.9352014 -0.90832251
-10.302899 1.9975382 -0.90789109
-10.282634 2.0591528 -0.90720081
-10.227852 2.1135368 -0.90349048
-10.21664 2.1766691 -0.90366304
-10.190441 2.2365396 -0.90254134
-10.155148 2.2941942 -0.90064305
-10.167081 2.362551 -0.90297276
-10.167897 2.4285941 -0.90435332
-10.128614 2.4850023 -0.90219617
-10.095786 2.5427232 -0.90064305
-10.072278 2.602628 -0.89995277
-10.061897 2.6659122 -0.90047044
-10.049196 2.7286451 -0.90081561
-10.010188 2.7841139 -0.89883101
-9.994833 2.8460286 -0.89900357
-9.9810076 2.908417 -0.89934874
-9.9639282 2.9698892 -0.89943504
-9.9216928 3.0237095 -0.89727789
-9.8962955 3.0824568 -0.89667386
-9.9256124 3.1585298 -0.90107447
-9.906992 3.2196808 -0.90116078
-9.8709755 3.2750745 -0.89969391
-9.7931328 3.3160872 -0.8944304
-9.7528267 3.3692825 -0.89261842
-9.6474018 3.3992615 -0.88485265
-9.6244879 3.4577193 -0.88468003
-9.5881224 3.5112271 -0.88329947
-9.5673313 3.5703409 -0.88338578
-9.5657301 3.6367671 -0.88528407
-9.5497389 3.6979113 -0.88588804
-9.518528 3.7531488 -0.88511151
-9.1772728 3.6838078 -0.85542899
-9.0041676 3.6786282 -0.84136432
-8.9446297 3.718509 -0.83791286
-8.9005413 3.764396 -0.83592826
-8.837923 3.8020074 -0.83221793
-8.7578382 3.8314056 -0.82686818
-8.6922922 3.8664441 -0.82289904
-8.6366329 3.9053385 -0.819879
-8.5744867 3.9407835 -0.81625497
-8.5185528 3.9785647 -0.81323493
-8.4660788 4.0175176 -0.81056005
-8.3811407 4.0404005 -0.80477887
-8.3302441 4.0790439 -0.80227655
-8.2872181 4.1212072 -0.80055088
-8.2270918 4.1544642 -0.79718566
-8.1642113 4.1857753 -0.79356164
-8.1118622 4.2219915 -0.79097307
-7.8981752 4.1725559 -0.77259409
-7.8373036 4.2021084 -0.76914263
-7.7789936 4.2324996 -0.76595002
-7.7110128 4.2570372 -0.76180828
-7.6717091 4.296968 -0.76051396
-7.6469312 4.344944 -0.76068658
-7.6417065 4.4042211 -0.76284373
-7.6334605 4.4620881 -0.76474202
-7.5930829 4.5012207 -0.7634477
-7.3868656 4.4404454 -0.74541384
-7.203804 4.3907943 -0.72962344
-7.1843543 4.4396267 -0.73040003
-7.1468472 4.4772782 -0.72936457
-7.1074662 4.5135689 -0.72815657
-7.0595326 4.5441523 -0.72608572
-7.0381927 4.5917387 -0.726776
-6.9974203 4.626595 -0.72548169
-6.9217248 4.6378317 -0.72056341
-6.8568716 4.6555905 -0.71676677
-6.8175063 4.6902351 -0.71564507
-6.9062896 4.8140187 -0.72807032
-6.9051032 4.8764195 -0.73109031
-6.8645191 4.9111605 -0.72996861
-6.8011823 4.9292164 -0.72643083
-6.7531414 4.9578834 -0.72453254
-6.7082038 4.9885254 -0.72297943
-6.6599617 5.0164046 -0.72108108
-6.6060863 5.0396504 -0.71857882
-6.5569072 5.0660796 -0.71659422
-6.5076528 5.0920954 -0.71460962
-6.4606695 5.1195545 -0.71288389
-6.4151487 5.1478758 -0.71133077
-6.3602462 5.1682925 -0.70874214
-6.3114896 5.193294 -0.70684385
-6.2703209 5.2242699 -0.7058084
-6.2312942 5.2568636 -0.70503181
-6.1693778 5.2697625 -0.70166665
-6.1278849 5.2996969 -0.70063126
-6.0825095 5.3260398 -0.69916439
-6.0362968 5.3513646 -0.69761121
-6.0018649 5.3869705 -0.69743866
-5.9598503 5.4156556 -0.69640321
-5.9118447 5.438632 -0.69467747
-5.8718014 5.4686928 -0.69390088
-5.7917447 5.4608755 -0.68837857
-5.7581291 5.4963102 -0.68837857
-5.7056694 5.5135374 -0.68613511
-5.6596246 5.5365992 -0.68466824
-5.6227145 5.5684171 -0.68432313
-5.5680389 5.5823565 -0.68182081
-5.5092096 5.5915766 -0.67880076
-5.4734068 5.6238475 -0.67862821
-5.4298205 5.6479888 -0.67750651
-5.3854589 5.6710849 -0.6762985
-5.3573761 5.7112889 -0.67716134
-5.3215547 5.7433228 -0.67707509
-5.2808328 5.7699881 -0.67638475
-5.2433252 5.8000646 -0.67612588
-5.1950312 5.8180079 -0.67448646
-5.1513271 5.8408084 -0.67345101
-5.1114655 5.8677988 -0.67293334
-5.0708165 5.893765 -0.67232931
-5.0145597 5.9012322 -0.66965443
-4.9853005 5.9402843 -0.67060357
-4.9385862 5.9584889 -0.66922301
-4.8912053 5.9755731 -0.66775614
-4.8506904 6.000824 -0.66723841
-4.8081851 6.0234661 -0.66646183
-4.7600346 6.0387712 -0.66490871
-4.7228913 6.0678644 -0.66490871
-4.6855707 6.0967293 -0.66490871
-4.6480737 6.1253648 -0.66490871
-4.6092072 6.1521749 -0.66473609
-4.5701866 6.1787386 -0.66456354
-4.5280762 6.2010322 -0.6639595
-4.4794559 6.2141514 -0.66240638
-4.4395099 6.2390847 -0.66214752
-4.3954177 6.2580547 -0.66128463
-4.3546662 6.2816315 -0.66093951
-4.3137908 6.304944 -0.66059434
-4.2700057 6.323863 -0.65981776
-4.2294655 6.3474569 -0.65955895
-4.1838708 6.3632994 -0.6585235
-4.1496272 6.3963737 -0.65930009
-4.1178207 6.4334626 -0.6605081
-4.0644388 6.4367056 -0.65826464
-4.0264473 6.4640603 -0.6585235
-3.9950535 6.5022259 -0.65990406
-3.9550812 6.5266171 -0.65990406
-3.9067831 6.5370789 -0.6585235
-3.858506 6.5471945 -0.65714294
-3.8132555 6.5621324 -0.65628004
-3.7714331 6.5828128 -0.65602118
-3.7383199 6.6188426 -0.65731549
-3.6971524 6.6407852 -0.65722919
-3.6568148 6.6642189 -0.65731549
-3.6101689 6.6760149 -0.65628004
-3.5747592 6.7085919 -0.65731549
-3.5326028 6.7286358 -0.65714294
-3.4894195 6.746645 -0.65679777
-3.4497662 6.7714796 -0.65714294
-3.4135132 6.803205 -0.65817833
-3.3739116 6.8284879 -0.65860975
-3.3310781 6.8472695 -0.65843719
-3.285989 6.86129 -0.65783322
-3.2468004 6.8876314 -0.65843719
-3.2061546 6.9110389 -0.65878236
-3.1636889 6.9305816 -0.65878236
-3.1235528 6.9553161 -0.65930009
-3.0856473 6.9852867 -0.66033548
-3.0427284 7.0040884 -0.66033548
-2.9973469 7.0171289 -0.65981776
-2.9553914 7.0381441 -0.66007662
-2.9098701 7.0506201 -0.65955895
-2.8717949 7.0812678 -0.66076696
-2.8264475 7.0941277 -0.66033548
-2.7788723 7.1011314 -0.65938634
-2.7341762 7.1152582 -0.65912747
-2.6922245 7.1365619 -0.65955895
-2.653573 7.1669612 -0.66085321
-2.61567 7.1999636 -0.66240638
-2.5747867 7.2252622 -0.66326922
-2.5297477 7.2390437 -0.66309667
-2.4862504 7.2572575 -0.66335553
-2.4423084 7.2742653 -0.66352808
-2.4013636 7.3004708 -0.66456354
-2.3678253 7.3501539 -0.66775614
-2.3163886 7.3445916 -0.6659441
-2.2739239 7.3672342 -0.66672069
-2.2364509 7.4067993 -0.66905046
-2.1494942 7.2799239 -0.65636635
-1.933803 6.7004619 -0.60295504
-1.8164163 6.4417944 -0.57862234
-1.7570218 6.3807788 -0.57215083
-1.7535179 6.5242138 -0.58405834
-1.6649444 6.3498192 -0.56749135
-1.5788258 6.1755557 -0.55101067
-1.5076728 6.0517182 -0.53910315
-1.4303493 5.8952947 -0.5243482
-1.3671368 5.789546 -0.51416641
-1.3037161 5.6764503 -0.5033806
-1.2445568 5.5754399 -0.49371654
-1.1736028 5.4135542 -0.47870269
-1.1067344 5.2607632 -0.46455175
-1.0555223 5.1747184 -0.45635453
-1.0092701 5.1077938 -0.44988304
-0.95546097 4.9964647 -0.4395287
-0.90776473 4.9101439 -0.43141776
-0.85976398 4.8155823 -0.42261657
-0.82546693 4.7932763 -0.42020056
-0.79115021 4.7687654 -0.41761196
-0.7642293 4.7882876 -0.41890624
-0.73740041 4.8096275 -0.42037311
-0.70845479 4.8180041 -0.42071825
-0.67929524 4.8252201 -0.42097712
-0.65140158 4.842134 -0.42209885
-0.6247198 4.8697553 -0.42416972
-0.59591371 4.8823977 -0.42494631
-0.56628841 4.8889313 -0.42520514
-0.5367139 4.896275 -0.42555031
-0.50840211 4.9163227 -0.42701715
-0.4805389 4.9431486 -0.42908803
-0.45146295 4.9598942 -0.43029603
-0.42076859 4.9595928 -0.4300372
-0.39251542 4.9898911 -0.43245322
-0.36311436 5.0090981 -0.43392009
-0.33204284 5.0062613 -0.43348864
-0.30281338 5.0330663 -0.43564579
-0.27342844 5.0626845 -0.43806183
-0.24259713 5.069243 -0.43849325
-0.21186151 5.0795941 -0.43926984
-0.18104333 5.090755 -0.44013271
-0.15035941 5.1106915 -0.44177213
-0.11939136 5.1284499 -0.443239
-0.088176966 5.1440272 -0.44453329
-0.056895971 5.1703734 -0.44677675
-0.025213318 5.1795912 -0.44755331
0.0065842471 5.1916037 -0.44858876
0.038624767 5.216372 -0.45074591
0.070874728 5.2339678 -0.45229906
0.10338137 5.253356 -0.45402479
0.13620587 5.2755289 -0.45600939
0.16924258 5.295505 -0.4578214
0.20241562 5.3122869 -0.45937455
0.23531599 5.3179116 -0.45997855
0.2683934 5.3253231 -0.46075514
0.30241504 5.3474479 -0.46282601
0.33815342 5.3922243 -0.46688145
0.3722606 5.4049573 -0.46817577
0.40608916 5.4115119 -0.46895233
0.44057697 5.4248066 -0.47033292
0.47533 5.4388738 -0.47179979
0.51212949 5.4725561 -0.47499239
0.55054766 5.5178866 -0.47922042
0.58586484 5.5282745 -0.48042843
0.62099695 5.5354667 -0.48137757
0.656708 5.546392 -0.48267189
0.69232994 5.5551105 -0.48379359
0.72950608 5.5744653 -0.48586446
0.76857018 5.6054177 -0.48897079
0.80662709 5.6262369 -0.49121422
0.84482086 5.6458139 -0.4933714
0.88374555 5.6680865 -0.49578741
0.92425174 5.6979599 -0.49889371
0.96350169 5.7177243 -0.50113714
1.0019991 5.7313328 -0.50286287
1.0451406 5.7691903 -0.50674576
1.0863966 5.7940035 -0.50950694
1.1268584 5.8126574 -0.5117504
1.167394 5.8300552 -0.51390755
1.2089922 5.8510766 -0.51640981
1.2513071 5.8737545 -0.51908469
1.2909554 5.8825088 -0.52055156
1.3333927 5.9026585 -0.52305388
1.3790575 5.935123 -0.52667791
1.4244761 5.9643407 -0.53004307
1.4667437 5.9787097 -0.53211397
1.507781 5.9869871 -0.53366709
1.5542096 6.0152416 -0.53703231
1.6046137 6.056633 -0.54160547
1.6482733 6.0707097 -0.54376262
1.694302 6.0921559 -0.54661006
1.7414739 6.1161394 -0.54971635
1.7931848 6.1541195 -0.55411696
1.8377422 6.165915 -0.55618787
1.885707 6.1878772 -0.55920786
1.9346025 6.2113843 -0.56240046
1.9902018 6.2544594 -0.5674051
2.0433226 6.2876091 -0.57154685
2.0912769 6.3033204 -0.57413542
2.1391809 6.3177352 -0.57663774
2.1928709 6.3478069 -0.58060688
2.2533009 6.395309 -0.5862155
2.3110271 6.43293 -0.59096128
2.3597059 6.4438872 -0.59329098
2.4134824 6.467556 -0.59682876
2.4697623 6.4963932 -0.6008842
2.5275657 6.5275688 -0.6051985
2.5847476 6.5554972 -0.609254
2.6434801 6.585742 -0.61356831
2.7075789 6.6275005 -0.61900431
2.764257 6.6493993 -0.62262833
2.8337247 6.7002134 -0.62901354
2.8917131 6.7220516 -0.63272387
2.9568646 6.7589459 -0.63790107
3.0189323 6.7870998 -0.64230168
3.0876138 6.828361 -0.64799654
3.1560817 6.8672214 -0.65351886
3.2116504 6.8766122 -0.65628004
3.286674 6.9260812 -0.66292411
3.3615594 6.9730902 -0.66939557
3.434077 7.0131755 -0.67526305
3.5076551 7.0535235 -0.68121678
3.5764678 7.0825582 -0.68613511
3.6512222 7.1216512 -0.6920889
3.72751 7.1618576 -0.69821525
3.814666 7.2207737 -0.70623988
3.8918555 7.2586927 -0.71227992
3.9615579 7.2810569 -0.71685308
4.0629797 7.3595281 -0.72703487
4.1445761 7.3996496 -0.73350632
4.2066364 7.4035301 -0.73644006
4.2942724 7.4509482 -0.74377441
4.3881779 7.5070276 -0.75205791
4.4869952 7.569087 -0.76103169
4.5374608 7.548244 -0.76172197
4.5691714 7.4964414 -0.75930595
4.5852284 7.4199572 -0.75438762
4.6100416 7.358757 -0.75102246
4.6438913 7.3126707 -0.74921048
4.6757312 7.2639337 -0.74713957
4.7594099 7.2951827 -0.75335222
5.3057742 8.0245705 -0.83213168
5.3987246 8.0572472 -0.83894831
5.5012283 8.1022711 -0.8471455
5.6163449 8.1635733 -0.85715473
5.7369761 8.2303028 -0.86785424
5.8551865 8.2909718 -0.87803602
5.9587026 8.3286209 -0.88588804
6.1137657 8.4354887 -0.90124702
6.2343941 8.4917755 -0.91134256
6.3541584 8.5444965 -0.92117918
6.5005755 8.6302834 -0.93472618
6.5576377 8.5957785 -0.93533015
6.4993935 8.4119005 -0.91962606
6.5300107 8.3451862 -0.91669232
6.5507731 8.2667007 -0.91246426
6.5882783 8.2100334 -0.91065228
6.629734 8.1586304 -0.90944427
7.6786051 9.3317461 -1.0456041
7.8014073 9.3632917 -1.0544916
7.8773427 9.3373289 -1.056994
7.950017 9.3069992 -1.0590649
8.1034298 9.369566 -1.0718352
8.174551 9.3354073 -1.0736473
8.2230864 9.275383 -1.0725255
8.2612104 9.2039928 -1.0701095
8.2887182 9.1214256 -1.0663991
8.3094549 9.0322695 -1.0619123
8.3212614 8.9344559 -1.0563899
8.372508 8.8796043 -1.0559585
8.4048214 8.8050051 -1.0531974
8.4503822 8.7446709 -1.0521619
8.5045767 8.693367 -1.0522482
8.5521488 8.6353579 -1.0515579
8.5344343 8.5123663 -1.0429293
8.5659227 8.4395628 -1.040427
8.5968409 8.3666945 -1.0379246
8.6573524 8.3227634 -1.0390464
8.7125921 8.2736025 -1.0395641
8.7101488 8.1702318 -1.0332652
8.7579241 8.114603 -1.0330063
8.8141642 8.0667658 -1.033783
8.8679295 8.0165396 -1.0343006
8.9072905 7.9533501 -1.0331789
8.9387379 7.8833904 -1.0311943
8.9674091 7.8113813 -1.0289508
9.0015755 7.7445154 -1.0273978
9.0641098 7.7020388 -1.0291234
9.1226444 7.6558843 -1.0304177
9.1640787 7.5953145 -1.0298138
9.2151365 7.5427279 -1.0303315
9.2612448 7.486043 -1.0303315
9.0967703 7.2612696 -1.0070342
9.07621 7.1541286 -0.99987239
9.1057844 7.0872889 -0.99831921
9.2446842 7.1047387 -1.0087599
9.3349295 7.0834112 -1.0138508
9.3686495 7.0188322 -1.0128154
9.3883104 6.9440346 -1.010313
9.4162588 6.8757234 -1.0087599
9.4631195 6.821312 -1.0092776
9.4211845 6.7036281 -1.0003901
9.4107771 6.609621 -0.99495405
9.4290485 6.5364294 -0.99262428
9.4607553 6.4728251 -0.99176145
9.4788256 6.4001584 -0.98951799
9.4466152 6.2943702 -0.98209739
9.4592524 6.2193213 -0.97942251
9.4512653 6.1313424 -0.97467673
9.5147228 6.0898843 -0.97735161
9.5106316 6.0053253 -0.97312361
9.5270052 5.9342146 -0.97105271
9.5369225 5.8594794 -0.96837783
9.552247 5.7884607 -0.96630698
9.5345621 5.6980543 -0.96095723
9.4903803 5.5929098 -0.95301884
9.4650812 5.5000367 -0.94706511
0.7969541 0.45683485 -0.078506529
0.79800719 0.45095643 -0.078333959
0.81381631 0.45332026 -0.079628251
0.8165825 0.44831824 -0.079628251
0.819318 0.44329938 -0.079628251
0.81674713 0.43545288 -0.079110533
0.82293206 0.43228552 -0.079455681
0.8193745 0.42402434 -0.078851677
0.82196081 0.41898882 -0.078851677
0.82451624 0.41393745 -0.078851677
0.82704055 0.40887052 -0.078851677
0.82953376 0.40378821 -0.078851677
0.83289433 0.39912099 -0.078937963
0.83172292 0.39230382 -0.078592815
0.83863318 0.38928929 -0.079024248
0.84100604 0.3841362 -0.079024248
0.8578887 0.38549852 -0.080404833
0.86479455 0.38224 -0.080836259
0.8735202 0.37970504 -0.081440262
0.88682795 0.37903392 -0.082475699
0.88086969 0.37011412 -0.081699125
0.8886497 0.36698249 -0.082216844
0.89827073 0.36451802 -0.082907133
0.89308625 0.35604978 -0.082216844
0.89525408 0.3505632 -0.082216844
0.90296817 0.3472074 -0.082734562
0.89948863 0.33955064 -0.082216844
0.90435803 0.33506277 -0.082475699
0.86706799 0.31522104 -0.078851677
0.8511548 0.30354127 -0.077212237
9.853653 3.4433541 -0.90297276
9.8972158 3.3905768 -0.90504366
9.9178343 3.3297851 -0.90504366
0.9350059 0.30777419 -0.084201433
0.95489424 0.30783495 -0.085840873
0.94346309 0.29777521 -0.084632859
0.92432922 0.28551713 -0.082734562
0.92892492 0.28070399 -0.082993418
0.92011935 0.27189595 -0.082044274
0.89018238 0.25712973 -0.079196818
0.86105883 0.2430118 -0.076435655
0.83563888 0.23031911 -0.074019641
0.89187801 0.23992515 -0.078937963
0.90682518 0.23798524 -0.08014597
0.90923363 0.23266333 -0.080232255
0.90967739 0.22683918 -0.08014597
0.90524298 0.21984403 -0.079628251
0.90948367 0.2149722 -0.079887114
0.90495962 0.20804986 -0.079369396
0.90913624 0.20314424 -0.079628251
0.90939194 0.19735101 -0.079541966
0.92131001 0.19402301 -0.080491118
0.92443556 0.18876445 -0.080663688
0.92655379 0.18328175 -0.080749974
0.92961806 0.17796722 -0.080922544
0.92481452 0.17117342 -0.080404833
0.92486662 0.16532059 -0.08031854
0.92095447 0.15879744 -0.079887114
0.91110015 0.1513505 -0.078937963
0.90807641 0.14512935 -0.078592815
0.92076701 0.14136598 -0.079628251
0.93935931 0.13832158 -0.081181407
10.014043 1.3469086 -0.87406683
9.9430637 1.2753006 -0.8671639
9.941802 1.2131813 -0.86638737
9.9312439 1.1500942 -0.86483419
9.9519787 1.0906546 -0.8660422
9.9346991 1.0271115 -0.86397135
9.9140425 0.96353263 -0.86164159
9.9108381 0.90187079 -0.860865
9.9350471 0.84264129 -0.86250448
9.8804379 0.77698034 -0.85732728
9.8730955 0.71547669 -0.85629183
9.833559 0.65198404 -0.85249525
9.8184795 0.59049827 -0.85085583
9.8079901 0.52949059 -0.84964782
9.8001089 0.46877655 -0.84869862
9.7848825 0.40788895 -0.8471455
9.7702751 0.34724122 -0.84567863
9.7692347 0.28719765 -0.84541976
9.7668295 0.22715679 -0.84507459
9.7042866 0.16613452 -0.83955228
9.7061205 0.10659793 -0.83963859
9.7016106 0.047016274 -0.83920711
7.9543214 -0.022027094 -0.84316933
7.9530416 -0.070824705 -0.84306377
7.9474864 -0.11954793 -0.84253591
7.9406376 -0.16818468 -0.84190249
7.8798141 -0.21527973 -0.83556831
7.8584676 -0.2629618 -0.83345687
7.8427954 -0.31062567 -0.83197892
7.8367682 -0.35856083 -0.83155662
7.8334274 -0.40658811 -0.83145106
7.8704948 -0.45694771 -0.83567387
7.8467035 -0.50389498 -0.83345687
7.8206487 -0.55042809 -0.83102876
7.8300138 -0.59938997 -0.83240122
7.8212328 -0.64701325 -0.83187336
7.802258 -0.69367152 -0.83028978
7.7661767 -0.73852235 -0.82691157
7.7436905 -0.7843585 -0.82501131
7.7446647 -0.83249527 -0.82564473
7.7295303 -0.8788774 -0.82458901
7.7348528 -0.92758989 -0.82575029
7.7240829 -0.97441071 -0.82522243
7.6854258 -1.0174822 -0.82173866
7.6573677 -1.0616174 -0.81941611
7.6448054 -1.1077271 -0.81878269
7.627049 -1.1529797 -0.81762141
7.593308 -1.1955829 -0.814771
7.581903 -1.2415096 -0.81434876
7.5810061 -1.2891743 -0.81508774
7.5651183 -1.3342851 -0.8142432
7.5518975 -1.3797854 -0.81371534
7.5423121 -1.4259124 -0.81360978
7.5236607 -1.470258 -0.81255406
7.4940276 -1.5122656 -0.81033707
7.4875283 -1.5588274 -0.81065381
7.4719887 -1.6034893 -0.81002039
7.4396763 -1.6443721 -0.80759227
7.3858123 -1.6800683 -0.8028416
7.3637447 -1.722638 -0.80157477
7.3443341 -1.7656974 -0.80062467
7.3208108 -1.8076302 -0.79925227
7.3481402 -1.8622845 -0.80347502
7.2740164 -1.8910785 -0.79661298
7.260354 -1.9351636 -0.79640186
7.1907859 -1.9639606 -0.79006767
7.1632771 -2.0037608 -0.78837854
7.1412873 -2.0449393 -0.78732288
7.1066561 -2.0822899 -0.78489476
7.0842199 -2.1230025 -0.78383905
7.0387321 -2.1565289 -0.78024966
7.0168266 -2.1970038 -0.77929956
6.9823761 -2.2333539 -0.776977
6.9571977 -2.2724509 -0.77571017
6.8997273 -2.300631 -0.77085394
6.8675942 -2.336839 -0.76884812
6.8493686 -2.3776298 -0.76842582
6.784029 -2.401696 -0.76272506
6.7785187 -2.4466519 -0.76378077
6.7727118 -2.4916306 -0.76483649
6.7861619 -2.5439587 -0.76810914
6.7323356 -2.5710077 -0.76378077
6.6765804 -2.596772 -0.75924128
6.6364822 -2.6281724 -0.75649643
6.5704255 -2.6487706 -0.75079566
6.5264487 -2.6777148 -0.74762857
6.5199904 -2.7219231 -0.74878985
6.5013351 -2.7611003 -0.74857873
6.4787941 -2.7985744 -0.74794531
6.456037 -2.8358757 -0.74731189
6.4176307 -2.866111 -0.74488378
6.3745694 -2.8939276 -0.7419278
6.3476634 -2.9288216 -0.74087214
6.2998595 -2.9537866 -0.73738831
6.2852082 -2.9940965 -0.73781061
6.2819357 -3.0399678 -0.73960531
6.1542826 -3.0249507 -0.72672576
6.1222596 -3.0559952 -0.72514218
6.1237946 -3.1038415 -0.7275703
6.0966763 -3.1372638 -0.7266202
6.0658526 -3.1686287 -0.7252478
6.0717754 -3.2192948 -0.72830927
5.9984889 -3.2277515 -0.72186953
6.0056281 -3.2792678 -0.72514218
5.9627767 -3.3035283 -0.72239739
5.9025168 -3.3176439 -0.71754116
5.8440371 -3.33213 -0.71289611
5.8054037 -3.3574724 -0.71067911
5.7924132 -3.3975577 -0.71162927
5.7423973 -3.4157538 -0.70803988
5.6898232 -3.4319239 -0.70413381
5.607574 -3.4294224 -0.69653279
5.5712128 -3.4543345 -0.69463253
5.5246534 -3.4725804 -0.69146544
5.4730487 -3.48718 -0.68766493
5.4732695 -3.5347209 -0.69040972
5.4448209 -3.5638819 -0.68956518
5.4187074 -3.5944753 -0.68903732
5.3816943 -3.6176717 -0.68713707
5.3437791 -3.6399901 -0.68513125
5.3164325 -3.669322 -0.68449783
5.261219 -3.6790822 -0.68027502
5.2093325 -3.6906035 -0.67647451
5.1720467 -3.7120624 -0.67457426
5.1435418 -3.739635 -0.67383528
5.1020813 -3.7575634 -0.67140716
5.0494361 -3.7668014 -0.66750103
5.0095658 -3.7851262 -0.6652841
4.9901953 -3.818814 -0.66581196
4.9493766 -3.8359613 -0.6634894
4.875679 -3.8269684 -0.65673292
4.8030596 -3.8178358 -0.65008205
4.7609506 -3.8322721 -0.64754838
4.7581596 -3.8783739 -0.65039873
4.7166319 -3.8929393 -0.64797062
4.7071557 -3.9339213 -0.64997643
4.6905203 -3.9691525 -0.65103215
4.670609 -4.00174 -0.65166557
4.6392059 -4.0244589 -0.65071547
4.600975 -4.0410385 -0.64881521
4.581295 -4.0738182 -0.64955419
4.5421696 -4.0892119 -0.64754838
4.5067029 -4.1076283 -0.64607036
4.4631419 -4.1183462 -0.64343113
4.4290676 -4.1375093 -0.64216429
4.3934813 -4.1550426 -0.64068633
4.3564095 -4.1709204 -0.6389972
4.3435893 -4.2100286 -0.64089745
4.2850218 -4.2045674 -0.63604122
4.24997 -4.2216711 -0.63466883
4.198741 -4.2222877 -0.63086832
4.1769361 -4.2522273 -0.63150173
4.1493812 -4.2763491 -0.63129061
4.1141176 -4.292397 -0.62991816
4.0507798 -4.2785697 -0.62421739
4.0285268 -4.3077016 -0.62485081
3.9986455 -4.3286872 -0.62432301
3.962625 -4.3428578 -0.62284499
3.9165943 -4.3456707 -0.61978346
3.8753078 -4.3532815 -0.61746097
3.8261957 -4.3515897 -0.61387157
3.8079002 -4.3847446 -0.61524397
3.7867515 -4.4148192 -0.61619413
0.46175694 -0.54594284 -0.074620686
0.46860936 -0.56096762 -0.076309808
0.46262455 -0.56076634 -0.075887524
0.44479296 -0.55985028 -0.074620686
0.44134939 -0.5625689 -0.074620686
0.43788922 -0.56526637 -0.074620686
0.43683201 -0.57109982 -0.07504297
0.43691954 -0.57852745 -0.075676389
0.4351469 -0.58358747 -0.075993098
0.43332857 -0.58864743 -0.076309808
0.42970851 -0.59129518 -0.076309808
0.42781335 -0.59634322 -0.076626517
0.42472163 -0.59976798 -0.076732084
0.4221743 -0.60399187 -0.076943226
0.42354891 -0.61393327 -0.077893354
0.42481717 -0.62391394 -0.078843482
0.42597872 -0.63393307 -0.07979361
0.43308577 -0.65310103 -0.081905007
0.43288627 -0.66156775 -0.082644001
0.43637931 -0.67590135 -0.084121972
0.4354333 -0.68359596 -0.084755398
0.43281984 -0.68877953 -0.085072108
0.43645403 -0.70409429 -0.086655654
0.44718757 -0.73135096 -0.08971718
0.44526252 -0.73833692 -0.090245031
0.43868801 -0.73763788 -0.089822747
0.40947324 -0.69830245 -0.084649824
0.40169194 -0.69477838 -0.083910838
0.39742133 -0.69722998 -0.083910838
0.38679412 -0.68839043 -0.082538426
0.40186253 -0.7255314 -0.086761221
0.39501745 -0.72362125 -0.08623337
0.35471448 -0.65950316 -0.078210063
0.34936067 -0.66909295 -0.078843482
0.33572167 -0.66268951 -0.077576645
0.24119514 -0.69526803 -0.076837651
0.23756644 -0.69861728 -0.077048793
0.23422086 -0.70289123 -0.077365503
0.22588156 -0.69202942 -0.075993098
0.22861351 -0.71518195 -0.078421205
1.4909122 -5.0779662 -0.5605588
1.4564337 -5.0755486 -0.55929196
1.4204297 -5.0671554 -0.5573917
1.3908874 -5.0815301 -0.55802512
1.350695 -5.0563445 -0.55433017
1.3198954 -5.0654993 -0.55443573
1.2983422 -5.1110897 -0.55855298
1.2657615 -5.1141338 -0.55802512
1.2306283 -5.1063371 -0.55633599
1.199046 -5.1128235 -0.55623043
1.1698639 -5.1297793 -0.55728614
1.1295403 -5.0970569 -0.55295777
1.1034768 -5.1281948 -0.55559701
1.0705665 -5.1280556 -0.55485803
1.0369103 -5.123807 -0.55369675
1.0073655 -5.1398311 -0.55475247
0.97469682 -5.1400537 -0.55411905
0.94367784 -5.1488719 -0.55443573
0.91154701 -5.1516275 -0.55411905
0.88125902 -5.1649656 -0.55496359
0.84938949 -5.1692944 -0.55485803
0.81579131 -5.1626225 -0.55359119
0.78320295 -5.1616321 -0.55295777
0.75080067 -5.1614203 -0.55242991
0.71801883 -5.1580505 -0.55158532
0.68609381 -5.1603875 -0.5513742
0.65291578 -5.1526623 -0.55010736
0.62271619 -5.1684189 -0.5513742
0.59065264 -5.1691785 -0.55105752
0.55892402 -5.1727057 -0.55105752
0.52788055 -5.1829624 -0.5517965
0.4954049 -5.1791749 -0.55105752
0.46352804 -5.1811266 -0.5509519
0.43205911 -5.1878371 -0.5513742
0.39922357 -5.1775017 -0.5500018
0.36836386 -5.1927481 -0.5513742
0.33630162 -5.1919341 -0.55105752
0.30513787 -5.205812 -0.55232435
0.27303323 -5.204607 -0.55200762
0.24044751 -5.1922779 -0.55052966
0.20966448 -5.2204823 -0.55338001
0.17732288 -5.2127261 -0.55242991
0.14461125 -5.1878719 -0.54968506
0.11284154 -5.1916437 -0.5500018
0.081234179 -5.2081475 -0.55169094
0.049561936 -5.2383785 -0.55485803
0.017340079 -5.2157125 -0.55242991
-0.014692672 -5.2266593 -0.55359119
-0.046946861 -5.2473526 -0.55580813
-0.079053864 -5.2410002 -0.55517471
-0.11146227 -5.2523465 -0.55644155
-0.14357966 -5.2475877 -0.55601931
-0.1754438 -5.2366695 -0.55496359
-0.20706154 -5.2225771 -0.55359119
-0.23910277 -5.2212081 -0.55359119
-0.27175257 -5.2315598 -0.55485803
-0.30419302 -5.2357502 -0.55549145
-0.33663151 -5.2387471 -0.55601931
-0.36904845 -5.240551 -0.55644155
-0.40028709 -5.2262897 -0.55517471
-0.4333303 -5.2356272 -0.55644155
-0.46465552 -5.2239552 -0.55549145
-0.49641815 -5.2180362 -0.55517471
-0.53173035 -5.2475405 -0.55865854
-0.57018441 -5.3025141 -0.56488717
-0.60136211 -5.2870593 -0.56362033
-0.63272667 -5.2743835 -0.56267017
-0.66383398 -5.2605362 -0.56161445
-0.6955778 -5.2524199 -0.56119221
-0.7230162 -5.2135782 -0.55749726
-0.75427991 -5.2041235 -0.5569694
-0.78515774 -5.1925144 -0.55623043
-0.83076173 -5.2750254 -0.56562614
-0.86198872 -5.262959 -0.56488717
-0.89243251 -5.2467875 -0.56372589
-0.92771697 -5.2588406 -0.56562614
-0.95407176 -5.2207675 -0.56214231
-0.99291974 -5.2509685 -0.56604844
-1.0333178 -5.2867436 -0.57058793
-1.0633777 -5.2686062 -0.5693211
-1.0956852 -5.2619824 -0.5693211
-1.1239887 -5.2366872 -0.56731528
-1.1569574 -5.2335753 -0.56773752
-1.1910325 -5.235105 -0.56868768
-1.2238115 -5.2306032 -0.56900436
-1.252165 -5.2075257 -0.56731528
-1.2850473 -5.2036061 -0.56773752
-1.3211036 -5.2120104 -0.56953222
-1.367316 -5.2586656 -0.57554972
-1.3972527 -5.2415285 -0.57459956
-1.4238875 -5.2127113 -0.57238263
-1.4593267 -5.2163262 -0.57375503
-1.4989687 -5.2340422 -0.576711
-1.5313356 -5.2257004 -0.57681656
-1.5645126 -5.2200165 -0.5772388
-1.5953476 -5.2065153 -0.57681656
-1.6272641 -5.1966281 -0.57681656
-1.6563936 -5.1780214 -0.5758664
-1.6986291 -5.1999002 -0.57945579
-1.7361634 -5.2063603 -0.58135605
-1.7725599 -5.2087898 -0.58283401
-1.8057911 -5.2015734 -0.5832563
-1.8363463 -5.1866455 -0.58283401
-1.8634111 -5.1621847 -0.58135605
-1.8971101 -5.1562538 -0.58198947
-1.9360411 -5.1640706 -0.58420646
-1.9687548 -5.1548815 -0.58452314
-2.0050323 -5.1547527 -0.58589554
-2.0274723 -5.1192384 -0.5832563
-2.0666513 -5.1260705 -0.5854733
-2.106745 -5.1344538 -0.58790135
-2.1397419 -5.1251011 -0.58832365
-2.1692054 -5.1072989 -0.58779579
-2.1997139 -5.0920668 -0.58758467
-2.2385137 -5.0957727 -0.58959049
-2.2750092 -5.0937462 -0.59096289
-2.3127966 -5.0941792 -0.59265202
-2.3398452 -5.0708628 -0.59159631
-2.3666947 -5.0474057 -0.59054065
-2.3937721 -5.0247092 -0.58959049
-2.4379838 -5.0376759 -0.59286314
-2.4837596 -5.0529666 -0.59645253
-2.5147173 -5.0376315 -0.59645253
-2.5442319 -5.0194454 -0.59613585
-2.5768025 -5.007277 -0.59655809
-2.6139226 -5.0037117 -0.59803611
-2.6487672 -4.9954863 -0.59898621
-2.6817248 -4.9835181 -0.59951407
-2.7084405 -4.9599872 -0.59866953
-2.754724 -4.971981 -0.6021533
-2.7915127 -4.9662547 -0.6035257
-2.8224249 -4.9498968 -0.60363132
-2.8527439 -4.9324856 -0.60363132
-2.8854704 -4.9191775 -0.60415912
-2.9227157 -4.9133458 -0.60563713
-2.9574301 -4.9029841 -0.60658723
-2.9947209 -4.8966227 -0.60806525
-3.0252335 -4.8790002 -0.60817081
-3.0535262 -4.85782 -0.60785407
-3.0944953 -4.8566051 -0.61007106
-3.1301701 -4.8467159 -0.61123234
-3.1652954 -4.8357387 -0.612288
-3.2097466 -4.8386016 -0.61513841
-3.2449222 -4.8270693 -0.61619413
-3.2750392 -4.8078899 -0.61629969
-3.3044784 -4.787704 -0.61629969
-3.3337927 -4.7673378 -0.61629969
-3.3664308 -4.7516613 -0.61693311
-3.4053783 -4.7446508 -0.6187278
-3.4437821 -4.736536 -0.62041688
-3.4539123 -4.689692 -0.61703867
-3.4927294 -4.681962 -0.61883336
-3.5309823 -4.6731381 -0.62052244
-3.5456915 -4.6332202 -0.61809438
-3.6032898 -4.649107 -0.62316173
-3.6501656 -4.6503787 -0.62632883
-3.6866739 -4.6380148 -0.62770122
-3.7106988 -4.6098838 -0.62696224
-3.7357736 -4.5831742 -0.62643439
-3.77142 -4.5693693 -0.62770122
-3.8140512 -4.563694 -0.63012934
-3.8702416 -4.5736084 -0.63477439
-3.9092298 -4.562614 -0.63656908
-3.9449706 -4.5475559 -0.63783592
-3.9649258 -4.514298 -0.63656908
-3.981318 -4.4772506 -0.63477439
-4.0519571 -4.5007796 -0.64163643
-4.0794973 -4.4758325 -0.64163643
-4.1392488 -4.4857998 -0.64670378
-4.1660166 -4.4595904 -0.64659822
-4.1871533 -4.4274411 -0.64564812
-4.2025509 -4.3894539 -0.64385343
-4.237709 -4.3721542 -0.64512026
-4.2686348 -4.3503289 -0.64575368
-4.3106632 -4.3395782 -0.64807618
-4.340735 -4.3165531 -0.64860404
-4.3678484 -4.2905345 -0.6487096
-4.4290586 -4.2975883 -0.65388256
-4.4811869 -4.295105 -0.65768307
-4.5089006 -4.2688956 -0.65789419
-4.5415454 -4.247263 -0.65884435
-4.5740938 -4.2253904 -0.65979445
-4.6058102 -4.2026076 -0.66063905
-4.6263399 -4.1696067 -0.65990001
-4.6473808 -4.1371741 -0.65926659
-4.6726789 -4.1085801 -0.65926659
-4.7023048 -4.0837445 -0.65990001
-4.7416134 -4.0671172 -0.66190588
-4.7877226 -4.0559468 -0.6648618
-4.8376856 -4.0475535 -0.66834563
-4.8700948 -4.0241289 -0.66940129
-4.8946948 -3.9941707 -0.66940129
-4.9237556 -3.9678066 -0.67003471
-4.9589019 -3.9461901 -0.67151272
-4.9978766 -3.9273639 -0.67351854
-5.0870838 -3.9472272 -0.68228084
-5.1143651 -3.9183588 -0.68270314
-5.1533785 -3.8983035 -0.68470895
-5.1875577 -3.874346 -0.68608135
-5.2504478 -3.8713641 -0.69125426
-5.2877693 -3.8490248 -0.69304895
-5.305635 -3.8124447 -0.69230998
-5.356503 -3.7993815 -0.69589937
-5.3894892 -3.7732878 -0.6971662
-5.4141765 -3.7412784 -0.69737732
-5.4362087 -3.707427 -0.69727176
-5.4728789 -3.6834414 -0.69906646
-5.4854369 -3.6431882 -0.69779962
-5.5035295 -3.6067357 -0.69727176
-5.5255566 -3.5728991 -0.69727176
-5.5389924 -3.5335789 -0.69621605
-5.5807672 -3.5122395 -0.69874972
-5.6148849 -3.4857991 -0.7003333
-5.6522799 -3.4611492 -0.70233911
-5.6895823 -3.4361718 -0.70434493
-5.7233739 -3.4088302 -0.7059285
-5.7639027 -3.3852327 -0.70835662
-5.7940311 -3.3552849 -0.70951784
-5.9086347 -3.373421 -0.72102499
-5.9370213 -3.3414929 -0.72197509
-5.9469781 -3.2992113 -0.72070825
-5.9705997 -3.2645679 -0.72113055
-6.0097766 -3.2382507 -0.7234531
-6.0312896 -3.2022471 -0.72366422
-6.0693274 -3.1748607 -0.72588122
-6.1390762 -3.1635289 -0.73189867
-6.1902928 -3.1420062 -0.73569918
-6.2370276 -3.1177502 -0.73897183
-6.2587171 -3.0807395 -0.73928857
-6.3043466 -3.0552917 -0.74245566
-6.3427191 -3.0259731 -0.74477822
-6.3656673 -2.9891119 -0.74530607
-6.3847909 -2.9504137 -0.74541163
-6.4027739 -2.9111819 -0.74541163
-6.4250546 -2.8738708 -0.74593949
-6.4498491 -2.8375976 -0.74678403
-6.4653134 -2.7971787 -0.74657291
-6.5015707 -2.7656317 -0.74878985
-6.5587835 -2.7425699 -0.75343496
-6.5754876 -2.7022743 -0.75343496
-6.5882568 -2.6603875 -0.75301266
-6.6100025 -2.6221132 -0.75364608
-6.6417184 -2.5876439 -0.75544077
-6.6741881 -2.5532393 -0.75734103
-6.6962447 -2.5146868 -0.75808001
-6.7236786 -2.4780238 -0.7594524
-6.7705507 -2.4482214 -0.76304179
-6.7826333 -2.4056344 -0.76272506
-6.808537 -2.3678925 -0.76399189
-6.8248205 -2.3267136 -0.76420307
-6.8521724 -2.2892058 -0.76568103
-6.887826 -2.2542348 -0.76810914
-6.9195199 -2.2176971 -0.77011496
-6.9472289 -2.1796649 -0.77169853
-6.982336 -2.1437111 -0.77412665
-7.0010719 -2.1025445 -0.77476007
-7.0262446 -2.0631905 -0.77613246
-7.0320811 -2.0181186 -0.77539349
-7.0673113 -1.981377 -0.77792716
-7.0994768 -1.9434912 -0.7801441
-7.1170325 -1.9014335 -0.78077751
-7.1285653 -1.8577285 -0.78077751
-7.1398301 -1.8139535 -0.78077751
-7.150826 -1.77011 -0.78077751
-7.1673527 -1.7275987 -0.78141093
-7.1904035 -1.6865412 -0.78278333
-7.2112808 -1.6448234 -0.78394461
-7.243567 -1.605496 -0.78637272
-7.2911949 -1.5691831 -0.79048997
-7.3376751 -1.5321424 -0.7945016
-7.4093142 -1.4997215 -0.80125809
-7.4310627 -1.4567184 -0.80263048
-7.4623318 -1.4153589 -0.8050586
-7.4855471 -1.3722351 -0.80664212
-7.5134096 -1.3297464 -0.80875355
-7.5527945 -1.2889758 -0.81213176
-7.6439662 -1.2563236 -0.82110524
-7.7104635 -1.2187172 -0.82743943
-7.7295938 -1.1731753 -0.82870626
-7.777976 -1.1317425 -0.83314019
-7.7650762 -1.0812519 -0.83102876
-7.7528353 -1.0310936 -0.82902294
-7.8073554 -0.98963493 -0.83419585
-7.8962107 -0.95171332 -0.84306377
-7.9295645 -0.90640956 -0.84601969
-7.9537611 -0.85976958 -0.84802556
-7.9994473 -0.81508613 -0.85235387
-8.0132074 -0.7668404 -0.85330403
-8.2009935 -0.73407334 -0.87283444
-8.2618294 -0.6884504 -0.87885195
-8.2480516 -0.63636553 -0.87695169
-8.2607279 -0.58637887 -0.87790179
-8.2552395 -0.53510135 -0.87695169
-8.2524109 -0.48408824 -0.87631828
-8.2889891 -0.43521866 -0.87990761
-8.3441505 -0.38679469 -0.88550282
-8.3553095 -0.33594888 -0.88645297
-8.3452873 -0.2842682 -0.88518614
-8.3428984 -0.2329458 -0.88476384
-8.3531179 -0.18194592 -0.88571399
-8.3689919 -0.13092318 -0.88729751
-8.3557167 -0.079436138 -0.88581955
-8.3560467 -0.028164933 -0.88581955
-8.3689899 0.023142098 -0.88719195
-8.3557625 0.074378736 -0.88581955
-8.3621092 0.12575147 -0.88655853
-8.3920002 0.17770834 -0.88983119
-8.4046688 0.22957642 -0.8913092
-8.417016 0.28160664 -0.89278716
-8.4141359 0.33320791 -0.8926816
-8.4049797 0.38451222 -0.89194262
-8.4064341 0.43628281 -0.89236486
-8.3688526 0.48584104 -0.88866991
-8.4064016 0.5397917 -0.89299828
-8.4118595 0.59198987 -0.89394844
-8.3971615 0.64275891 -0.89278716
-8.3980141 0.69468033 -0.89331502
-8.426281 0.74909991 -0.89679879
-8.443305 0.80285776 -0.89912134
-8.4491024 0.85575122 -0.90028262
-8.4555578 0.90885222 -0.90154946
-8.4409294 0.95970708 -0.9005993
-8.3776159 1.0046188 -0.89447629
-8.4068117 1.0604817 -0.89827681
-8.3715572 1.1082624 -0.89521527
-8.3429289 1.1566058 -0.89289272
-8.3356762 1.2077754 -0.89289272
-8.34974 1.2621676 -0.89521527
-8.366396 1.3172415 -0.89785451
-8.3512859 1.3674277 -0.89711553
-8.3221521 1.4151453 -0.89489853
-8.3054781 1.4648013 -0.894054
-8.3158979 1.5193081 -0.89616537
-8.3210754 1.5730746 -0.89774895
-8.3239546 1.6265804 -0.89912134
-8.3186913 1.6786077 -0.8996492
-8.3092079 1.7298212 -0.89975476
-8.2984381 1.780773 -0.89975476
-8.2883263 1.8318723 -0.89986032
-8.2866268 1.8848989 -0.90091604
-8.2991123 1.9413699 -0.90355527
-8.2928457 1.99365 -0.90418869
-8.2794905 2.0442581 -0.90408313
-8.2860708 2.099906 -0.90619451
-8.2701426 2.1499584 -0.90587783
-8.2087507 2.1878614 -0.9005993
-8.1644745 2.2298064 -0.89722109
-8.1238241 2.2723627 -0.89426512
-8.081048 2.3139565 -0.89109802
-8.1220474 2.3797102 -0.89722109
-8.1063404 2.4292159 -0.89711553
-8.0465946 2.4652226 -0.89215374
-8.048399 2.519896 -0.894054
-8.0261555 2.5671124 -0.89331502
-8.0168695 2.6184723 -0.894054
-7.9968781 2.6663556 -0.8936317
-7.9605975 2.7086482 -0.89141476
-7.9457064 2.7580945 -0.89162588
-7.9333205 2.8084555 -0.89215374
-7.925293 2.860456 -0.89320946
-7.9309244 2.9176121 -0.89584869
-7.8700395 2.9501677 -0.89099246
-7.8601503 3.0015936 -0.89194262
-7.8184147 3.0407567 -0.88930333
-7.7986856 3.0883064 -0.88919777
-7.7842002 3.1379588 -0.88972563
-7.7786002 3.1913233 -0.8913092
-7.8010859 3.2566104 -0.89616537
-7.8056703 3.3149087 -0.89901578
-7.7906613 3.3651066 -0.8996492
-7.7698665 3.4128458 -0.8996492
-7.7360673 3.4547806 -0.89817125
-7.6468105 3.4713595 -0.89025348
-7.5838299 3.4990537 -0.88539726
-7.5712214 3.549742 -0.88645297
-7.5492983 3.5961313 -0.88645297
-7.5163484 3.6371882 -0.88518614
-7.47961 3.6762221 -0.883497
-7.4382277 3.7127223 -0.88128006
-7.4082103 3.7546966 -0.88043547
-7.3646946 3.7896187 -0.87800735
-7.3280816 3.8278313 -0.87642384
-7.2807341 3.8601484 -0.87357342
-7.2140012 3.8816648 -0.86840051
-7.1778283 3.9191852 -0.86692256
-7.1458163 3.9588172 -0.8659724
-7.0893154 3.9845636 -0.86206633
-7.0344968 4.0107517 -0.85837138
-7.0123377 4.0553322 -0.85868812
-6.9641614 4.0847006 -0.8558377
-6.8928137 4.0999079 -0.85013694
-6.8479419 4.1303134 -0.84770882
-6.8182278 4.1696601 -0.84718096
-6.7485652 4.1841726 -0.84169132
-6.6764565 4.1964011 -0.83588499
-6.7260652 4.2853723 -0.84538627
-6.7188582 4.3389683 -0.84781438
-6.7228951 4.40026 -0.85172045
-6.6634493 4.4199929 -0.84760326
-6.611443 4.4441552 -0.84443617
-6.5750089 4.4784813 -0.84327489
-6.5097556 4.4927616 -0.83841866
-6.4152374 4.4858971 -0.82976192
-6.3583789 4.5044842 -0.82596141
-6.3120379 4.5300794 -0.8235333
-6.2897534 4.5728173 -0.82427233
-6.2495651 4.6024799 -0.82268876
-6.2634549 4.6722493 -0.82828397
-6.2711678 4.7381654 -0.83314019
-6.2538238 4.7856188 -0.83472371
-6.2125511 4.8147655 -0.83314019
-6.1813264 4.8515663 -0.83292902
-6.1444349 4.8838348 -0.83197892
-6.1058311 4.9145865 -0.83081764
-6.0578308 4.93751 -0.82838953
-5.9952068 4.9480047 -0.8239556
-5.9334474 4.9585562 -0.81962723
-5.9218893 5.0109262 -0.82226646
-5.928792 5.079514 -0.82754499
-5.910284 5.1268735 -0.82933968
-5.8884287 5.1715717 -0.83071208
-5.871449 5.220819 -0.83282346
-5.8237834 5.2427773 -0.83060652
-5.7804794 5.2683659 -0.82902294
-5.738543 5.2949691 -0.82765055
-5.7153931 5.3389044 -0.82902294
-5.7056484 5.3957353 -0.83240122
-5.7119427 5.468462 -0.83820754
-5.6582861 5.4840302 -0.83525157
-5.6124625 5.5068073 -0.83345687
-5.5701008 5.532732 -0.83219004
-5.5346456 5.5653954 -0.83197892
-5.5303602 5.6297522 -0.83651841
-5.4901724 5.6578712 -0.83567387
-5.4429655 5.6785307 -0.83377361
-5.3957129 5.6988244 -0.83187336
-5.3538508 5.7245622 -0.83081764
-5.3078279 5.7456193 -0.8291285
-5.2671108 5.7722034 -0.82828397
-5.2202749 5.7918563 -0.82648927
-5.1753807 5.8133807 -0.82501131
-5.141583 5.8472672 -0.82532799
-5.0971303 5.8689456 -0.8239556
-5.0487208 5.8857708 -0.82194978
-5.0086546 5.9120865 -0.82131636
-4.9652643 5.934319 -0.82015508
-4.9122877 5.9447441 -0.81741029
-4.8732038 5.9716921 -0.81698799
-4.8383427 6.0038037 -0.81730467
-4.7976971 6.0287099 -0.81667125
-4.755085 6.0509982 -0.81572115
-4.706893 6.0659204 -0.8138209
-4.6593022 6.0812693 -0.8120262
-4.5487008 6.0129967 -0.79914671
-4.5129099 6.0423875 -0.79935783
-4.4592237 6.0475554 -0.79640186
-4.4062295 6.0530972 -0.7935515
-4.3556571 6.0614471 -0.79112339
-4.3350692 6.1115789 -0.79418492
-4.3151698 6.1633143 -0.79745758
-4.2738791 6.1847677 -0.79682416
-4.2280049 6.1993742 -0.79534614
-4.1810012 6.2120018 -0.79365706
-4.1285005 6.2160025 -0.79091221
-4.077198 6.2212577 -0.78837854
-4.0238276 6.2227778 -0.78542262
-3.9668484 6.2180099 -0.78172767
-3.9312694 6.2464414 -0.78225553
-3.9374568 6.3422532 -0.79122895
-3.9618316 6.4697495 -0.80410844
-3.9277153 6.5032992 -0.80526972
-3.8897731 6.530694 -0.80569202
-3.8481174 6.5518661 -0.80537528
-3.8018625 6.5650287 -0.80410844
-3.754112 6.5752797 -0.80252492
-3.7034521 6.5799937 -0.80030793
-3.6668682 6.6095495 -0.80115253
-3.6343551 6.6467566 -0.80294722
-3.5939748 6.669807 -0.80305278
-3.5511162 6.6882205 -0.80263048
-3.5160043 6.7213383 -0.80400288
-3.4692297 6.7321782 -0.80273604
-3.4314578 6.7604322 -0.80358064
-3.3934696 6.7884755 -0.80442518
-3.3420892 6.7895427 -0.80210263
-3.2990651 6.8072367 -0.80178595
-3.2628021 6.8390183 -0.80315834
-3.2220454 6.8616099 -0.80347502
-3.1832204 6.8884721 -0.80431962
-3.144187 6.9151158 -0.80516416
-3.1012914 6.9333701 -0.8050586
-3.0634971 6.963191 -0.80632544
-3.0250583 6.9918962 -0.80748671
-2.980932 7.0075808 -0.80716997
-2.9394128 7.0294094 -0.80759227
-2.8777003 7.0022454 -0.80241936
-2.8283501 7.0040965 -0.80062467
-2.6646571 6.7172217 -0.76589215
-2.5908935 6.6500573 -0.75639087
-2.5408008 6.6416821 -0.75364608
-2.5031474 6.665525 -0.75459617
-2.4601378 6.6751609 -0.75396276
-2.4120305 6.6704926 -0.75174582
-2.3471165 6.6176901 -0.7441448
-2.2976453 6.6066084 -0.74129438
-2.2297828 6.5405812 -0.73232096
-2.171643 6.500381 -0.72630346
-2.1304791 6.5098028 -0.72588122
-2.0677266 6.4517322 -0.71796346
-2.0123191 6.4140129 -0.71236825
-1.9381846 6.3131189 -0.69980544
-1.8848202 6.2763219 -0.69442135
-1.8221722 6.2057157 -0.68534237
-1.7681454 6.1613431 -0.67921931
-1.7056025 6.0839891 -0.66950691
-1.6632496 6.076117 -0.66750103
-1.6326115 6.111186 -0.67024589
-1.6048666 6.1586165 -0.67436308
-1.5697423 6.1789494 -0.67552435
-1.4873402 6.0089269 -0.65588838
-1.4171088 5.8797011 -0.64079189
-1.3510191 5.7604942 -0.62685668
-1.2877743 5.6465192 -0.61355484
-1.2229663 5.5183983 -0.59877509
-1.1641755 5.4101143 -0.58621228
-1.1014738 5.2760124 -0.57090461
-1.0503309 5.1900816 -0.56087548
-0.9920553 5.0617652 -0.54630685
-0.94670355 4.9925299 -0.53817797
-0.89075845 4.860333 -0.5232926
-0.85120976 4.810873 -0.51738071
-0.81046093 4.75033 -0.51030755
-0.78178227 4.7581573 -0.51062423
-0.75443596 4.7746511 -0.51189107
-0.72631949 4.7870555 -0.51273561
-0.69750607 4.7953582 -0.5131579
-0.66861802 4.8034873 -0.5135802
-0.64044362 4.8173566 -0.51463592
-0.61149848 4.826128 -0.51516372
-0.58604193 4.8643436 -0.51885867
-0.55754 4.8797035 -0.52012551
-0.52822983 4.8889647 -0.52075893
-0.49912974 4.9010172 -0.52170908
-0.4695223 4.908937 -0.52223694
-0.44143364 4.9345055 -0.52466506
-0.41222224 4.9500041 -0.52603745
-0.3832967 4.9712782 -0.52804327
-0.354478 4.9973416 -0.53057694
-0.32496738 5.0172849 -0.5324772
-0.29458395 5.0261335 -0.53321618
-0.2642608 5.037776 -0.5342719
-0.23449768 5.0641365 -0.53691113
-0.20394064 5.0783968 -0.53828353
-0.17328529 5.09446 -0.5398671
-0.14244047 5.1103377 -0.54145062
-0.11160288 5.1349759 -0.54398429
-0.080140047 5.1385469 -0.54430103
-0.048723362 5.1508746 -0.54556787
-0.017161835 5.1640034 -0.54694027
0.014540261 5.1699781 -0.54757369
0.046499316 5.1966395 -0.5504241
