# .PCD v0.7 - Point Cloud Data file format
VERSION 0.7
FIELDS x y z
SIZE 4 4 4
TYPE F F F
COUNT 1 1 1
WIDTH 1545
HEIGHT 1
VIEWPOINT 0 0 0 1 0 0 0
POINTS 1545
DATA ascii
-51.564945 10.366118 12.867325
-51.213139 10.622742 12.795544
-50.790794 10.860611 12.706411
-14.699788 3.4272466 3.69051
-14.709654 3.5248482 3.6983538
-14.425542 3.5504994 3.632277
-14.427029 3.6448946 3.6382191
-14.350797 3.7194569 3.624671
-35.882526 9.5356874 9.0821772
-15.836411 4.3125882 4.0132875
-15.312833 4.2710981 3.8870764
-36.254791 10.352713 9.2231245
-15.855974 4.6330504 4.0391951
-13.938931 4.165875 3.5569305
-13.922397 4.2541628 3.5593076
-13.765299 4.2986817 3.5257938
-15.831886 5.0508947 4.0634394
-15.842157 5.1614833 4.0741353
-36.333199 12.333055 9.3859396
-14.984477 5.1890225 3.8773313
-13.633469 4.8150473 3.5350635
-15.261467 5.4955978 3.9662256
-15.142657 5.5580101 3.9441209
-14.968163 5.5984139 3.9075172
-14.995251 5.7136707 3.9236798
-13.691249 5.31322 3.590682
-14.487679 5.7248344 3.8088777
-13.646645 5.4895325 3.5963864
-14.51342 5.9419374 3.8345478
-14.537659 6.0562797 3.8507104
-31.676805 13.425228 8.4157057
-13.687104 5.9000735 3.6441612
-14.881872 6.5236874 3.9731185
-34.665386 15.706263 9.3096418
-34.507484 15.890635 9.2932415
-14.061857 6.580224 3.7960427
-33.812923 16.331736 9.1855698
-15.744605 7.9652686 4.3146734
-15.648779 8.0377607 4.3018384
-15.451023 8.0563841 4.2609563
-15.239039 8.0651608 4.2160335
-13.9134 7.4731998 3.861644
-16.091581 8.7708263 4.4815288
-31.448933 17.392786 8.7910118
-16.484226 9.2490158 4.6222386
-16.260862 9.2553291 4.5754147
-16.335836 9.43118 4.6127315
-30.216316 17.693064 8.5652103
-30.027842 17.831018 8.5426302
-29.897064 18.002403 8.5366879
-29.771118 18.176399 8.5324097
-14.202838 8.7913494 4.0843558
-29.331905 18.40613 8.4706106
-29.103674 18.512774 8.437335
-28.845854 18.598362 8.3955021
-28.584019 18.678831 8.3524809
-28.423517 18.823833 8.3391705
-27.993597 19.03739 8.2809372
-27.661901 19.061089 8.2172375
-27.492657 19.194315 8.2017879
-27.243517 19.270094 8.16257
-26.976328 19.330528 8.1178856
-26.56805 19.53582 8.0665445
-26.460146 19.707754 8.0703478
-25.719252 19.65119 7.9172783
-25.535198 19.759882 7.897788
-25.369131 19.881441 7.8840022
-25.219271 20.01499 7.8754454
-25.275425 20.31357 7.931777
-24.856491 20.229153 7.8390794
-24.740894 20.388702 7.8419318
-24.382637 20.345959 7.7677736
-24.293695 20.525902 7.7794204
-24.043291 20.568497 7.7394891
-23.885798 20.688927 7.7295065
-28.4732 24.96982 9.2640066
-28.21413 25.050547 9.2295418
-23.303722 20.947807 7.664618
-23.080643 21.004757 7.6334815
-22.922752 21.119654 7.6239738
-22.723833 21.195641 7.6009183
-22.577814 21.32 7.5956893
-22.402338 21.415848 7.5807152
-26.977072 26.107859 9.1834307
-22.019201 21.572905 7.5400705
-21.844347 21.665878 7.5255718
-26.544035 26.652302 9.2014952
-21.419472 21.77236 7.4706664
-21.099995 21.712507 7.4055405
-20.877579 21.749069 7.374166
-20.737722 21.870419 7.3720269
-20.720001 22.122025 7.4138594
-20.552212 22.21452 7.4024506
-20.386032 22.307941 7.3917546
-20.196053 22.374203 7.3725023
-20.049982 22.488277 7.3694124
-19.783871 22.465811 7.3221126
-19.590193 22.523018 7.301434
-19.424408 22.611115 7.2912135
-19.31798 22.768389 7.3035731
-19.133619 22.833633 7.2866974
-18.988201 22.944618 7.2847962
-18.773294 22.970442 7.2562737
-18.598446 23.043627 7.2432013
-18.436724 23.132244 7.2353573
-18.230162 23.163261 7.2099252
-18.017359 23.184181 7.1818781
-17.870035 23.288132 7.1799765
-17.773144 23.458506 7.1987538
-18.123999 24.229036 7.4010243
-17.343714 23.48497 7.140996
-17.223892 23.624699 7.1512165
-21.093554 29.308586 8.8330822
-16.902306 23.791523 7.1383815
-16.593719 23.663355 7.0692148
-16.440472 23.753546 7.0658875
-16.27743 23.829109 7.0585194
-16.133083 23.931761 7.0594697
-16.081699 24.174257 7.101778
-15.941062 24.284658 7.1053433
-15.745815 24.311083 7.0846648
-15.574904 24.37368 7.0749197
-18.524195 29.385019 8.496994
-15.244366 24.514307 7.0608959
-15.024591 24.494776 7.0285707
-14.871498 24.582348 7.0273824
-14.7383 24.703165 7.0359387
-14.403826 24.830074 7.0212026
-14.280617 24.969421 7.0357013
-14.119028 25.042191 7.0316606
-13.960387 25.119862 7.029284
-13.673003 24.962252 6.9615431
-13.512197 25.032001 6.9577403
-13.341473 25.082708 6.948946
-13.167028 25.125381 6.9382501
-13.015733 25.211742 6.9399137
-12.861232 25.291998 6.9401517
-12.706671 25.372173 6.9406271
-12.549892 25.44792 6.9401517
-12.390965 25.519201 6.9387255
-12.232472 25.591246 6.9377747
-12.070669 25.656153 6.9351602
-11.902816 25.707697 6.9292178
-11.740422 25.770525 6.9266033
-11.583269 25.844738 6.9273167
-11.432306 25.9331 6.9320703
-11.277219 26.012562 6.9346848
-11.115492 26.076801 6.9334965
-10.960158 26.15616 6.9365864
-10.793543 26.208548 6.9327831
-10.633985 26.277884 6.9337339
-10.481876 26.366106 6.9399137
-10.317779 26.424496 6.9384875
-10.15649 26.49003 6.9392009
-9.9947863 26.554577 6.9399137
-9.8326721 26.618135 6.9406271
-9.6731319 26.688927 6.9434791
-9.5205784 26.77981 6.951798
-10.209167 29.28483 7.5859442
-10.033684 29.359789 7.5892715
-9.8542719 29.423565 7.5899849
-8.9246969 27.201054 7.0021877
-8.7573299 27.254377 7.0019498
-9.1443596 29.70574 7.602582
-8.9381113 29.682232 7.5823789
-8.1160154 27.563581 7.0280952
-7.9504972 27.625929 7.0314231
-7.2718472 27.819304 7.0330868
-7.0945377 27.837984 7.026669
-6.9278069 27.897961 7.0309477
-6.7619777 27.962605 7.0366521
-6.5971727 28.032879 7.0440202
-6.4308929 28.098394 7.0504379
-6.266377 28.173357 7.0594697
-6.1013885 28.248304 7.0687394
-5.9347191 28.317533 7.0768209
-5.7714915 28.405769 7.0898938
-5.6032777 28.472097 7.0977373
-5.4353752 28.542202 7.1067696
-5.2691092 28.623737 7.1188912
-5.105617 28.724386 7.1360049
-4.9392819 28.813572 7.1505036
-4.7832789 28.969841 7.1818781
-4.609242 29.022629 7.1878204
-4.4392776 29.104137 7.2011309
-4.2679238 29.180807 7.2134905
-4.0984893 29.275705 7.2306037
-3.9239302 29.338814 7.2401114
-3.7483821 29.397989 7.2489057
-3.5751789 29.480221 7.2636418
-3.4006634 29.557571 7.2774277
-3.2239668 29.621336 7.2881236
-3.0469129 29.686941 7.2995324
-2.869828 29.758255 7.3126054
-2.6901491 29.808193 7.3206868
-2.5062222 29.812525 7.3178344
-2.3287547 29.898035 7.3351855
-2.147275 29.939859 7.3420782
-1.9821426 30.236464 7.4117203
-1.7989389 30.287811 7.4214654
-1.6148697 30.332228 7.4297843
-1.4304146 30.377464 7.4385791
-1.246617 30.449726 7.4542661
-1.0619527 30.519901 7.4697156
-0.87611252 30.57633 7.4820752
-0.69042844 30.667559 7.5032296
-0.5040552 30.781935 7.5303254
-0.3159366 30.85924 7.5486274
-0.12698776 30.959673 7.5728712
0.063173793 31.055061 7.5961647
0.25429466 31.124023 7.6132779
0.44580543 31.159756 7.6225476
0.63883668 31.246748 7.6446524
0.83411407 31.37624 7.677453
1.0288755 31.439459 7.6943288
1.2271985 31.572321 7.7285557
1.4230838 31.612715 7.7404399
1.6230851 31.721737 7.7694378
1.8185849 31.726696 7.7732406
2.0224533 31.86035 7.8088937
2.2199986 31.877378 7.8162618
2.4190776 31.909647 7.8276706
2.6149054 31.895172 7.8279085
9.9728479 40.517979 10.20762
8.4861517 31.161661 7.8999271
9.1106243 31.905123 8.1162214
9.416626 31.507067 8.0437269
9.6169519 30.794815 7.8913703
9.6152802 29.511724 7.592124
10.244389 30.799685 7.9396205
10.441032 30.150307 7.804615
11.270702 29.578936 7.742579
11.49521 29.620605 7.7718143
11.568933 29.276697 7.7000332
11.76938 29.257429 7.713819
11.832747 28.901503 7.638948
12.64592 29.838055 7.9270234
12.774547 29.634127 7.8935099
42.412315 -8.2710199 9.6957397
42.187637 -8.4962378 9.6561022
42.141399 -8.7563257 9.6576347
41.428558 -8.8737383 9.5065289
41.137032 -9.0756445 9.4522181
41.557274 -9.43612 9.5619345
41.580311 -9.7100134 9.5807676
41.60202 -10.255031 9.6140547
41.194942 -10.423229 9.5345602
41.531597 -10.779976 9.6276331
41.589138 -11.067727 9.6565399
40.955627 -11.16869 9.5251427
40.577202 -11.602307 9.4695187
40.82365 -11.944218 9.5439768
40.537399 -12.130987 9.4942646
38.026348 -12.92261 9.0113811
35.678249 -12.615167 8.4908304
35.714912 -12.875207 8.5182047
35.614174 -13.086368 8.5131683
37.07658 -13.882495 8.88305
36.964573 -14.884798 8.9410839
36.919621 -15.39587 8.9752474
53.112019 -26.079044 13.2774
52.739243 -26.704165 13.265137
31.294909 -16.823654 7.9718132
31.37611 -17.116287 8.0191154
31.169762 -17.252729 7.9932747
30.998087 -17.658077 8.0042238
30.765808 -17.77668 7.9722509
23.471071 -58.057472 14.052423
21.138651 -57.2855 13.702031
20.701057 -57.177425 13.645531
20.383467 -57.398075 13.668087
19.991745 -57.409645 13.641369
19.617046 -57.466595 13.62604
19.269949 -57.603462 13.6302
18.892132 -57.647366 13.6129
18.505556 -57.660938 13.589029
18.139418 -57.735229 13.58005
17.762165 -57.77177 13.56275
17.377842 -57.781559 13.539756
17.019394 -57.874928 13.536909
16.637005 -57.884495 13.515009
16.264902 -57.926308 13.501213
15.901942 -57.998665 13.495081
15.496585 -57.91135 13.452376
15.124197 -57.941147 13.437485
14.762857 -58.011105 13.432448
14.394183 -58.050404 13.420841
14.039783 -58.146168 13.422812
13.667563 -58.16663 13.407921
13.284969 -58.138107 13.382298
12.914454 -58.157566 13.368283
12.547284 -58.188976 13.357553
12.177018 -58.202793 13.343317
11.816366 -58.260155 13.339595
11.453211 -58.303799 13.333243
11.07794 -58.281914 13.312439
10.728584 -58.394852 13.322951
10.356955 -58.385609 13.306088
9.993741 -58.420166 13.299737
9.6392174 -58.505421 13.305431
9.264782 -58.467091 13.283532
8.89573 -58.45628 13.268421
8.5309649 -58.469212 13.259223
8.1728535 -58.526257 13.260537
7.8115253 -58.559826 13.257033
7.4529233 -58.613426 13.258567
7.099112 -58.707458 13.269735
2.5358019 -26.394094 5.9485202
2.214483 -26.456285 5.955966
2.0522594 -26.471321 5.9564037
1.8910465 -26.500933 5.9603457
1.9255787 -29.535244 6.6403246
1.741959 -29.506567 6.6313457
1.3711241 -29.341511 6.5899558
-0.063198179 -26.395538 5.9215837
-0.41765881 -28.47963 6.3900137
-0.59543908 -28.622858 6.4228625
-0.77197331 -28.652803 6.4305277
-1.1959587 -20.731207 4.6579838
-1.3222706 -20.709846 4.6549177
-1.973015 -20.829533 4.6932421
-2.1023524 -20.832567 4.6967459
-2.2347102 -20.861963 4.7063813
-3.0281355 -20.952917 4.7488666
-3.1684251 -21.012093 4.7666049
-3.3107495 -20.265776 4.606082
-3.2588937 -18.516951 4.2171474
-3.812176 -20.908855 4.7674809
-3.2783473 -16.808519 3.840914
-3.6406865 -18.075569 4.1356812
-3.6888065 -17.751009 4.0664787
-3.5812559 -16.717661 3.8345633
-3.9231763 -17.78063 4.0839982
-3.9775584 -17.030876 3.9225991
-4.1127219 -17.134235 3.9521635
-4.3580408 -16.788355 3.890188
-4.7535334 -17.860735 4.1455359
-4.9338827 -18.091045 4.2059784
-5.0768147 -18.175083 4.2326956
-5.3389211 -18.246265 4.2642312
-5.2843461 -17.656973 4.1339293
-5.4548154 -17.82762 4.1816702
-5.6013703 -17.913015 4.2097015
-5.675849 -17.767704 4.183641
-5.8234921 -17.851278 4.2116723
-5.8700309 -17.626356 4.1669974
-5.9796429 -17.594627 4.1680923
-5.3907681 -15.547863 3.6906836
-6.2282557 -16.948931 4.0500541
-6.5736756 -17.555523 4.2046642
-6.1179557 -16.037964 3.8498929
-6.2208405 -16.011948 3.8527398
-6.4033089 -16.186697 3.9042037
-7.439867 -18.475039 4.4674582
-7.0212889 -16.271137 3.97472
-7.8286295 -17.547102 4.309782
-7.3373284 -16.178242 3.9843557
-7.7750382 -16.867519 4.1659021
-41.841457 -83.909058 21.041641
-42.083138 -83.112778 20.906303
-6.8010626 -11.938117 3.0810022
-6.8683281 -11.886024 3.0783741
-45.073467 -76.916695 20.006453
-6.5539484 -10.435284 2.7630217
-6.6650119 -10.468952 2.7827313
-7.9087958 -12.256186 3.2710896
-8.0132208 -12.252341 3.2831342
-6.9945712 -10.552709 2.838794
-6.6974277 -9.9709415 2.6931624
-7.0044174 -10.291038 2.7912719
-6.9505572 -10.078376 2.745064
-7.3514695 -10.521049 2.8779941
-7.5539985 -10.670862 2.9316478
-7.8271661 -10.773928 2.9861774
-7.8937044 -10.726483 2.9863963
-8.8013582 -11.807535 3.3026249
-7.7371807 -10.118174 2.8560944
-8.0647144 -10.153602 2.9075582
-8.2613916 -10.271201 2.9557371
-7.9866104 -9.8057146 2.8357279
-8.0366945 -9.7444801 2.8322241
-8.354619 -10.004303 2.9226689
-9.3639498 -11.074235 3.2522562
-8.1487064 -9.5178127 2.8094485
-8.0638018 -9.302475 2.7603939
-8.1162243 -9.2476873 2.7588608
-8.3801947 -9.4311275 2.8289392
-8.7034845 -9.6747799 2.9180701
-8.7442894 -9.6009951 2.9119382
-8.9412642 -9.6970901 2.9577081
-8.9872808 -9.627779 2.9533281
-9.1044874 -9.6341534 2.9723806
-9.2383194 -9.5385237 2.9776366
-9.3089676 -9.4941998 2.9815786
-9.5665474 -9.5203533 3.0264723
-26.550426 -26.1017 8.3537397
-9.8553848 -9.3377438 3.04443
-27.288446 -25.228621 8.3384104
-27.966936 -25.226465 8.4505358
-28.669605 -23.122467 8.2639523
-28.026346 -22.321211 8.038825
-28.3598 -22.023481 8.056345
-28.481239 -21.838961 8.0526218
-9.8003864 -6.8666878 2.6830885
-9.7893715 -6.769793 2.6686349
-9.8645725 -6.7327027 2.6778326
-9.9631538 -6.7107534 2.6933813
-9.8408165 -6.5409217 2.6493633
-9.9506512 -6.4392829 2.6574662
-10.040139 -6.4101372 2.6708248
-10.488356 -6.4276905 2.7582037
-10.547638 -6.375329 2.7634597
-9.2942181 -5.5400434 2.4257698
-8.8140974 -5.180778 2.2919638
-10.47219 -5.9838414 2.7043312
-10.669378 -6.0099893 2.7457211
-9.4324875 -5.2371798 2.418762
-10.184269 -5.5731745 2.6029365
-9.1310663 -4.9241767 2.3256891
-10.207952 -5.4244246 2.5917678
-10.57297 -5.5354939 2.6758618
-10.557309 -5.4450183 2.663379
-11.050689 -5.6139445 2.7792273
-11.045661 -5.5263844 2.7693725
-10.90694 -5.3735452 2.7262306
-10.91337 -5.2937436 2.7196608
-10.313471 -4.9247632 2.5624225
-10.332014 -4.8559923 2.5595756
-10.384641 -4.8031559 2.5652695
-10.460983 -4.7607703 2.5768762
-9.4739132 -4.2415042 2.327003
-11.404427 -5.0221848 2.7941189
-10.801121 -4.6775479 2.6390705
-10.927469 -4.6528568 2.662941
-10.918011 -4.5698938 2.6537433
-9.9474564 -4.0208478 2.4054031
-53.197456 -21.127403 12.844228
-53.26973 -20.778606 12.83065
-10.643025 -4.0757847 2.5551956
-10.698886 -4.0220795 2.5626414
-31.390083 -11.582761 7.506887
-31.520197 -11.411529 7.5211215
-31.386421 -11.145744 7.472724
-32.870491 -11.446157 7.809319
-33.283607 -11.361518 7.8907847
-11.983372 -4.0081697 2.8333189
-9.8584871 -3.2301869 2.3256891
-10.450416 -3.3533137 2.4605899
-10.319995 -3.2417476 2.4251127
-10.274407 -3.1582916 2.4097831
-11.956788 -3.5954182 2.7995939
-11.773621 -3.4616966 2.7516339
-11.576143 -3.326587 2.7006083
-33.819805 -9.2723274 7.8680096
-11.413912 -3.0536697 2.6491444
-44.785252 -11.689986 10.385793
-10.165476 -2.5863335 2.3515306
-34.287193 -8.5015535 7.9258242
-11.888513 -2.8699744 2.7422171
-11.719728 -2.7532265 2.6992941
-11.719278 -2.677351 2.6953523
-11.765966 -2.6121614 2.7023602
-32.473537 -7.0019422 7.4532332
-11.128604 -2.3277016 2.5490637
-11.153195 -2.2615073 2.5514727
-11.667596 -2.2914007 2.666007
-11.830013 -2.2480092 2.6999512
-11.750069 -2.0837493 2.6756427
-11.951137 -2.0438619 2.7185657
-11.790158 -1.941939 2.6791468
-35.314201 -5.5956531 8.0221815
-11.405067 -1.7350107 2.5865119
-11.590255 -1.6904979 2.6261499
-11.643895 -1.6254226 2.6360047
-11.204887 -1.494079 2.5343912
-11.638765 -1.4793346 2.6305299
-11.445172 -1.3834089 2.58476
-11.565891 -1.3260559 2.6101632
-11.528219 -1.2501173 2.5998704
-11.503641 -1.1760811 2.5926437
-11.794246 -1.1327289 2.6565902
-48.150768 -4.0309768 10.842177
-48.232967 -3.7399802 10.855317
-48.290043 -3.4464588 10.863201
-48.417381 -3.1570773 10.887291
-48.535194 -2.865802 10.909628
-48.676582 -2.5745399 10.937659
-48.794777 -2.280648 10.960873
-48.960915 -1.9874214 10.995255
-49.030697 -1.6889818 11.008395
-49.242031 -1.3938209 11.053727
-49.295506 -1.0926682 11.064019
-49.401768 -0.7917881 11.086576
-36.957741 0.088200048 8.292202
-36.943821 0.31485897 8.2893553
-36.860218 0.54035056 8.2711792
-36.30558 0.9779653 8.1487608
-37.619305 1.2443649 8.4452801
-36.588211 1.4350746 8.2155542
-37.536873 1.7030005 8.4308262
-36.830944 1.8975096 8.274683
-37.761177 2.6431003 8.4932394
-35.326897 2.9088049 7.9529796
-35.27145 3.1222432 7.9446578
-35.179749 3.3317997 7.928452
-35.78429 3.8326576 8.0747404
-35.724228 4.0480895 8.066638
-35.727779 4.2706866 8.0732079
-56.969734 7.8755269 12.905328
-56.63546 8.1837759 12.840724
-54.787148 8.9491482 12.456826
-54.322361 9.2157927 12.363753
-53.562328 9.4253321 12.203669
-53.260632 9.7095375 12.148263
-52.526962 9.9091873 11.994529
-52.152966 10.17042 11.923136
-51.53384 10.378322 11.7959
-51.039291 10.605014 11.697352
-14.593859 3.1263885 3.3470807
-16.542921 3.6501353 3.7995241
-16.514503 3.7502759 3.7982101
-16.02845 3.7434857 3.6915596
-15.94161 3.8265083 3.676887
-14.825512 3.6550112 3.424386
-15.05442 3.8095696 3.4826386
-15.580422 4.0445304 3.6100936
-15.50911 4.1277595 3.5993629
-15.106008 4.1199102 3.5115459
-14.685743 4.1022863 3.4195681
-15.683801 4.4849529 3.6584914
-52.106255 15.245086 12.182426
-16.058512 4.8060293 3.7594481
-14.840963 4.5410972 3.4806676
-14.589315 4.5621939 3.4281089
-14.347271 4.5833449 3.3777401
-14.149121 4.615921 3.3376641
-14.111276 4.6995687 3.335474
-14.202273 4.8268766 3.3639433
-15.360718 5.3258901 3.6462276
-15.245876 5.3910942 3.6267371
-14.0587 5.0686159 3.3514607
-14.918467 5.4822092 3.5645425
-14.979581 5.6092248 3.5873182
-14.943058 5.7003374 3.5868802
-14.393926 5.5922966 3.4631481
-14.362063 5.6815877 3.463805
-14.2328 5.7317023 3.4410295
-14.43391 5.9158635 3.4984062
-14.083042 5.8732581 3.421977
-31.814939 13.497025 7.7539129
-16.821928 7.3817005 4.1203513
-16.530378 7.3750648 4.0599089
-34.713158 15.742579 8.5521488
-34.593758 15.945069 8.5466747
-14.598979 6.8383856 3.6155684
-34.031738 16.452152 8.4811945
-16.022078 7.9900966 4.0156717
-15.682873 7.9414825 3.9427466
-15.830835 8.1388245 3.9924586
-14.128397 7.3736172 3.5741785
-14.08375 7.4606256 3.5743973
-15.747098 8.4657984 4.0099783
-15.818203 8.6295462 4.0415134
-16.537542 9.1540565 4.2397037
-16.471704 9.2501011 4.2372947
-14.947899 8.5155058 3.8584337
-30.197353 17.696264 7.8528986
-29.99929 17.828382 7.8296852
-16.361559 9.8602972 4.2848167
-16.499744 10.082088 4.3371563
-29.374069 18.196686 7.7525992
-29.185844 18.32884 7.7324514
-28.802853 18.335718 7.6606212
-28.626675 18.471371 7.6437588
-28.387037 18.564432 7.6100335
-28.115622 18.634232 7.5677676
-27.956205 18.776474 7.5557227
-27.725119 18.869156 7.5244064
-27.481901 18.951403 7.4898052
-27.242723 19.03417 7.4562993
-27.066486 19.159256 7.4400935
-26.811239 19.226606 7.4022074
-26.588558 19.31506 7.3733001
-26.384666 19.415386 7.349649
-26.193846 19.523851 7.32972
-25.929489 19.575449 7.289206
-25.714325 19.661879 7.2624888
-25.549995 19.785833 7.2502251
-25.370527 19.897074 7.2338004
-25.083687 19.921906 7.1867166
-24.917637 20.040585 7.1742339
-24.698116 20.114849 7.1464214
-24.524544 20.225042 7.131968
-24.3528 20.335743 7.1181712
-24.153799 20.422421 7.0964909
-23.967997 20.518843 7.078752
-23.731045 20.569662 7.0459032
-23.525179 20.64538 7.0222516
-23.307611 20.708979 6.9950962
-23.128599 20.805273 6.9795475
-22.97814 20.92643 6.9727588
-22.765375 20.989645 6.9471364
-22.56768 21.065022 6.9261127
-22.381975 21.150156 6.908812
-22.208065 21.245275 6.8952346
-22.013506 21.31937 6.8753061
-21.82375 21.396664 6.8569102
-21.616566 21.455248 6.8330402
-21.432201 21.534922 6.8163962
-21.255198 21.620796 6.8021617
-21.103102 21.731211 6.79603
-20.933565 21.822968 6.7844234
-20.732826 21.880886 6.7627425
-20.577507 21.985605 6.7559538
-20.355446 22.017599 6.7272654
-20.178513 22.096693 6.713469
-20.019676 22.194731 6.7058039
-19.80912 22.234102 6.6808386
-19.640091 22.318605 6.669889
-19.46629 22.396719 6.6574063
-19.329771 22.517221 6.6578441
-19.144548 22.58033 6.6416388
-18.948008 22.628551 6.621491
-18.791393 22.723333 6.6153593
-18.621984 22.801933 6.6048474
-18.448034 22.873995 6.5928025
-18.284235 22.957758 6.5844808
-18.114071 23.032701 6.5739694
-17.928715 23.087158 6.5579824
-17.76 23.16189 6.5481277
-17.57514 23.214417 6.5323601
-17.422438 23.308533 6.5286374
-17.259394 23.388304 6.5211916
-17.092003 23.461432 6.5122128
-16.928354 23.538931 6.5047669
-16.759315 23.608147 6.4953499
-16.601263 23.692158 6.4903131
-16.439484 23.770302 6.4839625
-16.280121 23.851385 6.4787064
-16.119837 23.930597 6.4732318
-15.948391 23.992491 6.463377
-15.767694 24.039314 6.4497991
-15.625197 24.143801 6.4519892
-15.450503 24.198103 6.4410396
-15.271052 24.24374 6.4281187
-15.101409 24.303835 6.4193587
-14.9469 24.387718 6.4171691
-14.789912 24.467281 6.414103
-14.635009 24.550028 6.4121318
-14.485086 24.641047 6.41257
-14.312578 24.693163 6.4031534
-14.139491 24.743244 6.3935175
-13.976388 24.809984 6.3884807
-13.822 24.891863 6.3876047
-13.664789 24.9685 6.3856335
-13.509013 25.047583 6.3845387
-13.348201 25.117077 6.3812537
-13.178445 25.169117 6.3738079
-13.022867 25.24777 6.3733702
-12.856213 25.304585 6.3676763
-12.697648 25.376884 6.3661432
-12.54515 25.461321 6.3678951
-12.382298 25.524649 6.3646102
-12.224187 25.597504 6.3639531
-12.062742 25.663197 6.361763
-11.894808 25.714592 6.3562884
-11.727505 25.766666 6.3512516
-11.573569 25.847935 6.3536606
-11.419471 25.92918 6.3562884
-11.27373 26.030096 6.3639531
-11.117242 26.106861 6.3659239
-10.947801 26.152981 6.3606682
-10.780811 26.204325 6.3569455
-10.621284 26.2736 6.3578215
-10.462395 26.344624 6.3593545
-10.30445 26.418322 6.361763
-10.145995 26.491076 6.364172
-9.9890966 26.568357 6.3678951
-9.8312922 26.643795 6.3713989
-9.6686201 26.706369 6.372056
-9.5297146 26.835991 6.3889184
-8.9117098 27.194368 6.4202347
-8.717248 27.163067 6.4000874
-8.1005878 27.547609 6.4419155
-7.9195466 27.555534 6.4322796
-8.4535599 30.108034 7.0161195
-8.2699509 30.164042 7.0172148
-7.4223485 27.739054 6.4421344
-7.2534833 27.78974 6.4434481
-7.0830731 27.834667 6.4436674
-6.9170809 27.897493 6.448266
-6.7565393 27.983988 6.458559
-6.5885005 28.041067 6.4622817
-6.4234924 28.112354 6.4695086
-6.2582808 28.184576 6.4771733
-6.09407 28.26346 6.4865904
-5.9275279 28.333748 6.4942551
-5.7584124 28.39349 6.4997301
-5.5906682 28.4618 6.5073948
-5.4252172 28.544455 6.5185633
-5.2584333 28.623268 6.5290751
-5.0838985 28.66172 6.5306082
-4.9391994 28.875107 6.572217
-5.6321845 34.186489 7.7736225
-4.6324401 29.236147 6.6409817
-4.4437146 29.203249 6.6271849
-4.286562 29.38155 6.6615672
-4.1036348 29.388939 6.6574063
-3.9205213 29.393253 6.6528072
-3.7457557 29.461281 6.6628809
-3.5793233 29.602858 6.6898174
-3.3989506 29.635893 6.6924453
-3.2207282 29.690144 6.70011
-3.0551739 29.872416 6.7369013
-2.8772364 29.946932 6.7496028
-2.6839945 29.859068 6.7259517
-2.4959288 29.817608 6.7130308
-2.3173003 29.888784 6.7257328
-2.1369889 29.946236 6.7355871
-1.9780951 30.340458 6.8214331
-1.7957464 30.417284 6.8361058
-1.6096426 30.438448 6.8385148
-1.4245317 30.483814 6.8466177
-1.2396767 30.546577 6.8588815
-1.0534328 30.588713 6.866765
-0.86787868 30.670677 6.8838468
-0.68157464 30.761269 6.9031181
-0.49405059 30.841944 6.9204187
-0.30536884 30.90196 6.9333396
-0.11595818 30.957891 6.9456034
0.07418745 31.038029 6.9635611
0.26520428 31.104313 6.9786716
0.45752293 31.202589 7.0012279
0.65087515 31.290894 7.0218134
0.84419918 31.336054 7.0329823
1.0388111 31.401474 7.0489688
1.2372006 31.540754 7.0818181
1.4349072 31.62517 7.1026225
1.6334449 31.703468 7.1223321
1.8311442 31.748373 7.1348147
2.0293317 31.790096 7.1468596
2.2284405 31.835447 7.1599994
2.4310713 31.917492 7.1816797
2.6240659 31.867939 7.174015
9.9780836 40.478439 9.3543272
7.9053235 31.24291 7.2305155
8.3622694 30.66379 7.1308727
8.5898924 30.753807 7.1639414
9.9835587 29.377325 6.9611521
10.242568 29.543222 7.0152435
10.459101 29.580091 7.039114
10.81996 29.44585 7.038238
11.627891 31.054777 7.4398746
11.304977 29.637232 7.1166382
11.418426 29.391771 7.0743723
11.652029 29.456348 7.1070027
11.89961 29.550838 7.1472974
12.083295 29.483587 7.1488304
12.452115 29.860075 7.2585468
12.775086 29.606472 7.2344575
42.354267 -8.8083105 8.9012089
41.355652 -9.6651964 8.7385254
41.466045 -9.9597158 8.7746096
41.214077 -10.705276 8.7615061
41.200615 -10.972075 8.7727957
41.053432 -11.474207 8.7707796
41.174358 -11.780855 8.811904
37.613247 -11.767941 8.1089573
38.058689 -12.940989 8.2710361
37.945255 -13.162714 8.2637787
35.867413 -12.689018 7.8279395
35.782429 -12.906531 7.8265281
35.634533 -13.100834 7.8116107
35.713993 -13.379371 7.846889
39.161087 -15.498599 8.6657505
36.766724 -14.812555 8.1557264
36.480038 -15.220006 8.132946
36.432846 -15.463456 8.1434288
49.075207 -21.543909 11.028395
48.583256 -22.042936 10.977796
33.025108 -16.984922 7.6408629
32.855148 -17.153242 7.6257439
31.294754 -16.830473 7.3108587
31.436789 -17.156374 7.3685141
31.024166 -17.179079 7.2963443
31.282806 -17.573961 7.3824239
31.045889 -17.692348 7.3519835
44.407417 -60.977764 15.523064
39.83791 -59.953453 14.812657
31.220385 -57.069157 13.385999
30.673018 -56.894951 13.300726
29.690014 -56.727303 13.175337
29.244881 -56.721237 13.131995
28.839527 -56.787827 13.106191
28.433584 -56.849834 13.079985
28.060856 -56.97578 13.069098
27.668421 -57.059635 13.049141
27.247747 -57.081596 13.015676
26.851589 -57.151085 12.993704
26.460127 -57.227638 12.973948
26.080097 -57.326511 12.959836
25.625025 -57.255695 12.908028
25.240475 -57.337444 12.891295
24.855108 -57.414833 12.87416
24.442509 -57.425667 12.842712
24.018618 -57.404694 12.804812
23.620491 -57.440472 12.780219
23.24815 -57.53619 12.769534
22.833607 -57.523903 12.735466
22.43895 -57.557064 12.712081
22.031788 -57.553711 12.681238
21.651701 -57.617214 12.665715
21.255733 -57.635029 12.640718
20.875364 -57.691605 12.624792
20.492809 -57.739227 12.607455
20.114639 -57.796352 12.592739
19.698591 -57.739773 12.553832
19.347973 -57.871628 12.556453
18.931849 -57.804024 12.516336
18.541815 -57.809975 12.49275
18.161224 -57.841358 12.475212
17.798494 -57.927364 12.469971
17.427782 -57.985764 12.459287
17.024988 -57.932793 12.425218
16.625666 -57.884598 12.392761
16.271769 -57.991184 12.39397
15.914859 -58.087097 12.393366
15.545745 -58.137291 12.383488
15.171919 -58.167137 12.36978
14.781657 -58.129086 12.342162
14.449203 -58.317566 12.363128
14.085359 -58.381321 12.358088
13.715231 -58.417065 12.347605
12.985662 -58.528381 12.336517
12.195509 -58.343929 12.265154
11.823089 -58.347584 12.250438
11.480696 -58.499767 12.267372
11.111847 -58.518112 12.256687
10.752932 -58.587116 12.257091
10.030528 -58.699211 12.253865
9.6808243 -58.824409 12.267372
9.273613 -58.591503 12.206693
8.9036264 -58.579517 12.192581
8.5604038 -58.74548 12.215966
8.1992464 -58.793018 12.215159
7.8388624 -58.846104 12.215966
7.4788761 -58.902813 12.217982
7.1289372 -59.043861 12.23794
3.048774 -26.621595 5.5124674
2.8916974 -26.698229 5.5245628
2.7522995 -26.955173 5.5741544
2.5798409 -26.898428 5.5590348
2.2570627 -27.01786 5.5775814
1.928889 -27.093351 5.5878625
1.764899 -27.139864 5.5951195
1.7353209 -29.477289 6.0749059
1.5472013 -29.350449 6.0466828
0.81864673 -29.102497 5.9896331
-0.39286503 -26.491995 5.4505792
-0.59854174 -28.545521 5.87392
-0.77339047 -28.53054 5.8717022
-0.84973043 -25.557144 5.260479
-1.2997503 -28.540823 5.8777499
-1.3267093 -20.729452 4.2726841
-1.8417859 -20.76675 4.2884083
-2.111558 -20.891684 4.3192515
-2.393508 -21.09096 4.3662224
-2.5162387 -21.020443 4.3547316
-2.6509223 -21.050282 4.3642063
-2.7720768 -20.973417 4.3517075
-2.9048786 -20.98609 4.3579569
-3.1826599 -21.084452 4.3861794
-3.3442254 -21.269653 4.4289169
-3.4828906 -21.298998 4.4393997
-3.661586 -20.786814 4.3416281
-3.8208899 -20.93836 4.3781161
-3.3757296 -17.294535 3.6241665
-3.5597827 -17.66044 3.7054076
-3.5811245 -17.220161 3.6175139
-3.6399062 -16.979506 3.5715513
-3.7383199 -16.93103 3.5661082
-4.1305995 -17.674553 3.733227
-4.2634478 -17.75078 3.7547972
-4.267889 -17.301109 3.6650894
-4.2850084 -16.923281 3.5905008
-4.4818487 -17.255016 3.666702
-4.7043428 -17.665413 3.7600386
-4.8399806 -17.736376 3.7814074
-4.9669104 -17.771433 3.7953169
-5.1076541 -17.85174 3.8191047
-5.2834206 -18.046606 3.8676882
-5.4373231 -18.158348 3.8987331
-5.5560932 -18.148994 3.9039745
-5.6302052 -17.995842 3.8783724
-5.6984735 -17.829409 3.8499482
-5.2136073 -15.973757 3.4558382
-5.5245442 -16.580786 3.5945327
-6.0546989 -17.80681 3.8684945
-5.91924 -17.06419 3.7148824
-6.6654253 -18.841082 4.1108065
-5.6426544 -15.644153 3.4203582
-5.8629169 -15.947541 3.4945436
-5.8939967 -15.733327 3.455435
-6.8544421 -17.960802 3.9541707
-6.0859156 -15.657989 3.4550319
-6.208549 -15.687746 3.4699495
-6.7293334 -16.129448 3.5945327
-7.006506 -16.508007 3.6884739
-7.327004 -16.972784 3.8023727
-7.2030449 -16.408228 3.6856515
-7.3199568 -16.400393 3.6939168
-7.3726954 -16.24992 3.6701291
-7.5304065 -16.070417 3.6501718
-7.6785541 -16.128262 3.6739595
-7.7240629 -15.970625 3.6487606
-36.659088 -71.278664 16.494328
-6.9918237 -13.3923 3.1068845
-7.0839553 -13.368187 3.1113195
-6.9747558 -11.897458 2.8359466
-7.387495 -12.426098 2.9728267
-7.534399 -12.497971 3.0010493
-7.1828613 -11.751183 2.8321161
-7.7037115 -12.431212 3.0075002
-39.891907 -63.49728 15.431339
-40.55072 -62.821098 15.386787
-8.07654 -12.181705 3.0056858
-8.1063404 -12.065253 2.9891555
-8.1013937 -11.899508 2.9603279
-41.479778 -60.128674 15.031988
-7.3417187 -10.504265 2.6351621
-6.9141469 -9.7643824 2.4599795
-7.8096347 -10.746881 2.731724
-7.8963323 -10.727157 2.7389812
-8.0135279 -10.747602 2.7567213
-8.1348095 -10.771702 2.7756708
-8.2870378 -10.430779 2.7393844
-8.2452774 -10.248475 2.704711
-8.0327015 -9.8597775 2.6150029
-8.0089025 -9.7083054 2.5877881
-8.0953217 -9.6913042 2.5964565
-8.259635 -9.7655907 2.6299207
-8.1945267 -9.5689144 2.5904088
-8.2562943 -9.5221529 2.5914168
-8.3203812 -9.4779387 2.5932312
-8.9822159 -9.859704 2.74261
-9.0823879 -9.8476038 2.7547054
-8.9071703 -9.4229336 2.6662071
-9.0027437 -9.4077301 2.6774962
-8.9607954 -9.2496061 2.6480639
-8.9686871 -9.1448002 2.6337509
-9.2261419 -9.2925549 2.6926155
-26.683722 -26.54752 7.7444806
-26.661682 -26.202045 7.6912608
-28.286564 -27.459745 8.1113758
-43.797691 -41.998436 12.486501
-24.620008 -23.320417 6.9770246
-27.305267 -25.547873 7.6936798
-27.478775 -25.395805 7.6985183
-44.636196 -40.248199 12.367562
-44.827457 -39.924702 12.352443
-45.01643 -39.600376 12.337324
-28.589901 -23.05007 7.5559936
-28.281759 -22.516712 7.437861
-28.798996 -22.641195 7.5372453
-28.514164 -22.135523 7.4269753
-28.55694 -21.88924 7.402986
-47.217064 -34.831528 12.073643
-30.476656 -22.194918 7.7571812
-29.292093 -21.058416 7.4225402
-29.744259 -21.107859 7.5041847
-27.660629 -19.375147 6.9481969
-27.689562 -19.143234 6.9258204
-27.999762 -18.114073 6.8611097
-28.118635 -17.947199 6.8631258
-11.294013 -7.1115723 2.7444243
-49.151119 -30.11268 11.861166
-49.786327 -28.845823 11.839999
-10.497771 -5.9967608 2.4857833
-10.449023 -5.8841753 2.4656241
-10.497777 -5.8270807 2.468648
-10.737845 -5.8744378 2.5166266
-10.645226 -5.7391853 2.4865897
-10.144809 -5.389327 2.361805
-10.590758 -5.5431714 2.4577622
-10.595842 -5.4632711 2.4511096
-10.230062 -5.1954727 2.3589826
-10.264377 -5.1339188 2.3595874
-9.348464 -4.6043329 2.1422725
-10.864213 -5.2682581 2.4825578
-10.320895 -4.926816 2.3513222
-10.412988 -4.8925505 2.3654335
-12.066197 -5.5791588 2.7335384
-52.023602 -23.66761 11.760775
-10.483398 -4.6920505 2.3614018
-10.934221 -4.8135052 2.456351
-10.585131 -4.5825052 2.3714812
-10.550864 -4.4910016 2.3575716
-52.698914 -22.049694 11.754928
-11.371547 -4.6763287 2.5281174
-10.788849 -4.3595152 2.3924468
-53.135906 -21.091845 11.763798
-10.572326 -4.121839 2.3329775
-10.520579 -4.0274773 2.3160439
-10.644115 -4.0000591 2.3378155
-10.591266 -3.906204 2.3208821
-10.641745 -3.8508086 2.3267281
-10.63102 -3.7733181 2.3192692
-11.983269 -4.1706414 2.6089551
-12.067035 -4.1169591 2.6216555
-10.966205 -3.6664383 2.3773274
-11.912265 -3.8208582 2.5722656
-33.384827 -10.482361 7.1993794
-12.229775 -3.7578135 2.6307271
-12.212268 -3.6705794 2.6220586
-11.753417 -3.4541831 2.5188441
-10.637168 -3.0553701 2.2753224
-10.668919 -2.9937489 2.2781448
-12.454538 -3.4124749 2.6553211
-10.450317 -2.7945383 2.2239168
-10.469164 -2.7308581 2.2243199
-10.370863 -2.6373618 2.1999276
-11.014327 -2.7291441 2.3329775
-13.347448 -3.2204127 2.8234479
-11.741168 -2.7567539 2.4797356
-11.759771 -2.6850955 2.4801388
-11.777938 -2.6133127 2.4805419
-33.800964 -7.2821651 7.113905
-12.532017 -2.6196859 2.6325414
-11.291266 -2.2881205 2.368659
-11.852942 -2.3263099 2.4835658
-11.638933 -2.210233 2.4357886
-11.840135 -2.1732547 2.4750988
-12.002044 -2.0510564 2.5035233
-35.283134 -5.8066735 7.3570232
-11.392645 -1.8033264 2.3714812
-11.797613 -1.7932903 2.4535286
-11.140594 -1.6235573 2.3146327
-11.348242 -1.5827675 2.3557572
-10.715008 -1.4274901 2.2223041
-10.61571 -1.3480233 2.1999276
-11.288909 -1.3631662 2.3378155
-10.642157 -1.2188764 2.2021451
-11.83939 -1.2824308 2.448489
-11.926936 -1.2179193 2.4650195
-11.980985 -1.1492023 2.4746957
-12.019029 -1.0784676 2.4811466
-48.406952 -3.7448125 9.990202
-48.481777 -3.451478 10.001088
-48.565575 -3.1580653 10.014192
-48.664215 -2.8647327 10.030722
-48.795319 -2.5721128 10.054308
-49.013691 -2.2821369 10.096239
-49.059067 -1.9826566 10.102892
-49.119251 -1.6832756 10.112971
-37.223263 -0.59000695 7.6596112
-37.339794 -0.36270127 7.6829953
-49.917629 -0.17851047 10.271421
-37.234673 0.095269084 7.6610222
-34.019867 0.29577863 6.9996028
-34.15942 0.50662196 7.0288334
-37.829147 1.0255109 7.7862101
-38.096561 1.5007995 7.8444695
-35.569069 1.6198614 7.3257766
-37.115696 1.9185828 7.6467094
-38.248634 2.4481103 7.8857961
-37.22456 2.6119952 7.6777544
-37.084782 2.8309574 7.6523538
-51.946236 4.6073408 10.730846
-52.020267 5.2580471 10.758666
-52.158428 5.5955272 10.794147
-34.992722 4.1889019 7.2509866
-52.709362 6.6381145 10.931631
-52.825916 6.9823289 10.964491
-52.906265 7.3235226 10.990294
-35.723709 5.1685681 7.4265718
-53.358643 8.0546703 11.103992
-53.619232 8.7682924 11.17979
-53.626228 9.107625 11.192691
-53.601166 9.4421053 11.199344
-53.226177 9.7131424 11.133222
-52.641994 9.9406767 11.023557
-52.211823 10.191625 10.946347
-51.639423 10.409219 10.839504
-51.050995 10.616985 10.729436
-50.553917 10.837636 10.63872
-50.388912 11.126083 10.618157
-15.83231 3.5977356 3.3391171
-15.79554 3.7938106 3.3409314
-16.405304 4.0468998 3.4751909
-16.299456 4.1270485 3.4580557
-14.765543 3.8352013 3.1373248
-14.755929 3.9295096 3.1403487
-15.437393 4.2126002 3.2909369
-15.066943 4.2110085 3.2173562
-14.928761 4.2713146 3.193367
-15.257112 4.5685487 3.2754145
-15.498523 4.7446561 3.3334725
-15.54764 4.8642311 3.3504062
-15.365427 4.9109316 3.3175468
-14.741813 4.9117966 3.1955845
-14.448035 4.9126072 3.1383326
-14.306576 4.9626455 3.1141417
-53.611217 18.966438 11.701708
-13.946077 5.0301585 3.0488262
-15.277366 5.6165266 3.347584
-14.932596 5.5940185 3.2794461
-14.778113 5.6397872 3.2530379
-14.109656 5.4840937 3.1131339
-15.019264 5.943984 3.3219819
-14.352005 5.7820086 3.1820779
-16.532028 6.7785034 3.6749673
-32.141991 13.410086 7.1655121
-31.817467 13.504493 7.1114855
-13.293943 5.7388377 2.9776647
-13.107809 5.7541547 2.9437976
-13.11787 5.8548346 2.9540787
-34.594738 15.696084 7.816247
-34.415058 15.869914 7.7974992
-34.195526 16.023844 7.7698812
-33.945339 16.161362 7.7354093
-33.633915 16.266991 7.6870275
-33.389294 16.402233 7.6539664
-15.753686 7.8591247 3.6209409
-15.710409 7.9582953 3.6221507
-15.886877 8.1705685 3.6743627
-32.227398 16.825499 7.4799938
-31.99633 16.955507 7.4503598
-31.780415 17.091667 7.4243546
-15.316175 8.3585739 3.5886865
-31.272659 17.316679 7.3548059
-16.457499 9.2453461 3.8826058
-16.409822 9.3514881 3.8848233
-30.455935 17.60458 7.2376814
-30.222284 17.71781 7.2078462
-30.016184 17.845354 7.1846633
-29.769392 17.946764 7.151804
-29.552578 18.064211 7.1262016
-29.322958 18.171936 7.0975757
-29.137918 18.305664 7.0798359
-28.811899 18.348364 7.0278254
-28.618952 18.47328 7.0082712
-28.387854 18.571854 6.9794436
-28.126425 18.648262 6.9431572
-27.923666 18.761496 6.9213853
-27.688196 18.850899 6.8915501
-27.461554 18.944239 6.8639321
-27.222771 19.027092 6.8332906
-27.062344 19.163204 6.8224044
-26.827261 19.244967 6.7927704
-26.572386 19.310175 6.7580972
-26.390297 19.426403 6.7419696
-26.196007 19.532347 6.7228184
-25.97171 19.614204 6.6960068
-25.774632 19.714878 6.6762509
-25.56568 19.804874 6.6534715
-25.35968 19.89547 6.6314979
-25.146633 19.978804 6.6077104
-24.931232 20.058432 6.5833178
-24.751497 20.165247 6.5683999
-24.574411 20.273109 6.5542889
-24.340557 20.332464 6.5250578
-24.142799 20.420076 6.5055037
-23.913643 20.479271 6.4774828
-23.723892 20.570435 6.460146
-23.544231 20.669088 6.445631
-23.360594 20.76306 6.4301085
-23.163586 20.843763 6.4109578
-22.980228 20.935371 6.3956366
-22.76782 20.998949 6.372252
-22.595589 21.098146 6.3601565
-22.3988 21.173145 6.341207
-22.216095 21.260071 6.3262897
-21.997293 21.310795 6.3010907
-21.822065 21.402159 6.2883906
-21.653496 21.499077 6.2777061
-21.483177 21.593348 6.2666187
-21.287804 21.661186 6.2482738
-21.119698 21.755556 6.2379928
-20.911917 21.807676 6.2160192
-20.735954 21.891491 6.2035208
-20.56711 21.981834 6.1932397
-20.374674 22.045757 6.1759028
-20.208643 22.137083 6.1666298
-20.018648 22.201015 6.1500993
-19.859247 22.297829 6.1430435
-19.683889 22.375874 6.1311498
-19.489048 22.430428 6.1132078
-19.307039 22.498299 6.0992985
-19.140129 22.582718 6.0902267
-18.965368 22.656921 6.0787358
-18.80415 22.746443 6.0716805
-18.636971 22.828012 6.0628104
-18.452902 22.887796 6.0484972
-18.274294 22.953083 6.0359988
-18.11677 23.043989 6.0305557
-17.952209 23.125317 6.0228953
-17.756945 23.165848 6.0049539
-17.592598 23.245468 5.9974947
-17.432632 23.330223 5.9916487
-17.272873 23.414679 5.9860044
-17.109274 23.493301 5.9791503
-16.941929 23.566029 5.9710865
-16.781706 23.647972 5.9656434
-16.614374 23.71921 5.9577813
-16.458498 23.806206 5.9541531
-16.27844 23.857391 5.9418559
-16.10549 23.917826 5.9321795
-15.947588 23.999882 5.9281478
-15.775322 24.059603 5.9188743
-15.607712 24.125519 5.9114156
-15.447795 24.202667 5.9069805
-15.284908 24.27462 5.9015379
-15.123788 24.34881 5.8969011
-14.96745 24.430294 5.8942804
-14.80055 24.494009 5.8876281
-14.63243 24.554911 5.8805723
-14.467595 24.620588 5.8749275
-14.307906 24.694489 5.8715005
-14.154171 24.778412 5.8706942
-13.985526 24.835777 5.8638401
-13.829071 24.914272 5.8622274
-13.674999 24.996939 5.8618245
-13.514856 25.068306 5.8590021
-13.355731 25.141245 5.8567843
-13.185773 25.193216 5.8499303
-13.02017 25.252754 5.8450923
-12.859655 25.321688 5.8426733
-12.696594 25.385225 5.8392463
-12.537565 25.456503 5.8378348
-12.38113 25.532951 5.8378348
-12.225496 25.611092 5.8384399
-12.066453 25.682077 5.8376336
-11.893846 25.723627 5.8303761
-11.718344 25.757786 5.8217077
-11.574881 25.862282 5.8291664
-11.42584 25.955229 5.8342066
-11.26948 26.032038 5.8358192
-11.1034 26.086277 5.8325934
-10.947288 26.163855 5.8348112
-10.786544 26.230532 5.8348112
-10.629796 26.307121 5.8372302
-10.469263 26.37458 5.8378348
-10.31435 26.456573 5.841867
-10.147269 26.507471 5.8392463
-9.9868431 26.575653 5.8406572
-9.8249454 26.640106 5.8414636
-9.664299 26.708179 5.8432779
-9.5277586 26.844513 5.8602114
-9.3673706 26.915421 5.8630338
-9.2074213 26.988148 5.8664608
-9.047863 27.062716 5.8704929
-8.8965769 27.163332 5.8803706
-8.7285414 27.213678 5.8795643
-8.567853 27.287283 5.8839993
-8.4025612 27.346832 5.885612
-8.2368612 27.405376 5.8872247
-8.0721397 27.467617 5.8898454
-7.9242697 27.589119 5.9053679
-7.754837 27.637222 5.9053679
-7.598053 27.731518 5.9154472
-7.4312949 27.790863 5.9182696
-7.2386322 27.751589 5.9003282
-7.0735259 27.816364 5.9047632
-6.9137859 27.903927 5.914238
-6.7488723 27.972483 5.9198823
-6.5838256 28.041975 5.92593
-6.420578 28.120995 5.9341955
-6.2523651 28.179941 5.9384289
-6.0892401 28.263735 5.9481053
-5.9205122 28.323576 5.9529433
-5.7563362 28.407368 5.9630227
-5.5894685 28.480598 5.9710865
-5.4215527 28.550926 5.9787469
-5.2538686 28.62508 5.9874153
-5.0824022 28.680889 5.992455
-4.9480634 28.955799 6.0434575
-5.6059518 34.06345 7.1026158
-4.6209912 29.195248 6.0811553
-4.4288139 29.137838 6.0634151
-4.2635021 29.257511 6.082768
-4.103518 29.423782 6.1119986
-3.9120359 29.366852 6.0950646
-3.7431209 29.479696 6.1136112
-3.5864692 29.703398 6.1553407
-3.4044793 29.727762 6.1559453
-3.2140992 29.67506 6.1408257
-3.0591159 29.960236 6.1958604
-2.8776567 30.003792 6.2011018
-2.6815126 29.887234 6.1734838
-2.4953866 29.870914 6.166831
-2.3142462 29.913982 6.1726775
-2.133853 29.972563 6.1819506
-1.9739915 30.355528 6.2583532
-1.7882144 30.375866 6.2601676
-1.6025196 30.399963 6.26299
-1.4215163 30.528589 6.2875838
-1.4495485 35.866581 7.3854475
-1.0541893 30.760071 6.3321357
-0.86267573 30.668049 6.3119764
-0.67667961 30.772648 6.3325386
-0.49033239 30.932919 6.3647933
-0.30264288 31.153753 6.4097481
-0.11115941 31.064915 6.3912015
0.07994052 31.255028 6.4303102
0.27272171 31.36952 6.4540982
0.46442625 31.315353 6.4434137
0.65728378 31.346188 6.4504695
0.85316533 31.472765 6.4774828
1.0500388 31.580492 6.5008669
1.2462227 31.635115 6.5135674
1.6405602 31.737753 6.538363
1.8466954 31.924612 6.5790844
2.0407946 31.885311 6.5734396
2.2379777 31.894659 6.5780764
2.4346814 31.894003 6.5808988
2.6326694 31.906771 6.5867448
7.5719543 31.525082 6.6704049
7.751874 31.423822 6.6589141
7.8197412 30.105293 6.3992653
7.8460226 29.462355 6.2726665
8.1808548 29.978718 6.3932176
8.153986 29.174246 6.2321467
8.2953892 28.992771 6.2041254
8.4912939 29.003366 6.2174306
8.6412783 28.857828 6.197473
8.8061419 28.764927 6.1890063
9.0289764 28.858982 6.2210593
9.2181082 28.841291 6.2293243
9.4468718 28.943409 6.2637963
9.6484375 28.95738 6.2795205
10.560002 31.056448 6.7488236
10.189568 29.374439 6.3966446
10.93803 30.91806 6.7474127
11.589482 32.131062 7.0276237
10.919065 29.146715 6.4034986
11.144848 29.202705 6.4307137
11.400826 29.331879 6.4744587
11.606178 29.326035 6.4887714
11.786634 29.256084 6.4891748
12.230125 29.827555 6.6325059
12.142878 29.104723 6.4881668
12.476219 29.394821 6.5698113
12.813573 29.681913 6.6514554
13.010024 29.635916 6.6589141
41.545971 -9.7478733 7.9300551
40.640472 -9.7989092 7.7685041
41.544445 -10.829746 7.9781184
39.884346 -10.658801 7.6716461
37.598122 -12.053178 7.3368478
37.728153 -12.865355 7.4072065
37.76202 -13.396395 7.4455843
35.447243 -12.820664 7.004425
35.322708 -13.021261 6.99547
35.290005 -13.255728 7.0049729
36.895195 -15.431047 7.4315124
48.934368 -21.532726 9.9353743
48.616451 -21.74987 9.897728
31.803587 -16.145704 6.6275935
31.615009 -17.038412 6.6734638
31.542648 -17.250002 6.6804085
31.311453 -17.626135 6.6767535
37.777496 -56.207527 12.586168
37.416142 -56.414505 12.580869
36.83778 -56.289288 12.502286
36.409573 -56.387066 12.474142
35.949329 -56.431133 12.434851
35.509277 -56.50248 12.402321
35.087318 -56.598969 12.376005
34.621922 -56.62112 12.334155
34.119495 -56.576546 12.2786
33.746075 -56.741741 12.269279
33.364952 -56.892609 12.257401
32.893185 -56.885189 12.212078
32.342911 -56.734051 12.136786
31.945057 -56.844013 12.118145
31.496096 -56.859207 12.079949
31.097155 -56.960789 12.06076
30.654833 -56.979095 12.024576
30.237867 -57.040165 11.998077
29.789448 -57.037262 11.958786
29.403379 -57.14991 11.944349
28.960608 -57.148594 11.906702
28.520281 -57.146641 11.869604
28.119663 -57.219971 11.84877
27.719652 -57.291424 11.82812
27.323204 -57.367233 11.808931
26.824631 -57.222237 11.744968
26.433891 -57.300941 11.727607
26.056202 -57.405659 11.716094
25.643347 -57.429798 11.688682
25.27862 -57.559055 11.683199
24.896902 -57.64809 11.670041
24.488529 -57.672173 11.644273
24.00506 -57.511959 11.581955
23.62784 -57.599957 11.570259
22.871082 -57.763992 11.545953
22.405043 -57.617348 11.488935
22.030397 -57.699547 11.478153
21.701824 -57.902683 11.491859
21.236845 -57.737637 11.433014
20.840456 -57.751263 11.41017
20.46373 -57.815952 11.397925
19.720081 -57.96685 11.379102
19.319256 -57.95245 11.352786
18.956591 -58.049339 11.348765
18.576389 -58.090584 11.334329
18.156454 -58.001747 11.295037
17.775455 -58.031219 11.279321
17.429207 -58.173096 11.285899
17.052864 -58.213844 11.27329
16.681547 -58.269176 11.263969
17.180592 -61.434372 11.85535
15.944004 -58.391727 11.248984
15.092196 -58.067249 11.149933
14.723544 -58.111111 11.140796
14.38202 -58.262402 11.152675
14.012999 -58.302711 11.14372
13.645369 -58.346428 11.135861
13.314575 -58.549854 11.158888
12.930038 -58.517166 11.137323
12.13504 -58.306633 11.068061
11.768299 -58.336624 11.059837
11.448587 -58.60458 11.097118
10.710185 -58.640072 11.078113
9.9830189 -58.727352 11.07062
9.231019 -58.651192 11.03407
8.8451128 -58.535637 11.001905
8.5073414 -58.737679 11.029866
8.1616201 -58.895897 11.049969
7.7959609 -58.913673 11.044121
7.4226408 -58.867737 11.026759
7.0598912 -58.900459 11.024567
6.6922455 -58.888943 11.014515
5.595438 -58.878826 10.991488
2.3854363 -26.853653 5.0089741
2.0354726 -26.616228 4.9596314
1.5501636 -26.734575 4.9755306
1.2547859 -27.469526 5.1091213
-0.27356708 -28.570467 5.3086843
-0.62318474 -28.520729 5.3004608
-0.79743081 -28.489832 5.2955265
-0.88167334 -25.829453 4.8017349
-1.4722869 -20.718163 3.8585606
-2.2737174 -27.262926 5.0829878
-1.9560236 -20.422312 3.8112283
-2.0638471 -20.23876 3.779247
-2.1783717 -20.136766 3.7626166
-2.3729298 -20.744261 3.8788459
-3.1965487 -21.049168 3.9552355
-3.3271792 -21.03887 3.9570632
-3.7702591 -21.292568 4.0171881
-3.8405461 -20.940243 3.9550529
-3.5107684 -17.900698 3.3885269
-3.6111746 -17.832565 3.3797548
-3.7715805 -18.05452 3.4261734
-3.874841 -17.996437 3.4195943
-3.8675139 -17.441525 3.3185334
-3.9744604 -17.417465 3.3185334
-4.0736222 -17.360207 3.31232
-4.5760207 -18.004562 3.4508448
-5.00805 -18.73826 3.6030757
-4.8718591 -17.790215 3.4263561
-4.8808494 -17.403103 3.3574593
-4.6783066 -16.295528 3.1491239
-5.1749439 -17.617344 3.4108224
-5.2806811 -17.577726 3.4093604
-5.7134786 -17.821146 3.4764297
-5.7031293 -17.420414 3.4049745
-6.0426655 -18.081654 3.5414889
-5.3926125 -15.812778 3.1032536
-6.2053137 -17.837137 3.5082283
-6.2919631 -17.734793 3.4956186
-5.9117723 -15.73748 3.1226251
-31.438303 -82.164055 16.350277
-6.1337214 -15.738866 3.1376107
-7.0639501 -16.601791 3.3514285
-18.035585 -34.471725 7.2293906
-18.621534 -33.079784 7.0539503
-19.231752 -32.739048 7.0555949
-19.609381 -32.917747 7.1199231
-19.602072 -32.450928 7.0448127
-40.032162 -63.598671 13.966481
-40.577354 -62.743507 13.886985
-40.769714 -62.200619 13.821926
-7.5392632 -11.348783 2.5303314
-8.4175472 -12.339715 2.774303
-41.612034 -60.209171 13.60226
-7.6335421 -10.75935 2.4499211
-7.9794121 -11.101914 2.5391033
-7.5375919 -10.352493 2.3781002
-7.854218 -10.649461 2.4574139
-7.997077 -10.705041 2.4815369
-8.1164808 -10.591271 2.4780648
-8.1498537 -10.368737 2.4491901
-8.4704647 -10.641624 2.5259452
-8.2351446 -10.216658 2.4369459
-8.0533733 -9.8665924 2.3651249
-8.1131353 -9.8162346 2.3649423
-9.0262451 -10.785678 2.6120207
-8.7339087 -10.054333 2.4733131
-8.3486528 -9.3758507 2.3313162
-8.3849602 -9.3010798 2.3254681
-8.9846516 -9.8442249 2.4751406
-8.9169178 -9.4158945 2.4082541
-8.9316616 -9.3162909 2.3967407
-9.3015642 -9.583745 2.4802577
-9.4091139 -9.5762854 2.493233
-26.695168 -26.512505 6.9912667
-26.806812 -26.298634 6.9781089
-43.877502 -42.521133 11.355162
-44.044544 -42.162045 11.331222
-27.418499 -25.925718 7.0119176
-27.600771 -25.779139 7.0179482
-27.665937 -25.523964 6.9945564
-44.624897 -40.666466 11.220292
-28.044298 -25.243052 7.0113692
-44.911907 -39.93026 11.168391
-28.395563 -23.140932 6.8066888
-28.628929 -23.040236 6.828619
-28.655081 -22.772993 6.8013892
-28.929623 -22.702961 6.8333707
-28.585781 -22.151045 6.7198825
-28.828131 -22.057077 6.7449193
-30.054964 -22.130745 6.9355278
-29.32262 -21.041454 6.7063589
-47.680412 -33.773979 10.858812
-47.877884 -33.474583 10.856802
-48.057293 -33.162872 10.851136
-48.228992 -32.846344 10.844192
-29.02405 -19.50687 6.4980235
-31.011263 -20.567411 6.9146943
-48.696262 -31.868511 10.8155
-48.836376 -31.533918 10.803439
-49.004898 -31.218353 10.798139
-49.282928 -30.972008 10.817327
-49.476444 -30.253086 10.777488
-10.125652 -5.9375677 2.1796334
-9.4571772 -5.4678216 2.028316
-50.151409 -28.590187 10.728329
-50.303604 -28.269402 10.723577
-51.599308 -28.582397 10.962249
-51.755596 -28.25536 10.958411
-9.1762924 -4.9361877 1.9345652
-10.375607 -5.4996161 2.1805472
-10.619177 -5.5455418 2.2245901
