# .PCD v0.7 - Point Cloud Data file format
VERSION 0.7
FIELDS x y z
SIZE 4 4 4
TYPE F F F
COUNT 1 1 1
WIDTH 1446
HEIGHT 1
VIEWPOINT 0 0 0 1 0 0 0
POINTS 1446
DATA ascii
1.992228 2.9586999 -0.77766472
1.9982349 2.9286649 -0.77296305
2.0194995 2.9211707 -0.77424532
2.0497122 2.9263296 -0.778947
2.0631077 2.9073236 -0.7772373
2.0917394 2.9096825 -0.78129786
2.0894306 2.8691504 -0.7738179
2.1371446 2.8971608 -0.78493094
2.1472812 2.8738182 -0.78215271
2.1483715 2.8387744 -0.77616876
2.1800091 2.8441496 -0.78129786
2.1950238 2.8276327 -0.78044301
2.209918 2.8110385 -0.77958816
2.2271247 2.797426 -0.77958816
2.2522166 2.793596 -0.78236639
2.269933 2.7804811 -0.78258014
2.2875731 2.7672536 -0.78279382
2.3063903 2.7554128 -0.78343499
2.3264112 2.744936 -0.78450352
2.3215845 2.7054 -0.7772373
2.3579988 2.713968 -0.78386241
2.3804131 2.7060511 -0.78578579
2.3878779 2.6811793 -0.78279382
2.4016681 2.6635745 -0.78193897
2.410723 2.6408505 -0.77958816
2.4268816 2.6260087 -0.77958816
2.4182587 2.5846698 -0.77168077
2.428699 2.5641081 -0.76997107
2.4545267 2.559736 -0.77317679
2.4681456 2.5425239 -0.77253562
2.4775383 2.5210598 -0.77061224
2.5446258 2.5577605 -0.78664064
2.5117545 2.4939089 -0.77168077
2.5046954 2.456557 -0.76484197
2.5351546 2.4560993 -0.76954365
2.5558224 2.4459021 -0.77125335
2.571492 2.430845 -0.77146709
2.5835032 2.4123535 -0.77061224
2.6154881 2.4123549 -0.77574134
2.6107459 2.3784943 -0.76997107
2.6144001 2.3526266 -0.76676542
2.6236761 2.3319967 -0.7652694
2.6658282 2.3403502 -0.77339047
2.6705446 2.3156273 -0.77061224
2.6565118 2.2750459 -0.76249117
2.6383536 2.2315695 -0.7533015
2.6594927 2.2216032 -0.75543863
2.701705 2.2288718 -0.7635597
2.6979136 2.1980574 -0.75864434
2.7029786 2.1747243 -0.75629348
2.7200954 2.1611373 -0.75736207
2.728694 2.1407878 -0.75607979
2.7186131 2.1060524 -0.74966842
2.733036 2.0905187 -0.75009584
2.7419147 2.0707655 -0.74902725
2.7498705 2.0503979 -0.74774498
2.7844253 2.049706 -0.75372893
2.7937891 2.0302849 -0.75287408
2.822861 2.0250652 -0.75736207
2.8360305 2.0082712 -0.75757575
2.849901 1.9919515 -0.75800318
2.8186526 1.9444641 -0.7464627
2.8305306 1.9271325 -0.7464627
2.8325729 1.9031889 -0.74389815
2.8783894 1.9084519 -0.75287408
2.8802364 1.8843349 -0.75030953
2.8687658 1.851788 -0.74432558
2.8858414 1.8378249 -0.7458216
2.8763862 1.8070873 -0.74047875
2.8882504 1.7899188 -0.7406925
2.9033461 1.7747114 -0.74176103
2.8757002 1.7336552 -0.73193026
2.9131513 1.7319578 -0.73876905
2.9203529 1.7120737 -0.7379142
2.9265747 1.6916772 -0.73684567
2.9581158 1.6857843 -0.74218845
2.9573331 1.6613798 -0.73941022
2.9520898 1.6346816 -0.7355634
2.9414864 1.6053017 -0.7304343
2.97967 1.6024977 -0.73748678
2.999804 1.5896755 -0.74005133
2.9765978 1.5540526 -0.73193026
2.9860771 1.5357593 -0.73193026
2.9902158 1.5147583 -0.73064798
3.0029502 1.4981272 -0.73150283
3.0191 1.4831204 -0.73321253
3.010556 1.4560577 -0.72893828
3.0414824 1.4480604 -0.73428112
3.0388117 1.42398 -0.73150283
3.0155585 1.3905745 -0.72380918
3.0222549 1.3712376 -0.72338176
3.0270438 1.3510742 -0.72252691
3.0227549 1.3269752 -0.71953493
3.0586414 1.3204111 -0.72616005
3.0558958 1.2970366 -0.7235955
3.043062 1.2696061 -0.71868008
3.0263925 1.2408992 -0.71290988
3.0484464 1.22815 -0.71632928
3.0731821 1.2162555 -0.72038978
3.0769451 1.1959597 -0.71953493
3.0623224 1.1686935 -0.71440583
3.0831571 1.1550248 -0.71761155
3.0516791 1.12192 -0.70863563
3.0970988 1.1171027 -0.71761155
3.1066575 1.0990562 -0.71825266
3.087502 1.0710042 -0.71226871
3.1004894 1.054242 -0.71376473
3.1421161 1.0469394 -0.7218858
3.1763394 1.0367386 -0.72829717
3.1845019 1.0178246 -0.7287246
3.2158587 1.0061463 -0.73449481
3.2032907 0.9806723 -0.73022056
3.2017612 0.95875555 -0.72851086
3.1878967 0.93332398 -0.72402292
3.2067115 0.91751051 -0.7270149
3.2009916 0.89465958 -0.72445035
3.1988819 0.87294286 -0.72274065
3.1843548 0.84801549 -0.71825266
3.1838253 0.82698601 -0.71697038
3.1812642 0.80551511 -0.71526068
3.1833014 0.78527761 -0.71461958
3.1671634 0.76070714 -0.7099179
3.191747 0.74593198 -0.71440583
3.1781652 0.7222172 -0.71034533
3.1529665 0.69616765 -0.70372021
3.1514478 0.67557865 -0.70243794
3.1545773 0.65602988 -0.70222425
3.1767378 0.64033252 -0.70628476
3.1738956 0.61951703 -0.7047888
3.1718776 0.59894198 -0.70350653
3.1889467 0.58192623 -0.7064985
3.1741786 0.55912477 -0.70243794
3.2006633 0.5435679 -0.70756704
3.168268 0.51807874 -0.69965971
3.1877923 0.50121152 -0.70329279
3.1908078 0.48164216 -0.70329279
3.1753337 0.45939338 -0.69923228
3.1916399 0.44177911 -0.70222425
3.1962273 0.42244363 -0.70265168
3.2094207 0.4041687 -0.70500249
3.1740122 0.37993282 -0.69666773
3.218992 0.36530548 -0.70607108
3.2211728 0.34554723 -0.70607108
3.2105973 0.32449645 -0.70329279
3.210583 0.30460557 -0.70286536
3.2114184 0.28481358 -0.70265168
3.205317 0.26445919 -0.70094198
3.2020092 0.24441403 -0.69987339
3.2092955 0.22517367 -0.70115566
3.208667 0.20535238 -0.70072824
3.196213 0.1848681 -0.69773626
3.2070429 0.16575919 -0.69987339
3.1962891 0.14554247 -0.69730884
3.2185969 0.12677775 -0.70201051
3.2202907 0.10705908 -0.70222425
3.2570188 0.088284105 -0.71013159
3.2535923 0.06821508 -0.70927674
3.269578 0.048484903 -0.71269614
3.2698143 0.028422238 -0.71269614
3.0929477 0.0081623606 -0.72883767
3.0656919 -0.010718125 -0.72239149
3.0558376 -0.029434074 -0.72008932
3.0633836 -0.048307214 -0.7219311
3.0776229 -0.067423858 -0.72538435
3.0810425 -0.086415999 -0.72630525
2.9151177 -0.099652156 -0.68716794
1.4335704 -0.057678543 -0.3365435
1.4419383 -0.066881098 -0.33861548
1.4288675 -0.075061388 -0.33562261
1.4206084 -0.083369792 -0.33378085
1.4220123 -0.092211217 -0.3342413
1.4078301 -0.099967234 -0.33101824
1.40622 -0.10852856 -0.33078802
1.3987393 -0.1165878 -0.32917649
1.3853974 -0.12403754 -0.32618362
1.3952659 -0.13355789 -0.32871604
1.3760262 -0.14023833 -0.32434186
1.3586926 -0.14689736 -0.32042813
1.3471307 -0.15401338 -0.31789571
1.3152444 -0.1585433 -0.3105287
1.2659775 -0.16048138 -0.2990177
1.2543582 -0.1668327 -0.2964853
1.2340347 -0.17183775 -0.29188091
1.2223644 -0.17786278 -0.28934848
1.2193259 -0.18506724 -0.28888804
1.2200898 -0.19284967 -0.28934848
1.2294459 -0.20207073 -0.29188091
1.2262645 -0.20928282 -0.29142046
1.2230408 -0.21646349 -0.29096001
1.2408326 -0.22747745 -0.29556441
1.2241166 -0.23218198 -0.29188091
1.232218 -0.24156278 -0.29418311
1.2230827 -0.24757281 -0.29234135
1.201537 -0.25089139 -0.28750673
1.2190012 -0.26235834 -0.29211113
1.2097682 -0.26814669 -0.29026937
1.1976641 -0.27318186 -0.28773695
1.2310182 -0.28875554 -0.29625508
2.7740309 -0.66902417 -0.67220366
2.758539 -0.68322414 -0.66944098
2.756181 -0.70061702 -0.66990143
2.7442973 -0.71555054 -0.66805971
2.7445555 -0.73363268 -0.66921079
2.7334325 -0.74865913 -0.66759926
2.7184808 -0.76252502 -0.66506684
2.7305868 -0.78402668 -0.66921079
2.7294593 -0.80186403 -0.67013168
2.7067807 -0.8132745 -0.66575748
2.7435992 -0.84272969 -0.67611736
2.7170227 -0.85284323 -0.67082232
2.6802328 -0.85939312 -0.66299486
2.6749091 -0.87582254 -0.66299486
2.64272 -0.88327062 -0.65631849
2.6381714 -0.89978355 -0.65654874
2.6270866 -0.91403502 -0.6551674
2.6333508 -0.93436879 -0.65816027
2.6101818 -0.94421786 -0.65378606
2.6143823 -0.96391988 -0.65631849
2.617528 -0.98336655 -0.65862072
2.5987213 -0.99453813 -0.65539759
2.6170502 -1.0200088 -0.66161352
2.5890346 -1.0274307 -0.65608829
2.6097496 -1.0542347 -0.66299486
2.5978317 -1.0680073 -0.66161352
2.596616 -1.0861809 -0.66299486
2.5925887 -1.1032364 -0.6636855
2.5857704 -1.1191235 -0.6636855
2.584199 -1.1373209 -0.66506684
2.5602953 -1.1456026 -0.66069269
2.5576468 -1.1633056 -0.66184378
2.5345616 -1.1716257 -0.65769982
2.519398 -1.183431 -0.65562785
2.5138457 -1.1997058 -0.65608829
2.5020587 -1.212985 -0.65493715
2.5111561 -1.2364838 -0.65931135
2.4791522 -1.2396799 -0.65286517
2.4654253 -1.2517838 -0.65125364
2.4386694 -1.2570767 -0.64618886
2.4257371 -1.2693089 -0.64480752
2.4015746 -1.2754947 -0.64043337
1.5773801 -0.85010463 -0.4210341
1.5593283 -0.85276139 -0.41758078
1.5515139 -0.86089635 -0.41689014
1.5385709 -0.86610258 -0.41481817
1.5374527 -0.87794024 -0.41596925
1.5337207 -0.88833308 -0.4164297
1.5290802 -0.89822012 -0.41665992
1.5318997 -0.91256708 -0.41896212
1.5254385 -0.9214462 -0.4187319
1.5272239 -0.93536413 -0.42080387
1.5198026 -0.94369054 -0.42034343
1.5181011 -0.95559072 -0.42149451
1.6032612 -1.0230038 -0.4470489
2.2873704 -1.479483 -0.64158446
2.2497663 -1.4748144 -0.63352674
2.1434131 -1.4239614 -0.60590041
1.625297 -1.0941107 -0.46063185
1.6418644 -1.1199689 -0.46730822
1.6053444 -1.1095459 -0.45879009
1.5993031 -1.1199336 -0.45902032
1.5582761 -1.1055086 -0.44912088
1.5562043 -1.1184576 -0.45050219
1.5500989 -1.128558 -0.45073241
1.5729033 -1.1600007 -0.45948076
1.5641968 -1.1684649 -0.45902032
1.5391507 -1.1645335 -0.45372528
1.5389274 -1.1792837 -0.45579726
2.1274021 -1.6511819 -0.63421744
2.1470661 -1.6876612 -0.64319599
2.1176376 -1.6856501 -0.6374405
2.1368005 -1.722433 -0.64641905
2.1171458 -1.7281265 -0.64365643
2.1080024 -1.7423246 -0.64411688
2.1002569 -1.7577248 -0.64503771
2.1124454 -1.7900839 -0.65217453
2.0726209 -1.7782959 -0.64319599
2.0763621 -1.803745 -0.64780039
2.0718315 -1.8222362 -0.64987236
2.049711 -1.8252059 -0.64641905
2.0630453 -1.8599054 -0.65424651
2.0357831 -1.8580948 -0.64918166
2.0350635 -1.8804586 -0.65263498
2.009275 -1.8796128 -0.64803058
2.0125406 -1.9059596 -0.65286517
2.0113437 -1.9283756 -0.65631849
2.0176277 -1.9583044 -0.66230422
1.9847519 -1.9501842 -0.65539759
1.974818 -1.9643848 -0.65608829
1.9565569 -1.9702499 -0.65401632
1.9471563 -1.984997 -0.65493715
1.9390026 -2.0011008 -0.65631849
1.925342 -2.0115545 -0.65585804
1.9076152 -2.0176728 -0.65401632
1.8951991 -2.0293398 -0.65401632
1.8728153 -2.0302 -0.650563
1.8727746 -2.0553215 -0.65493715
1.8633828 -2.0703907 -0.65608829
1.8525835 -2.0839674 -0.65677893
1.8551699 -2.1128471 -0.66230422
1.8498209 -2.1330132 -0.66506684
1.8170756 -2.1214101 -0.65793002
1.8027678 -2.1310334 -0.65746957
1.7921536 -2.1450424 -0.65839046
1.7888664 -2.168009 -0.66207397
1.7908964 -2.1978059 -0.66782945
1.7554169 -2.1814578 -0.65954155
1.732313 -2.1799965 -0.65585804
1.7165015 -2.1875222 -0.65493715
1.7030468 -2.1980133 -0.65493715
1.6782948 -2.1937356 -0.650563
1.6806372 -2.2249594 -0.65677893
1.6570649 -2.221967 -0.65286517
1.6347464 -2.2203372 -0.64941192
1.6428307 -2.2602408 -0.65816027
1.6419775 -2.2884653 -0.66345531
1.6228436 -2.2913494 -0.66138333
1.6087536 -2.3012638 -0.66138333
1.5912875 -2.3062854 -0.66000199
1.5809401 -2.3216369 -0.66161352
1.5617806 -2.3240237 -0.65954155
1.560397 -2.3530285 -0.66506684
1.5267506 -2.3332419 -0.65677893
1.5150441 -2.3466542 -0.65793002
1.5105485 -2.3715017 -0.66230422
1.5042517 -2.3939099 -0.66598773
1.4828706 -2.3923416 -0.66299486
1.4656259 -2.3972437 -0.66184378
1.4513916 -2.4070249 -0.66207397
1.4301302 -2.4050109 -0.6590811
1.4163307 -2.4154198 -0.65954155
1.4097623 -2.4383874 -0.66345531
1.3918831 -2.4419188 -0.66207397
1.3773502 -2.4512618 -0.66230422
1.3580409 -2.4520049 -0.66023225
1.3476319 -2.4688337 -0.66253442
1.3232396 -2.4599149 -0.65793002
1.30402 -2.4602492 -0.65585804
1.3019605 -2.4932208 -0.66253442
1.280852 -2.4899125 -0.65954155
1.2558755 -2.4786263 -0.65447676
1.2519381 -2.5089262 -0.66046244
1.2386653 -2.5209279 -0.66161352
1.2240213 -2.5302329 -0.66207397
1.2001067 -2.5201228 -0.65746957
1.2003118 -2.5609245 -0.66621792
1.1853906 -2.5700088 -0.66667837
1.1603515 -2.5568511 -0.66138333
1.1501938 -2.5763638 -0.66460639
1.1273229 -2.5673337 -0.66046244
1.1092347 -2.5688419 -0.6590811
1.0980141 -2.5863492 -0.66184378
1.0832479 -2.595732 -0.66253442
1.0698848 -2.6086326 -0.66414595
1.0585858 -2.6268826 -0.66713881
1.0334951 -2.610707 -0.66138333
1.0163989 -2.6142783 -0.66069269
1.0027677 -2.6268299 -0.66230422
0.98833787 -2.6374898 -0.66345531
0.9704569 -2.6389375 -0.66230422
0.95325595 -2.642096 -0.66161352
0.94286835 -2.6644092 -0.66575748
0.93128586 -2.6839354 -0.66921079
0.90602839 -2.6638017 -0.66276467
0.89458841 -2.6840825 -0.66644818
0.87327123 -2.6747193 -0.66276467
0.861287 -2.6939316 -0.66621792
0.83951086 -2.6824481 -0.66207397
0.82559961 -2.6959233 -0.66414595
0.81099629 -2.7074642 -0.66575748
0.79600888 -2.7179928 -0.66713881
0.78199351 -2.732182 -0.66944098
0.75918972 -2.7153726 -0.66414595
0.74507606 -2.729368 -0.66644818
0.73357379 -2.7536359 -0.67128277
0.71372819 -2.7467825 -0.66852015
0.69614428 -2.74828 -0.66782945
0.6841625 -2.772341 -0.67266411
0.66600251 -2.7717557 -0.67151296
0.64455366 -2.7568378 -0.66690862
0.6315074 -2.7778218 -0.67105258
0.61403149 -2.7797441 -0.67059213
0.59696376 -2.7834592 -0.67059213
0.58185488 -2.7965975 -0.6728943
0.56391519 -2.7962992 -0.67197341
0.55010253 -2.8168986 -0.67611736
0.53046066 -2.8077898 -0.67312455
0.51427054 -2.8167357 -0.67450583
0.4961336 -2.8150463 -0.67335474
0.47559282 -2.7988496 -0.66875035
0.4624936 -2.826685 -0.67473608
0.44468722 -2.8265858 -0.67404538
0.427771 -2.8321476 -0.67473608
0.40759841 -2.8154569 -0.67013168
0.38711321 -2.79477 -0.66460639
0.37569544 -2.8405063 -0.67496628
0.35388219 -2.8079998 -0.66667837
0.33664596 -2.8101182 -0.66667837
0.31994572 -2.8169656 -0.66782945
0.3009944 -2.8033946 -0.66414595
0.28515741 -2.8187432 -0.66736901
0.26859188 -2.8281903 -0.66921079
0.25527382 -2.8753438 -0.68003112
0.23722614 -2.8720067 -0.67888004
0.22115476 -2.893785 -0.68371463
0.2029179 -2.8882923 -0.6821031
0.18469463 -2.8817136 -0.68026131
0.16667213 -2.8769636 -0.67888004
0.14781074 -2.8546078 -0.67335474
0.12909721 -2.8292136 -0.66713881
0.11276918 -2.8562069 -0.67335474
0.095080033 -2.8519821 -0.67220366
0.07813248 -2.8729403 -0.67703825
0.060115457 -2.8548799 -0.67266411
0.042654816 -2.8590872 -0.67358494
0.02500107 -2.8466449 -0.67059213
0.0075239781 -2.8428519 -0.66967124
-0.0099335238 -2.8467371 -0.67059213
-0.027230341 -2.829107 -0.66644818
-0.044635188 -2.8318057 -0.66713881
-0.061753199 -2.8198037 -0.6643762
-0.079491913 -2.8349357 -0.66805971
-0.096251868 -2.8159158 -0.6636855
-0.11458937 -2.8415256 -0.66990143
-0.13147926 -2.8291039 -0.66713881
-0.14986049 -2.8476796 -0.67174321
-0.16658719 -2.8340776 -0.66875035
-0.184542 -2.841742 -0.67082232
-0.20190603 -2.8395853 -0.67059213
-0.21782428 -2.8188882 -0.66598773
-0.23722301 -2.8427124 -0.67197341
-0.25413927 -2.8353879 -0.67059213
-0.27097467 -2.8279631 -0.66921079
-0.2898044 -2.8407686 -0.67266411
-0.30565771 -2.8244247 -0.66921079
-0.32530755 -2.8427992 -0.67404538
-0.34076136 -2.8243256 -0.67013168
-0.36188474 -2.8521087 -0.67726851
-0.37809309 -2.8401883 -0.67496628
-0.3918837 -2.8117919 -0.66875035
-0.41067281 -2.8199272 -0.67128277
-0.42679793 -2.8096576 -0.66944098
-0.43900907 -2.7752671 -0.66184378
-0.46519542 -2.8282142 -0.67519653
-0.47926182 -2.8061218 -0.67059213
-0.49324459 -2.7849224 -0.66621792
-0.51893157 -2.8287437 -0.6774987
-0.532103 -2.8035171 -0.67220366
-0.55135661 -2.8107035 -0.67473608
-0.56917214 -2.8101289 -0.67542672
-0.5834173 -2.7922952 -0.67197341
-0.60299903 -2.8000786 -0.67473608
-0.62396288 -2.8134267 -0.67888004
-0.64706266 -2.8351607 -0.68509597
-0.6617775 -2.8197684 -0.68233329
-0.66811115 -2.770247 -0.67128277
-0.68813902 -2.7783751 -0.67427564
-0.7058934 -2.7769299 -0.67496628
-0.72144532 -2.7668965 -0.67358494
-0.74192858 -2.775579 -0.67680806
-0.75817382 -2.7681587 -0.67611736
-0.77593333 -2.7662654 -0.67680806
-0.78886247 -2.7474225 -0.67335474
-0.80268717 -2.7322602 -0.67082232
-0.81887674 -2.7254198 -0.67036188
-0.83672744 -2.7240648 -0.67128277
-0.85080254 -2.7105234 -0.66921079
-0.87484837 -2.7284179 -0.67496628
-0.89611661 -2.7368705 -0.67841959
-0.91597849 -2.7405498 -0.68072176
-0.92586404 -2.7146156 -0.67565691
-0.95177937 -2.7355363 -0.68233329
-0.96887183 -2.7305622 -0.68256354
-0.97997898 -2.7090096 -0.67864978
-0.99388885 -2.6956413 -0.67680806
-1.0223918 -2.7213752 -0.68486571
-1.0279374 -2.6859682 -0.6774987
-1.0390967 -2.6660104 -0.67404538
-1.0694379 -2.6948593 -0.68302399
-1.0750157 -2.6611786 -0.67611736
-1.0824414 -2.6329322 -0.67059213
-1.1154796 -2.6666384 -0.68095201
-1.114289 -2.6185551 -0.67036188
-1.1222163 -2.5929148 -0.66552728
-1.1549647 -2.6242785 -0.67542672
-1.1678649 -2.6100364 -0.67358494
-1.1931264 -2.6231942 -0.67888004
-1.1965388 -2.5884421 -0.67174321
-1.2202612 -2.5977862 -0.67611736
-1.243724 -2.6060576 -0.68026131
-1.2567189 -2.592248 -0.67864978
-1.2829201 -2.6054399 -0.68417507
-1.2823408 -2.564446 -0.67542672
-1.3108305 -2.5816915 -0.6821031
-1.3319983 -2.5839789 -0.68486571
-1.3496332 -2.5792062 -0.6857866
-1.3563027 -2.5536883 -0.68118221
-1.3691754 -2.5401785 -0.67980087
-1.3763289 -2.5163627 -0.67565691
-1.39316 -2.5104229 -0.67634761
-1.4099699 -2.5043709 -0.67703825
-1.4286888 -2.5015876 -0.67864978
-1.4298632 -2.4683557 -0.67197341
-1.4518842 -2.4712818 -0.67519653
-1.474991 -2.4757023 -0.67888004
-1.4876374 -2.4624407 -0.67772889
-1.4935677 -2.4383302 -0.67358494
-1.5218511 -2.4506128 -0.67957067
-1.5223403 -2.4181712 -0.67312455
-1.5455264 -2.4219096 -0.67680806
-1.5571861 -2.4074783 -0.67542672
-1.5740633 -2.4011335 -0.67634761
-1.5849967 -2.3857563 -0.67473608
-1.593083 -2.3662999 -0.67197341
-1.6190907 -2.3733611 -0.67680806
-1.6303024 -2.3585792 -0.67542672
-1.6430688 -2.3461401 -0.67473608
-1.6658813 -2.3479185 -0.67818934
-1.6836648 -2.3423934 -0.67957067
-1.6905583 -2.3217921 -0.67657781
-1.7180598 -2.3293869 -0.68187284
-1.7107679 -2.289958 -0.67335474
-1.7459283 -2.3073523 -0.68164265
-1.7541329 -2.2888727 -0.67934042
-1.7705311 -2.2811413 -0.68026131
-1.7826904 -2.2679393 -0.67957067
-1.7911174 -2.2501066 -0.6774987
-1.7914526 -2.2224073 -0.67243385
-1.7976701 -2.2023275 -0.66967124
-1.8359513 -2.2212567 -0.67888004
-1.8345548 -2.1920409 -0.67335474
-1.8397907 -2.1710923 -0.67036188
-1.8556128 -2.1627166 -0.67128277
-1.8662949 -2.1483517 -0.67036188
-1.8742998 -2.1310146 -0.66852015
-1.9009318 -2.1347346 -0.67335474
-1.9081296 -2.1165261 -0.67128277
-1.9420755 -2.1277769 -0.67864978
-1.9484898 -2.1086736 -0.67634761
-1.9706999 -2.1066267 -0.67957067
-1.9896117 -2.1008537 -0.68164265
-1.9836059 -2.0689392 -0.67519653
-2.0064309 -2.0672026 -0.67864978
-2.0258982 -2.0617931 -0.68095201
-2.038511 -2.0493238 -0.68095201
-2.0406885 -2.0264924 -0.6774987
-2.0676744 -2.0282421 -0.68233329
-2.0772848 -2.0128083 -0.6814124
-2.0769408 -1.9879138 -0.67726851
-2.095464 -1.9811488 -0.67934042
-2.1118484 -1.9722389 -0.68072176
-2.1324942 -1.9671609 -0.68348438
-2.1200655 -1.9317569 -0.67565691
-2.1289849 -1.9161084 -0.67473608
-2.1377926 -1.9004232 -0.67381519
-2.1486816 -1.8866282 -0.67358494
-2.1683052 -1.8804212 -0.67611736
-2.1650195 -1.8544216 -0.67151296
-2.1941895 -1.8561847 -0.67703825
-2.2331712 -1.8657697 -0.68555635
-2.2513332 -1.8576055 -0.68762833
-2.237792 -1.823473 -0.68003112
-2.2580371 -1.817028 -0.68279374
-2.2660956 -1.8007175 -0.68187284
-2.2556641 -1.7699604 -0.67542672
-2.2757137 -1.7632381 -0.67818934
-2.2988572 -1.7587008 -0.68187284
-2.3150411 -1.7486675 -0.68348438
-2.3101239 -1.722796 -0.67888004
-2.3120308 -1.702243 -0.67634761
-2.339751 -1.7006102 -0.6814124
-2.3438158 -1.6816839 -0.67957067
-2.3572674 -1.6695204 -0.68049157
-2.3634787 -1.6522375 -0.67934042
-2.3647609 -1.631626 -0.67680806
-2.4052954 -1.6378964 -0.68555635
-2.3967216 -1.6106246 -0.68026131
-2.4130476 -1.6001902 -0.6821031
-2.4334073 -1.5922798 -0.68509597
-2.427597 -1.5672914 -0.68072176
-2.4371679 -1.5523664 -0.68072176
-2.4581835 -1.5446305 -0.68394482
-2.463479 -1.5269552 -0.68279374
-2.4586868 -1.5031829 -0.67888004
-2.4778647 -1.4940975 -0.68164265
-2.4644008 -1.4654384 -0.67542672
-2.4909759 -1.4606248 -0.68026131
-2.4990487 -1.444826 -0.68003112
-2.5044849 -1.4275377 -0.67911023
-2.5140455 -1.4126202 -0.67934042
-2.5303278 -1.4014103 -0.6814124
-2.5243576 -1.3779333 -0.6774987
-2.5327649 -1.3624182 -0.6774987
-2.5677328 -1.3609771 -0.68463552
-2.5794859 -1.3469976 -0.68555635
-2.5747213 -1.3244687 -0.6821031
-2.5932171 -1.3139226 -0.68486571
-2.576848 -1.2858226 -0.67841959
-2.5855627 -1.2704163 -0.67864978
-2.5810444 -1.2485958 -0.67542672
-2.5992007 -1.2377551 -0.67818934
-2.6076276 -1.2221963 -0.67841959
-2.6115429 -1.2045431 -0.6774987
-2.6507876 -1.202971 -0.6857866
-2.6314597 -1.1747847 -0.67888004
-2.6724789 -1.1734804 -0.68762833
-2.6921372 -1.16246 -0.69085145
-2.6795118 -1.137555 -0.6857866
-2.6594977 -1.1098515 -0.67888004
-2.678863 -1.0986807 -0.6821031
-2.6936779 -1.0854957 -0.68417507
-2.7156701 -1.075035 -0.68808877
-2.7176802 -1.056589 -0.68693769
-2.7122927 -1.035383 -0.68394482
-2.7523127 -1.0313526 -0.69246298
-2.7448885 -1.0094085 -0.68900967
-2.7601845 -0.99584895 -0.6913119
-2.7543166 -0.97467476 -0.68831903
-2.7574871 -0.95679945 -0.68762833
-2.785418 -0.94738036 -0.69315362
-2.8096433 -0.93642384 -0.69775802
-2.7857327 -0.90950435 -0.690391
-2.7968225 -0.89417195 -0.69177228
-2.8078289 -0.87873745 -0.69315362
-2.8224728 -0.86434102 -0.69545585
-2.8361135 -0.84951878 -0.69752783
-2.8001792 -0.82007009 -0.68739814
-2.8014162 -0.80180234 -0.68647724
-2.7987854 -0.78250253 -0.68463552
-2.8251266 -0.77120703 -0.68993056
-2.8269844 -0.75310659 -0.68923992
-2.8315523 -0.73574632 -0.68923992
-2.8614843 -0.72480774 -0.69545585
-2.8687124 -0.70793557 -0.69614649
-2.8739483 -0.69054747 -0.69637668
-2.8658125 -0.6700213 -0.69338387
-2.8594313 -0.65005231 -0.69085145
-2.870018 -0.63396364 -0.69246298
-2.8985932 -0.62164503 -0.69844866
-2.8861563 -0.6004796 -0.69453496
-2.9050498 -0.58583575 -0.69821846
-2.8875771 -0.56389827 -0.69315362
-2.9301887 -0.55357289 -0.70259261
-2.9354448 -0.5359326 -0.70305306
-2.9147182 -0.51369053 -0.69729757
-2.9158967 -0.49547064 -0.69683713
-2.9044762 -0.47521406 -0.69338387
-2.9044533 -0.45693013 -0.69269317
-2.8985422 -0.43779296 -0.6906212
-2.9242883 -0.42334369 -0.69614649
-2.9316506 -0.40605977 -0.69729757
-2.9360166 -0.3883189 -0.69775802
-2.946068 -0.3712692 -0.6995998
-2.9405608 -0.35226017 -0.69775802
-2.9233282 -0.33201602 -0.69315362
-2.9243429 -0.31396878 -0.69292343
-2.9300871 -0.29641083 -0.69384426
-2.943476 -0.27952957 -0.69660693
-2.9674306 -0.2634407 -0.70190197
-2.9379561 -0.24266736 -0.69453496
-2.9490931 -0.22537649 -0.69683713
-2.964011 -0.20823051 -0.70006019
-2.9749441 -0.19066128 -0.70236242
-2.9848018 -0.1729095 -0.70443439
-2.976088 -0.15408956 -0.70213217
-2.9604514 -0.13507318 -0.69821846
-2.9670587 -0.11713546 -0.6995998
-2.9541051 -0.098475054 -0.69637668
-2.9507627 -0.080241695 -0.69545585
-2.9628744 -0.06237939 -0.69821846
-2.9661207 -0.044241641 -0.6989091
-2.9867713 -0.026218586 -0.70374376
-2.9693596 -0.0078468956 -0.6995998
-2.9683788 0.010369414 -0.69936955
-2.9487975 0.028393686 -0.69476515
-2.9855423 0.047072921 -0.7035135
-3.0075738 0.065883152 -0.70880854
-3.0460234 0.085430749 -0.71801734
-3.062948 0.10471924 -0.72216129
-3.076833 0.12410071 -0.72561461
-3.1197574 0.14501455 -0.73597449
-3.1256113 0.16451292 -0.73758602
-3.1566012 0.18557562 -0.74518323
-3.1893911 0.20715106 -0.75324094
-3.1938841 0.22713156 -0.75462228
-3.2040732 0.24762537 -0.7573849
-3.2141306 0.26825276 -0.76014751
-3.2289014 0.28944767 -0.76406127
-3.2357829 0.3100906 -0.76613325
-3.22317 0.32885173 -0.76360083
-3.2201242 0.34851778 -0.76337057
-3.2130909 0.36771587 -0.76221949
-3.1924179 0.38520762 -0.75784534
-3.1793749 0.4034403 -0.75531292
-3.171052 0.42216992 -0.75393158
-3.1655102 0.44121593 -0.75324094
-3.1588917 0.46006954 -0.75232005
-3.1473505 0.4781273 -0.75024807
-3.1309011 0.49530017 -0.74702501
-3.1201212 0.51323742 -0.74518323
-3.114995 0.53204459 -0.74472278
-3.1087971 0.55063844 -0.74403214
-3.0881312 0.56654102 -0.73988819
-3.0788605 0.58438951 -0.73850691
-3.0656676 0.60139591 -0.73620468
-3.0437984 0.61652303 -0.73183054
-3.0390058 0.63498873 -0.73160028
-3.0074642 0.64767998 -0.72492391
-2.9958332 0.66443485 -0.72308218
-2.9935975 0.68323767 -0.72354263
-2.9741907 0.69803429 -0.71985912
-2.9812036 0.71900934 -0.72262174
-2.9833479 0.73892641 -0.72423327
-2.9693265 0.75481963 -0.7219311
-2.9523978 0.76983184 -0.71893823
-2.9551396 0.78994405 -0.72077996
-2.9577453 0.81011885 -0.72262174
-2.948034 0.82693744 -0.72147065
-2.912039 0.83614516 -0.71387339
-2.9320624 0.86140573 -0.72008932
-2.9360414 0.88218141 -0.72239149
-2.9659212 0.91104126 -0.73113984
-2.9742022 0.9335956 -0.73459315
-2.9619312 0.94974685 -0.73298162
-2.9431007 0.96366251 -0.72975856
-2.9362094 0.98139429 -0.72952831
-2.9200013 0.99593556 -0.72699589
-2.9303787 1.0195912 -0.73113984
-2.9497459 1.0466665 -0.73758602
-2.955164 1.0690508 -0.74057883
-2.9686353 1.0945712 -0.74564368
-2.9727945 1.1168737 -0.74840635
-2.968612 1.1361371 -0.74909699
-2.9760916 1.1599865 -0.7527805
-2.970727 1.1789436 -0.75324094
-2.9850914 1.2058994 -0.75876623
-2.9695361 1.2208619 -0.75669426
-2.9987957 1.2544602 -0.76613325
-2.9964144 1.2751236 -0.76751453
-2.9671009 1.2842066 -0.7619893
-2.9796505 1.3114061 -0.76728433
-2.9884241 1.3372176 -0.77165848
-2.9766197 1.3539171 -0.77073765
-2.982389 1.3786904 -0.77442116
-2.9738731 1.396964 -0.77442116
-2.9634893 1.4143466 -0.77396071
-2.9661384 1.4380233 -0.77695358
-2.9415448 1.4484568 -0.77280962
-2.960453 1.4804087 -0.78017664
-2.9478431 1.4967831 -0.77925575
-2.9360087 1.5135047 -0.77856511
-2.8913171 1.5129895 -0.76912612
-2.8785415 1.5288757 -0.76820523
-2.8742456 1.5492802 -0.7695865
-2.8552945 1.5617495 -0.76705414
-2.8320444 1.5716832 -0.76337057
-2.8460896 1.6024005 -0.76981676
-2.8404291 1.6222472 -0.77096784
-2.7832687 1.6123247 -0.75807554
-2.7867472 1.6372606 -0.76175904
-2.7900243 1.6622995 -0.76544255
-2.7706103 1.6738514 -0.76291019
-2.7719045 1.6979373 -0.76613325
-2.7821002 1.7277502 -0.77188873
-2.7755642 1.7473809 -0.77303982
-2.7844772 1.7769442 -0.77856511
-2.7637167 1.7876527 -0.77580243
-2.7559512 1.8067114 -0.77672333
-2.7269821 1.8117387 -0.77165848
-2.7085497 1.8235452 -0.7695865
-2.7117786 1.8500031 -0.77373046
-2.70678 1.8710346 -0.77557224
-2.7080014 1.8965409 -0.77925575
-2.7034559 1.9181898 -0.78132772
-2.6987464 1.9398543 -0.7833997
-2.6993792 1.9655432 -0.78708321
-2.6379321 1.9456741 -0.77257937
-2.6056757 1.9466784 -0.76659369
-2.6200647 1.982597 -0.77442116
-2.6032164 1.995084 -0.77303982
-2.587851 2.0086324 -0.77211893
-2.5968981 2.0413144 -0.77856511
-2.5911758 2.0626652 -0.78063709
-2.5989254 2.095017 -0.78685302
-2.5905447 2.1146169 -0.78823429
-2.5775208 2.1304724 -0.78823429
-2.5644 2.1462474 -0.78823429
-2.5638027 2.1726384 -0.79214805
-2.5445156 2.1832588 -0.79030627
-2.5288675 2.1969159 -0.78961563
-2.5372598 2.231674 -0.7965222
-2.5082579 2.2336085 -0.79168761
-2.4945056 2.2489569 -0.79168761
-2.4777846 2.261596 -0.79076672
-2.4581435 2.2714729 -0.78892499
-2.4391859 2.2818589 -0.78731346
-2.4399753 2.3108361 -0.79214805
-2.4405003 2.3399084 -0.79698265
-2.397469 2.3270476 -0.78754365
-2.3838396 2.3423967 -0.78777385
-2.3604538 2.3480568 -0.78478104
-2.3501158 2.3666396 -0.78616232
-2.3130641 2.3580875 -0.77856511
-2.324959 2.3994944 -0.78754365
-2.2980819 2.4010596 -0.7833997
-2.2913277 2.4236016 -0.78616232
-2.2750852 2.4361928 -0.78570187
-2.2713103 2.4622672 -0.78961563
-2.2515717 2.4711218 -0.7880041
-2.2233481 2.4704227 -0.7833997
-2.2365935 2.5160227 -0.79352939
-2.2146933 2.5223856 -0.79122716
-2.1851492 2.5197518 -0.78616232
-2.1721792 2.5360687 -0.78708321
-2.1484075 2.53969 -0.78409034
-2.1502521 2.5737367 -0.79053652
-2.1387544 2.5921366 -0.79214805
-2.1338727 2.6187911 -0.79629201
-2.0890934 2.596199 -0.78547168
-2.0858366 2.6249692 -0.79030627
-2.0859087 2.6583908 -0.7965222
-2.0624063 2.6619077 -0.79375958
-2.0560851 2.6876526 -0.79767334
-2.0307581 2.6885693 -0.79422003
-2.0060797 2.690057 -0.79099697
-1.9768443 2.6850741 -0.78593212
-1.9614758 2.6987276 -0.78639257
-1.9460143 2.7122936 -0.78685302
-1.922587 2.714653 -0.78409034
-1.919831 2.7463393 -0.78984582
-1.9095747 2.7676797 -0.7926085
-1.8870801 2.7713006 -0.79030627
-1.8901205 2.8127141 -0.79882443
-1.8690621 2.8185813 -0.7972129
-1.8501343 2.8275535 -0.7965222
-1.8216672 2.8216829 -0.79168761
-1.8058875 2.8352697 -0.79237825
-1.7832799 2.8380568 -0.79007608
-1.7591683 2.838192 -0.78708321
-1.7295396 2.8290052 -0.78155792
-1.7347577 2.8770678 -0.7919178
-1.717569 2.8884943 -0.79214805
-1.7091643 2.9149294 -0.7965222
-1.6970904 2.9354718 -0.79928488
-1.6848285 2.9559758 -0.80204749
-1.6714255 2.9747422 -0.80434966
-1.6371135 2.9559965 -0.7965222
-1.6399229 3.0044255 -0.80688208
-1.616387 3.0050037 -0.80434966
-1.6015635 3.0217443 -0.80619144
-1.5748856 3.0159867 -0.80204749
-1.555015 3.0229969 -0.80135685
-1.5373164 3.0342176 -0.80181724
-1.5156289 3.0374978 -0.80020571
-1.4922431 3.0371325 -0.79767334
-1.4778165 3.0549922 -0.79997551
-1.4615533 3.0692742 -0.80135685
-1.4398028 3.072016 -0.79974526
-1.4245936 3.0887461 -0.80181724
-1.4044085 3.0947704 -0.8011266
-1.3774602 3.0855565 -0.7965222
-1.3585018 3.0939505 -0.7965222
-1.3348638 3.0915065 -0.79375958
-1.3200517 3.1094925 -0.79629201
-1.3091906 3.1372919 -0.80135685
-1.2910235 3.1479671 -0.80204749
-1.2622288 3.1323609 -0.79606175
-1.2437015 3.1418564 -0.7965222
-1.2229898 3.1458006 -0.79560137
-1.2026236 3.1505177 -0.79491067
-1.1860009 3.165128 -0.79675245
-1.172266 3.1878729 -0.80066615
-1.1530138 3.1959212 -0.80089641
-1.1363033 3.2111926 -0.80296838
-1.1121135 3.2052329 -0.79974526
-1.0946184 3.2184458 -0.80135685
-1.0730042 3.2195621 -0.79997551
-1.0562485 3.2353363 -0.80227768
-1.0375621 3.2454643 -0.80319858
-1.0132703 3.2378383 -0.79974526
-0.98711717 3.2235234 -0.79468048
-0.96564454 3.2239261 -0.79329914
-0.94393075 3.2232528 -0.79168761
-0.93055999 3.2514384 -0.7972129
-0.91137785 3.2598987 -0.79790354
-0.88905263 3.2569802 -0.79583156
-0.87005311 3.2661355 -0.79675245
-0.85513365 3.2911921 -0.80158705
-0.83850616 3.3105276 -0.80504036
-0.81468129 3.3014381 -0.80158705
-0.78895432 3.2836652 -0.79606175
-0.77255607 3.3045537 -0.79997551
-0.75291204 3.3120785 -0.80066615
-0.74012858 3.3508451 -0.80895406
-0.72322583 3.3724506 -0.81309801
-0.69360316 3.333951 -0.80273813
-0.6765945 3.3553152 -0.80688208
-0.64928257 3.3250194 -0.79859418
-0.63085461 3.3394594 -0.8011266
-0.61367136 3.3614566 -0.80550081
-0.59455365 3.3737843 -0.80757278
-0.57693702 3.3955975 -0.81194693
-0.54839605 3.3520148 -0.80066615
-0.52585322 3.3428195 -0.79767334
-0.50998008 3.3767745 -0.80504036
-0.48479208 3.3490205 -0.79767334
-0.46796975 3.3789227 -0.80411947
-0.45500633 3.4405801 -0.81816286
-0.42853689 3.4008248 -0.80803317
-0.41090026 3.4304447 -0.81447935
-0.38819778 3.4183977 -0.81102604
-0.37095219 3.4555485 -0.81931394
-0.35121018 3.4722824 -0.82276726
-0.32622153 3.4356205 -0.81355846
-0.30711207 3.4598522 -0.8188535
-0.28795749 3.4868875 -0.82483923
-0.26781604 3.505084 -0.82875293
-0.24630423 3.5066614 -0.82875293
-0.22422373 3.4993663 -0.82668096
-0.20162395 3.481246 -0.82207662
-0.18166609 3.509629 -0.82852274
-0.16150023 3.5408137 -0.83565956
-0.14011589 3.5504897 -0.83773154
-0.11845718 3.5551729 -0.83865237
-0.09600807 3.532486 -0.83312714
-0.074943207 3.5621963 -0.84003371
-0.052680649 3.5353444 -0.83358759
-0.030606719 3.4918115 -0.8232277
-0.0091882423 3.4948528 -0.82391834
0.012329173 3.5152791 -0.82875293
0.033888828 3.5141642 -0.82852274
0.055558696 3.5207012 -0.83013427
0.076603904 3.4949985 -0.8241486
0.097801059 3.485708 -0.82207662
0.11862041 3.4685085 -0.81816286
0.13844633 3.4317389 -0.80964476
0.15918359 3.4240201 -0.80803317
0.18157326 3.4492173 -0.8142491
0.20616549 3.5063255 -0.8280623
0.22590771 3.4778042 -0.82161617
0.24668999 3.4685869 -0.81977439
0.26571622 3.4379008 -0.81286782
0.28834513 3.4546313 -0.81724197
0.30875421 3.4440739 -0.81516999
0.32923046 3.4353337 -0.81355846
0.3542572 3.4719729 -0.82276726
0.3698954 3.41749 -0.8103354
0.39052558 3.4122555 -0.80964476
0.41507179 3.4397447 -0.81678152
0.4332279 3.413964 -0.81125629
0.45223984 3.3967724 -0.80780298
0.47697172 3.4218838 -0.81447935
0.49669605 3.4102261 -0.81240737
0.51439422 3.3859484 -0.80734253
0.53348684 3.3721554 -0.80481011
0.55037516 3.3457732 -0.79928488
0.57269716 3.3528848 -0.80181724
0.58969343 3.3291852 -0.79698265
0.61116385 3.3312471 -0.79836398
0.63885456 3.3656764 -0.80757278
0.66043103 3.3664677 -0.80872387
0.67083156 3.3118033 -0.7965222
0.69711328 3.3362012 -0.80342883
0.71162695 3.3042729 -0.79675245
0.73188818 3.2998443 -0.79675245
0.76230288 3.3398817 -0.80757278
0.78255922 3.3341937 -0.80734253
0.80733931 3.3473032 -0.81171674
0.81943721 3.3082819 -0.80342883
0.83876169 3.2994192 -0.80250794
0.86267507 3.3083348 -0.80596119
0.8799417 3.291698 -0.80319858
0.90500855 3.3040693 -0.80757278
0.92316163 3.2909584 -0.805731
0.94226259 3.2814908 -0.80481011
0.97527575 3.3195293 -0.81563044
0.99674612 3.3172104 -0.81655133
1.0062201 3.2756836 -0.80780298
1.021053 3.2527361 -0.80365902
1.0442616 3.2566028 -0.80619144
1.0584691 3.2325625 -0.80181724
1.0748895 3.2158551 -0.79928488
1.0974293 3.2174883 -0.80135685
1.1251476 3.2336707 -0.80711234
1.1296692 3.183603 -0.79629201
1.140573 3.1528196 -0.79030627
1.1710089 3.1758916 -0.79790354
1.185339 3.1549826 -0.79445022
1.2085022 3.1576471 -0.79698265
1.2349241 3.1683059 -0.80158705
1.2496736 3.1489105 -0.79859418
1.2667841 3.1357696 -0.7972129
1.2815596 3.1171379 -0.79445022
1.2939007 3.0930567 -0.79030627
1.3105682 3.0796866 -0.78892499
1.3290535 3.0706942 -0.78869474
1.3564957 3.0820758 -0.79375958
1.3773693 3.0781357 -0.79491067
1.3958274 3.0687406 -0.79468048
1.3974773 3.0230203 -0.78501123
1.408551 2.9985347 -0.78086728
1.4327922 3.0021305 -0.78409034
1.4601027 3.0116706 -0.78892499
1.4647955 2.9747188 -0.78155792
1.4986918 2.9970076 -0.78984582
1.4897329 2.9339604 -0.77557224
1.498342 2.9066007 -0.77073765
1.5138921 2.8930414 -0.7695865
1.5466808 2.9120581 -0.77718377
1.561749 2.8973734 -0.77580243
1.5808986 2.8902977 -0.77649313
1.6118274 2.9043667 -0.78293926
1.6420327 2.9164684 -0.78892499
1.641072 2.8733835 -0.77994639
1.6689171 2.8809423 -0.78478104
1.667828 2.8387656 -0.77603269
1.6911929 2.8385103 -0.7787953
1.7020351 2.8172522 -0.77580243
1.746742 2.8515642 -0.78823429
1.7734485 2.8556724 -0.79237825
1.7930112 2.848031 -0.79329914
1.7769442 2.7844772 -0.77856511
1.7813096 2.753912 -0.77303982
1.817917 2.773041 -0.78155792
1.8171246 2.7350874 -0.77396071
1.826263 2.7125857 -0.77073765
1.8692001 2.7399132 -0.78178817
1.8815494 2.7219887 -0.77994639
1.8915161 2.7008278 -0.77718377
1.9074892 2.6883774 -0.77695358
1.9142921 2.6631904 -0.77303982
1.9460651 2.6726334 -0.77925575
1.9485625 2.6418476 -0.77373046
1.9618233 2.6259441 -0.77257937
1.9931679 2.634032 -0.77856511
2.0057404 2.6171186 -0.77718377
2.0050521 2.5832388 -0.77073765
2.007633 2.5540569 -0.7656728
2.020236 2.5378838 -0.76452172
2.0376024 2.5277128 -0.76521236
2.0456886 2.5061169 -0.76244974
2.0796287 2.5160184 -0.76935631
2.1031477 2.5129116 -0.77234918
2.1097183 2.4895663 -0.76912612
2.1110117 2.4603279 -0.76406127
2.1273448 2.4487977 -0.76452172
2.1410449 2.434237 -0.76406127
2.1559408 2.4210541 -0.76406127
2.1688006 2.4056118 -0.76337057
2.1874568 2.3965712 -0.76475191
2.2120283 2.3938239 -0.76820523
2.2133775 2.3659945 -0.76360083
2.2271838 2.3516624 -0.76337057
2.2476335 2.3442736 -0.76544255
2.2748542 2.3437049 -0.76981676
2.2735038 2.3137391 -0.76452172
2.2602034 2.2721508 -0.75531292
2.2886047 2.2726383 -0.76014751
2.299727 2.2558272 -0.75922662
2.2953529 2.2240686 -0.75324094
2.2920825 2.1937954 -0.74771565
2.3104506 2.1843696 -0.74932718
2.3444374 2.1894116 -0.75600356
2.3449509 2.1631098 -0.75185961
2.3617764 2.1519573 -0.75301069
2.3474474 2.1126897 -0.7442624
2.3763685 2.112469 -0.74932718
2.3929422 2.1010582 -0.75047833
2.4146118 2.0939858 -0.75324094
2.412632 2.0664711 -0.74863654
2.417093 2.0447156 -0.74610412
2.4519994 2.0485623 -0.75301069
2.4615202 2.0310013 -0.75208986
2.4596014 2.0041809 -0.74771565
2.4892914 2.0030818 -0.75301069
2.4824865 1.9726365 -0.74725521
2.4692776 1.9375451 -0.739658
2.4911208 1.9301049 -0.74265081
2.5176029 1.9260164 -0.74702501
2.5084062 1.8946978 -0.74080908
2.5168638 1.8769442 -0.73988819
2.5322516 1.8643501 -0.74103928
2.5121543 1.8258944 -0.73183054
2.5343807 1.8183869 -0.7350536
2.5597858 1.8129249 -0.73919755
2.5596948 1.7893792 -0.73597449
2.5554063 1.7631404 -0.73160028
2.5557194 1.7403082 -0.72860742
2.5720038 1.7283927 -0.73021901
2.5793164 1.7104276 -0.72929811
2.5979064 1.6998967 -0.73160028
2.6287279 1.697118 -0.73735577
2.6021545 1.6574339 -0.72699589
2.6229875 1.6481661 -0.72998875
2.6653113 1.6520324 -0.7389673
2.6529794 1.6219441 -0.73275137
2.6162107 1.5774995 -0.71985912
2.6668279 1.5857848 -0.73113984
2.6462855 1.5516739 -0.72285193
2.6624968 1.5393034 -0.72469372
2.6803465 1.5277557 -0.72699589
2.6497941 1.4888796 -0.71617556
2.7082574 1.4999342 -0.72952831
2.706305 1.4772282 -0.72653544
2.6938918 1.4490718 -0.72077996
2.7113311 1.4370716 -0.72308218
2.7192352 1.4199579 -0.72285193
2.7209733 1.3996856 -0.72101021
2.7199614 1.3781264 -0.71847779
2.7222705 1.3583702 -0.71686625
2.7253134 1.3390667 -0.71548492
2.741363 1.3261325 -0.71755689
2.7406621 1.3051037 -0.71525472
2.7177768 1.2738107 -0.70719701
2.7343786 1.2611858 -0.70949924
2.7456102 1.2459925 -0.71042007
2.7905269 1.2457806 -0.72008932
2.7553475 1.2098589 -0.70903879
2.766293 1.1944723 -0.70995963
2.7834237 1.1816584 -0.71249205
2.8040934 1.1701778 -0.71594536
2.7869101 1.1429824 -0.70972943
2.7694998 1.1160421 -0.7035135
2.8016312 1.1090548 -0.70995963
2.7739165 1.0784467 -0.70121133
2.7577517 1.0527316 -0.69545585
2.8106353 1.0532013 -0.70719701
2.7951238 1.0278769 -0.70167178
2.7940547 1.0080656 -0.69983
2.8047748 0.99252528 -0.70098108
2.8347163 0.98358876 -0.70696682
2.8425407 0.96680325 -0.70742726
2.8521123 0.95057404 -0.7083481
2.838464 0.92671508 -0.7035135
2.8459506 0.90987378 -0.70397395
2.8449788 0.89036018 -0.70236242
2.8587627 0.87545073 -0.70443439
2.8500972 0.853706 -0.70098108
2.8627532 0.83838946 -0.70282286
2.8379045 0.81224215 -0.69545585
2.8194044 0.78826523 -0.68970031
2.8852105 0.78760296 -0.70466459
2.864599 0.76312339 -0.69844866
2.8541574 0.74161786 -0.69476515
2.8662012 0.72600204 -0.69660693
2.8828845 0.71143156 -0.6995998
2.8881419 0.69395643 -0.69983
2.9037166 0.67887956 -0.70259261
2.9182658 0.66342193 -0.70512503
2.8975751 0.64004821 -0.69913936
2.8814659 0.61797345 -0.6943047
2.8756759 0.5983001 -0.69200253
2.9060037 0.58602804 -0.69844866
2.9487045 0.57582968 -0.70788771
2.932101 0.55393404 -0.70305306
2.94789 0.5382036 -0.70604593
2.9386778 0.51791096 -0.70305306
2.9274094 0.49742582 -0.6995998
2.9150403 0.47694153 -0.69591624
2.9217572 0.45965078 -0.69683713
2.934145 0.44316703 -0.69913936
2.9339194 0.42473707 -0.69844866
2.9383984 0.40699378 -0.6989091
2.9466288 0.38972148 -0.70029044
2.9576542 0.37272823 -0.70236242
2.9502232 0.3534168 -0.70006019
2.9465346 0.33464953 -0.69867891
2.9407918 0.31573328 -0.69683713
2.9465466 0.29807439 -0.69775802
2.9531639 0.2804487 -0.6989091
2.9548292 0.26232314 -0.6989091
2.9379561 0.24266736 -0.69453496
2.9500632 0.22545056 -0.69706738
2.9649818 0.20829862 -0.70029044
2.9914539 0.19171788 -0.70627612
2.9984031 0.17369621 -0.70765746
3.0062151 0.1556467 -0.70926899
3.0314169 0.13830464 -0.71502447
3.0477667 0.12031442 -0.71870798
3.0601187 0.10199941 -0.72147065
3.0869522 0.083932817 -0.72768658
3.0815713 0.064867675 -0.72630525
3.099426 0.046217956 -0.7304492
3.0967319 0.027173998 -0.72975856
2.7249732 0.0073339571 -0.70057702
2.733681 -0.0094142966 -0.70282739
2.749063 -0.026332492 -0.70682806
2.7653077 -0.043454792 -0.71107882
2.7969334 -0.061112337 -0.71933019
2.7297232 -0.076418743 -0.70207727
1.4189656 -0.048742849 -0.36352035
1.4167049 -0.057371046 -0.36302027
1.4259982 -0.066509522 -0.36552072
1.4420007 -0.076118499 -0.36977142
1.4299076 -0.084286444 -0.36677092
1.4380594 -0.093620904 -0.3690213
1.431663 -0.10203248 -0.36752105
1.423287 -0.11022044 -0.36552072
1.4216191 -0.11887124 -0.36527067
1.4150765 -0.12707487 -0.3637704
1.4017402 -0.1345581 -0.36051986
1.3970351 -0.14276448 -0.35951969
1.3460753 -0.14593068 -0.3465175
1.3249528 -0.15188123 -0.34126663
1.2951571 -0.15653676 -0.33376536
1.2567101 -0.159738 -0.32401371
1.2480278 -0.16642603 -0.32201338
1.2297212 -0.17167968 -0.31751263
1.2027742 -0.17546161 -0.31076148
1.2122051 -0.18443498 -0.31351197
1.2024431 -0.19051032 -0.31126159
1.2031624 -0.19819854 -0.31176168
1.1981058 -0.20492633 -0.31076148
1.2025465 -0.21328548 -0.31226176
1.2069296 -0.22170681 -0.31376201
1.2103029 -0.23000962 -0.31501222
1.2079186 -0.23724544 -0.31476218
1.2111853 -0.24561234 -0.31601238
1.2096555 -0.25303942 -0.31601238
1.2099733 -0.26086411 -0.31651247
1.2319829 -0.27351791 -0.3227635
1.2444419 -0.2842997 -0.32651415
2.4634504 -0.57807803 -0.65031856
2.5426924 -0.61313599 -0.67232227
2.5558007 -0.63291138 -0.67682302
2.562192 -0.65120262 -0.67957348
2.567518 -0.66935199 -0.68207395
2.5773945 -0.68884003 -0.68582457
2.5385644 -0.69518775 -0.67657298
2.5528977 -0.71597576 -0.68157387
2.5344958 -0.72762227 -0.67782319
2.5169768 -0.73934275 -0.67432261
2.4975553 -0.750319 -0.67032194
2.5003092 -0.7679019 -0.67232227
2.5177236 -0.79018223 -0.67832327
2.4851654 -0.79675454 -0.67082202
2.4986348 -0.81800872 -0.67582285
2.4733641 -0.82657796 -0.67032194
2.4737446 -0.84361243 -0.67182219
2.4794965 -0.86259019 -0.67482269
2.458643 -0.87228799 -0.67057198
2.4687243 -0.8929525 -0.67482269
2.4695587 -0.91042638 -0.67657298
2.4621129 -0.92488164 -0.6760729
2.4238341 -0.92752194 -0.6670714
2.4235108 -0.94448495 -0.66857165
2.4113696 -0.95683932 -0.66682136
2.4009638 -0.96980518 -0.66557115
2.3815339 -0.97900027 -0.66182053
2.3862021 -0.99807549 -0.66482103
2.374687 -1.0104249 -0.66332078
2.395103 -1.0365067 -0.67082202
2.3700855 -1.042998 -0.66557115
2.363641 -1.0575209 -0.66557115
2.3712113 -1.078414 -0.66957182
2.3583965 -1.090101 -0.66782153
2.3341339 -1.096323 -0.6628207
2.3343546 -1.1139586 -0.66482103
2.3161478 -1.1227732 -0.66157049
2.3100836 -1.1373912 -0.66182053
2.3177853 -1.1589017 -0.66607124
2.2950888 -1.1652156 -0.66157049
2.2827313 -1.1766157 -0.66007024
2.2728949 -1.1892542 -0.65932012
2.2467399 -1.1931916 -0.65381914
2.1311166 -1.1486412 -0.62206382
1.5692379 -0.85845214 -0.45878637
1.5681747 -0.87041259 -0.46003661
1.5602729 -0.87859404 -0.45928648
1.5573753 -0.88959098 -0.46003661
1.5510496 -0.89864498 -0.45978656
1.5455065 -0.90814513 -0.45978656
1.5432328 -0.9195925 -0.46078673
1.5359036 -0.92804343 -0.46028665
1.5343093 -0.93997759 -0.46153685
1.5293354 -0.94988489 -0.4617869
1.5161024 -0.95461035 -0.45953652
2.0392103 -1.3012623 -0.62156373
2.1003044 -1.3584285 -0.64281732
2.0895 -1.3696983 -0.64206719
2.0487912 -1.3610709 -0.63206553
1.580899 -1.0644469 -0.48904148
1.5799379 -1.0779451 -0.49079177
1.5979896 -1.1046791 -0.49854305
1.5856286 -1.110577 -0.49679276
1.5779946 -1.1197253 -0.49654272
1.5640171 -1.1243026 -0.49429235
1.5484773 -1.1276113 -0.49154189
1.5321767 -1.1301973 -0.48854139
1.5384023 -1.1494249 -0.4927921
1.5367265 -1.1629308 -0.49454239
1.529562 -1.1723381 -0.49454239
1.9660647 -1.525905 -0.63956678
1.9993025 -1.5714356 -0.6535691
2.0131116 -1.6023602 -0.66132045
1.9776062 -1.5940294 -0.65281898
1.9902955 -1.6244954 -0.66032028
1.9870087 -1.6422267 -0.66257066
1.9791229 -1.6562515 -0.66332078
1.9696618 -1.6689899 -0.66357082
1.951299 -1.674111 -0.66082036
1.9249054 -1.6720872 -0.65531945
1.9102463 -1.6800313 -0.65381914
1.9216001 -1.7110317 -0.66132045
1.9024335 -1.7150127 -0.65831995
1.8804294 -1.7162131 -0.65431923
1.8634617 -1.7218068 -0.65206885
1.8606417 -1.7404822 -0.65481937
1.8506305 -1.7525316 -0.65506941
1.8461342 -1.7698829 -0.65731978
1.8268999 -1.7730873 -0.65431923
1.8429282 -1.8107218 -0.6640709
1.8098104 -1.8001512 -0.65606958
1.8144269 -1.8270193 -0.66182053
1.820816 -1.8560845 -0.66832161
1.7858044 -1.8428912 -0.65957016
1.787187 -1.8671004 -0.66432095
1.7663816 -1.8681839 -0.66082036
1.7608349 -1.885354 -0.66307074
1.7485768 -1.8954114 -0.6628207
1.7486556 -1.9189839 -0.66732144
1.7387918 -1.9318359 -0.66807157
1.7294796 -1.9453624 -0.66907173
1.7200665 -1.9588473 -0.6700719
1.7073804 -1.9686332 -0.66982186
1.6883382 -1.9709853 -0.6670714
1.6630763 -1.9657879 -0.66182053
1.6429101 -1.9662982 -0.65856999
1.646225 -1.9950082 -0.66482103
1.6204923 -1.9885625 -0.65932012
1.6173686 -2.0097806 -0.66307074
1.6152502 -2.0325508 -0.66732144
1.6057379 -2.0462313 -0.66857165
1.5884064 -2.0499237 -0.66657132
1.5705017 -2.0527117 -0.66432095
1.5642987 -2.0708063 -0.6670714
1.5567744 -2.0873499 -0.66932178
1.5508287 -2.1062171 -0.67232227
1.521361 -2.0929847 -0.66507107
1.5163954 -2.1132917 -0.66857165
1.5185153 -2.1438859 -0.67532277
1.4942327 -2.1372948 -0.67032194
1.4755894 -2.1384552 -0.66782153
1.4488106 -2.1274652 -0.66157049
1.4519377 -2.1604192 -0.66907173
1.4407955 -2.1725147 -0.6700719
1.4306203 -2.1861746 -0.67157215
1.4129761 -2.1884053 -0.66957182
1.4036849 -2.2035658 -0.67157215
1.3927144 -2.2162356 -0.67282236
1.3811311 -2.2280309 -0.67382252
1.3704658 -2.2414191 -0.67532277
1.3431815 -2.2274022 -0.66857165
1.3255284 -2.2289453 -0.66657132
1.3216265 -2.2537386 -0.67157215
1.3165004 -2.276891 -0.6760729
1.2842761 -2.2529662 -0.66657132
1.2685299 -2.2574279 -0.66557115
1.2541853 -2.264322 -0.66532111
1.2393398 -2.2702756 -0.66482103
1.2341058 -2.2940361 -0.66957182
1.2104794 -2.2836025 -0.66432095
1.1982384 -2.2944195 -0.66532111
1.1898985 -2.3129199 -0.66857165
1.1752464 -2.319314 -0.66832161
1.1588304 -2.3221502 -0.6670714
1.1402879 -2.320528 -0.66457099
1.1234967 -2.322252 -0.66307074
1.1133918 -2.3378427 -0.66557115
1.1088939 -2.3656685 -0.67157215
1.0927345 -2.3689117 -0.67057198
1.0773778 -2.3738089 -0.6700719
1.0596324 -2.3733027 -0.66807157
1.0392073 -2.3664634 -0.66432095
1.02774 -2.3799057 -0.66632128
1.0165254 -2.3941872 -0.66857165
0.99733812 -2.3896582 -0.66557115
0.98486257 -2.4011071 -0.6670714
0.96685177 -2.3990233 -0.66482103
0.94997364 -2.3995097 -0.66332078
0.9334771 -2.4007816 -0.66207057
0.92460316 -2.4218402 -0.66632128
0.91516566 -2.441973 -0.67032194
0.90417796 -2.4584463 -0.67332244
0.88480115 -2.4521089 -0.6700719
0.86876881 -2.4547539 -0.66932178
0.85337281 -2.4591236 -0.66907173
0.83545953 -2.4560645 -0.66682136
0.82803369 -2.4841063 -0.6730724
0.81458056 -2.4946623 -0.67457265
0.79748762 -2.4940805 -0.6730724
0.78535306 -2.5090902 -0.67582285
0.76653755 -2.5027533 -0.67282236
0.75672823 -2.5259583 -0.67782319
0.7409426 -2.5296249 -0.67757314
0.72940743 -2.5480855 -0.68132377
0.70906156 -2.5357299 -0.67682302
0.69170254 -2.5334949 -0.67507273
0.67714232 -2.5414333 -0.6760729
0.65666044 -2.5267994 -0.67107207
0.644476 -2.5439205 -0.67457265
0.62490648 -2.5318477 -0.67032194
0.60981262 -2.5375171 -0.67082202
0.59401053 -2.5402684 -0.67057198
0.5756188 -2.5315921 -0.66732144
0.56425649 -2.5539842 -0.67232227
0.55406404 -2.5829577 -0.67907339
0.53998226 -2.5948398 -0.68132377
0.52079213 -2.58197 -0.67707306
0.50586885 -2.5898681 -0.67832327
0.49626845 -2.6262207 -0.68707478
0.47300407 -2.5901661 -0.67682302
0.46400332 -2.632113 -0.68707478
0.44345766 -2.6091387 -0.6803236
0.42963243 -2.6251874 -0.68382424
0.41321501 -2.6258612 -0.68332416
0.39883369 -2.6398354 -0.68632466
0.38026559 -2.6259434 -0.68207395
0.36587638 -2.6406946 -0.68532449
0.34686759 -2.6217735 -0.67982352
0.3325941 -2.6382616 -0.6835742
0.3161689 -2.63833 -0.68307412
0.30117935 -2.6508024 -0.68582457
0.2832506 -2.637198 -0.68182391
0.26804093 -2.648519 -0.68432432
0.24958149 -2.626981 -0.67832327
0.23362972 -2.6303918 -0.67882335
0.21932492 -2.653969 -0.68457437
0.20318443 -2.6571956 -0.68507445
0.18619511 -2.6487341 -0.68257403
0.16863313 -2.6295357 -0.6773231
0.15294556 -2.6382537 -0.67932343
0.13725802 -2.6488118 -0.68182391
0.12131346 -2.6563745 -0.6835742
0.10524276 -2.6628737 -0.68507445
0.088055931 -2.6383095 -0.67857331
0.071360677 -2.6204107 -0.67382252
0.055776443 -2.6440315 -0.67982352
0.03918412 -2.6201208 -0.67357248
0.023229422 -2.6338668 -0.67707306
0.0071499711 -2.6620383 -0.68432432
-0.0090441536 -2.6184616 -0.6730724
-0.025581231 -2.6687028 -0.68607461
-0.041880645 -2.663655 -0.68482441
-0.057763238 -2.6420519 -0.67932343
-0.073731638 -2.632937 -0.67707306
-0.089491934 -2.6208229 -0.67407256
