# .PCD v0.7 - Point Cloud Data file format
VERSION 0.7
FIELDS x y z
SIZE 4 4 4
TYPE F F F
COUNT 1 1 1
WIDTH 1452
HEIGHT 1
VIEWPOINT 0 0 0 1 0 0 0
POINTS 1452
DATA ascii
-4.3212504 -0.22432142 -0.61717802
-4.3106785 -0.19725774 -0.61547893
-4.3127966 -0.17084353 -0.61562049
-4.2890296 -0.14354604 -0.61208069
-4.2799344 -0.11695448 -0.61066478
-4.3033347 -0.091176726 -0.6139214
-4.3057928 -0.064800337 -0.61420459
-4.3011594 -0.038334426 -0.6134966
-4.300324 -0.011939391 -0.61335504
-4.2904172 0.014415324 -0.61193913
-4.2694602 0.04054622 -0.60896569
-4.2532945 0.066497132 -0.60670018
-4.2399402 0.092315391 -0.60485947
-4.2402835 0.11835691 -0.60500109
-4.2642112 0.14521118 -0.60854089
-4.2662072 0.171492 -0.60896569
-4.2472754 0.19684345 -0.606417
-4.2272048 0.22191729 -0.60372674
-4.2247753 0.24779294 -0.60358518
-4.2261386 0.27390262 -0.60400993
-4.2016673 0.29822001 -0.60075331
-4.1958103 0.3236914 -0.60018694
-4.1769743 0.34803545 -0.59777987
-4.1708164 0.37330592 -0.59721351
-4.1842141 0.40039694 -0.59947896
-4.1728148 0.42516151 -0.59820467
-4.1533961 0.44895142 -0.5957976
-4.1456451 0.47386637 -0.59508961
-4.155437 0.50083262 -0.59693033
-4.1522856 0.52632046 -0.59693033
-4.1421089 0.55087602 -0.59593916
-4.1327677 0.57546288 -0.59508961
-4.1213222 0.59967113 -0.59395689
-4.0784149 0.61901194 -0.58829319
-4.0412951 0.63877535 -0.58347905
-4.0597668 0.66724932 -0.58673567
-4.0594993 0.69281262 -0.58730203
-4.0512729 0.71701872 -0.58673567
-4.0497179 0.74239838 -0.58716047
-4.0684295 0.77165675 -0.59055865
-4.0626464 0.79641533 -0.59041709
-4.0120802 0.81210488 -0.58376223
-3.9750428 0.83003491 -0.5790897
-3.9960055 0.86002928 -0.58291268
-4.0109501 0.8890276 -0.58588612
-3.9851508 0.90900171 -0.58291268
-3.9534757 0.92733735 -0.5790897
-3.925576 0.94624603 -0.57583308
-3.9264228 0.97197914 -0.57682419
-3.9165471 0.9950785 -0.57625782
-3.9132414 1.0198398 -0.57668263
-3.9011717 1.0422995 -0.57583308
-3.9004319 1.0677844 -0.57668263
-3.9176369 1.0983741 -0.58022243
-3.9174845 1.1243021 -0.58121359
-3.939008 1.1566812 -0.58546132
-3.9166665 1.1762753 -0.58319587
-3.8989651 1.197091 -0.58163834
-3.8735998 1.2153641 -0.57894808
-3.8425009 1.2315594 -0.57540828
-3.8518076 1.2606534 -0.57795691
-3.8721688 1.2936701 -0.5822047
-3.872591 1.3202784 -0.58347905
-3.8513265 1.3394649 -0.58149678
-3.8150444 1.3531479 -0.57724899
-3.8085318 1.3772041 -0.57753217
-3.7953653 1.3988359 -0.57682419
-3.7802231 1.4196622 -0.57583308
-3.7603455 1.4385877 -0.57413393
-3.754215 1.4627113 -0.57455873
-3.7635739 1.493017 -0.57739055
-3.7479162 1.5134881 -0.57639945
-3.7403905 1.5372087 -0.57668263
-3.7308879 1.5601304 -0.57668263
-3.7066691 1.5767955 -0.57441711
-3.706919 1.6038319 -0.57597464
-3.6979144 1.6269454 -0.57611626
-3.6905732 1.6508169 -0.57654101
-3.6848803 1.6754788 -0.57724899
-3.6996934 1.7096807 -0.58121359
-3.7294586 1.7512778 -0.58758521
-3.734726 1.7817985 -0.59013391
-3.6863055 1.7865539 -0.58418703
-3.6770506 1.8100131 -0.58447021
-3.6508217 1.8250184 -0.58206314
-3.6227815 1.8388747 -0.57937288
-3.6070302 1.8588023 -0.5786649
-3.5630994 1.8639271 -0.57342601
-3.5787017 1.9001417 -0.57781535
-3.5669756 1.9220644 -0.57781535
-3.5533774 1.9429651 -0.57753217
-3.5335972 1.9604107 -0.57625782
-3.5085609 1.9747744 -0.57413393
-3.4697256 1.9810538 -0.56974459
-3.4557915 2.0013144 -0.56946141
-3.4434466 2.022481 -0.56946141
-3.4437304 2.0511682 -0.5715853
-3.3929446 2.0492358 -0.56521362
-3.4123902 2.0896556 -0.57059413
-3.3978219 2.1095104 -0.57031095
-3.3898416 2.1334822 -0.5711605
-3.3700097 2.1499834 -0.57002777
-3.3600798 2.1727705 -0.57059413
-3.3135631 2.1716468 -0.56493044
-3.301825 2.193033 -0.56521362
-3.276808 2.2055147 -0.56323135
-3.2942944 2.2467697 -0.56861186
-3.2706728 2.2601891 -0.56691271
-3.2234914 2.2569416 -0.56110746
-3.2055449 2.2738152 -0.56039947
-3.1955526 2.296329 -0.56110746
-3.1709969 2.3083212 -0.55926675
-3.1527896 2.3247979 -0.55855876
-3.1360857 2.3423223 -0.55813402
-3.1540267 2.3860021 -0.56393927
-3.1251812 2.3944752 -0.56139064
-3.1002617 2.4057181 -0.55954993
-3.0558615 2.4014573 -0.55416942
-3.0550129 2.4312561 -0.55671811
-3.049288 2.457408 -0.5584172
-3.0341525 2.4760716 -0.5584172
-3.0127969 2.4895988 -0.55728447
-2.9982233 2.5086732 -0.55742604
-2.9835293 2.5276623 -0.55756766
-2.963455 2.5420549 -0.55671811
-2.9448113 2.5575945 -0.55615169
-2.946907 2.5913012 -0.55954993
-2.9154227 2.5955138 -0.55657649
-2.8869398 2.6020887 -0.55416942
-2.8877401 2.635098 -0.55742604
-2.8540635 2.6366482 -0.55402786
-2.833493 2.6500545 -0.55317825
-2.8135843 2.6639879 -0.55247033
-2.8057625 2.6894202 -0.55416942
-2.7835236 2.7010715 -0.55303669
-2.7676039 2.7187936 -0.55317825
-2.7494655 2.7343283 -0.55289507
-2.7333338 2.7518494 -0.55303669
-2.7108502 2.762917 -0.55190396
-2.688334 2.7738125 -0.55077124
-2.6541462 2.772382 -0.54723138
-2.6336837 2.7850196 -0.54652345
-2.6124904 2.7967875 -0.54567391
-2.5925949 2.809855 -0.54510748
-2.577306 2.8279045 -0.54553229
-2.5499692 2.8326311 -0.54340839
-2.5410933 2.8578398 -0.5452491
-2.5176301 2.8666847 -0.54397476
-2.4999928 2.8820784 -0.54397476
-2.4719548 2.8853376 -0.5417093
-2.4650767 2.9132957 -0.54411638
-2.4636621 2.9481134 -0.54779774
-2.4360731 2.9517241 -0.54567391
-2.4629545 3.021857 -0.55586851
-2.4567831 3.0523336 -0.55870038
-2.4201417 3.0448799 -0.55459422
-2.3867414 3.0409853 -0.55119598
-2.3765287 3.0665259 -0.55317825
-2.3576682 3.0810504 -0.55317825
-2.348269 3.1080945 -0.55544376
-2.3173134 3.1065769 -0.55261189
-2.3081896 3.1342862 -0.55501896
-2.2836745 3.1411848 -0.55374467
-2.2712853 3.1647878 -0.55544376
-2.2369421 3.157665 -0.55176234
-2.2056093 3.1542964 -0.54878891
-2.2103975 3.2027998 -0.5548774
-2.2118852 3.2473893 -0.56025791
-2.2029655 3.2773297 -0.56308973
-2.18993 3.3015082 -0.56493044
-2.1636662 3.305773 -0.56337291
-2.1358213 3.3073456 -0.56139064
-2.1144235 3.3187191 -0.56110746
-2.1003437 3.341687 -0.56280655
-2.0709298 3.34021 -0.56039947
-2.0307651 3.3207655 -0.55501896
-2.0159764 3.3424871 -0.55657649
-2.0050468 3.3709574 -0.55926675
-1.9933428 3.3985653 -0.56181544
-1.9754263 3.4158733 -0.56266499
-1.952468 3.4244905 -0.56209862
-1.9236563 3.4226 -0.55983311
-1.9059784 3.4403999 -0.56082428
-1.8758165 3.4355235 -0.55813402
-1.8410945 3.42169 -0.55402786
-1.8608826 3.509881 -0.56648797
-1.8365606 3.515969 -0.56563842
-1.8095156 3.5166099 -0.56393927
-1.7829797 3.5179346 -0.5623818
-1.7675518 3.5412076 -0.56436408
-1.7536525 3.5679767 -0.56691271
-1.7343148 3.5840158 -0.56776232
-1.7046255 3.5785043 -0.56521362
-1.6754898 3.5736601 -0.56280655
-1.6539456 3.5847723 -0.56294817
-1.6372402 3.6065707 -0.56478888
-1.6195216 3.6264908 -0.56634635
-1.5992306 3.6408911 -0.56705433
-1.5784312 3.6542699 -0.56762069
-1.5583019 3.6693528 -0.56847024
-1.5391912 3.6870666 -0.56974459
-1.5135318 3.6891153 -0.56861186
-1.4664301 3.6377399 -0.55926675
-1.4265798 3.6024933 -0.55247033
-1.3915256 3.5779674 -0.547373
-1.3921567 3.6456211 -0.55643493
-1.3708042 3.6568751 -0.55685967
-1.3568884 3.6884422 -0.56039947
-1.3396106 3.711596 -0.56266499
-1.3148284 3.7141471 -0.56181544
-1.2890911 3.7137284 -0.56054109
-1.2656418 3.7196941 -0.56025791
-1.243421 3.7292681 -0.56054109
-1.2426552 3.8045759 -0.57073575
-1.237994 3.8705842 -0.57951444
-1.2091905 3.8620484 -0.57710737
-1.1883719 3.8788598 -0.57852334
-1.1656866 3.8898714 -0.5790897
-1.1337206 3.8694022 -0.57498348
-1.1017772 3.8477368 -0.57073575
-1.0688088 3.8210595 -0.56577998
-1.0445602 3.8246808 -0.56535524
-1.0200523 3.8271921 -0.56478888
-1.0085125 3.879365 -0.5715853
-0.98736697 3.8960352 -0.57314283
-0.95584446 3.8712673 -0.56861186
-0.93415678 3.8857217 -0.56988615
-0.92541438 3.9559596 -0.57937288
-0.89870673 3.9509456 -0.57781535
-0.87487483 3.9583187 -0.57809854
-0.84849209 3.953934 -0.57668263
-0.8318879 3.995892 -0.58206314
-0.80206293 3.9747219 -0.5782401
-0.77613932 3.9717965 -0.57710737
-0.75764352 4.0076094 -0.58163834
-0.73410743 4.0180254 -0.58248788
-0.70186752 3.9795606 -0.57625782
-0.67295134 3.9574432 -0.57243484
-0.6491366 3.9644284 -0.57285964
-0.62110031 3.9448686 -0.56946141
-0.58903331 3.8967299 -0.561957
-0.56667548 3.9110472 -0.56351453
-0.557365 4.0203471 -0.57880652
-0.53060496 4.0079904 -0.57654101
-0.50240499 3.9826889 -0.57243484
-0.48138079 4.0141993 -0.57654101
-0.46424425 4.0829768 -0.58602768
-0.43918282 4.0857487 -0.58602768
-0.41270617 4.0745783 -0.58404541
-0.38685244 4.0681648 -0.58277106
-0.36328846 4.0862384 -0.58503658
-0.33935359 4.1022019 -0.58701885
-0.31394947 4.1012459 -0.58659405
-0.28926635 4.1100073 -0.58758521
-0.26410595 4.1126924 -0.58772683
-0.23725517 4.0865645 -0.58376223
-0.21639602 4.1690078 -0.5953728
-0.1908568 4.1712456 -0.59551442
-0.1651016 4.1683817 -0.59494805
-0.13908945 4.1564546 -0.59310734
-0.11350174 4.1542611 -0.59268254
-0.088072866 4.1578488 -0.59310734
-0.062965259 4.1850357 -0.59693033
-0.037330016 4.1902924 -0.59763825
-0.011571857 4.1746039 -0.5953728
0.013973286 4.1528182 -0.5922578
0.039509762 4.1585937 -0.59310734
0.064795755 4.1434259 -0.59098345
0.089640297 4.1162286 -0.58716047
0.11481289 4.1126323 -0.58673567
0.14061561 4.1286693 -0.58914274
0.16598561 4.1287179 -0.5892843
0.18971695 4.0930114 -0.58432859
0.21389614 4.073976 -0.58177996
0.23715514 4.0429397 -0.57753217
0.26266032 4.0522752 -0.5790897
0.29017726 4.0881104 -0.58447021
0.31624392 4.0990839 -0.58631086
0.33786136 4.054646 -0.58022243
0.36599356 4.0889788 -0.58546132
0.39004052 4.0758162 -0.58390385
0.41584346 4.0812249 -0.58503658
0.44055885 4.0756435 -0.58461177
0.4670178 4.0856495 -0.58645248
0.4925513 4.0866385 -0.58701885
0.52060115 4.1071095 -0.59041709
0.54787785 4.1195388 -0.59268254
0.57600838 4.1366897 -0.59565598
0.60266131 4.1418943 -0.59693033
0.63073528 4.1557355 -0.59947896
0.64989215 4.1116972 -0.59367371
0.67526919 4.1086092 -0.59381527
0.70079923 4.1063399 -0.59409845
0.73304927 4.1419291 -0.59990376
0.76112515 4.1519594 -0.60202765
0.79488122 4.1909785 -0.60839927
0.81924957 4.1792221 -0.60740817
0.84664363 4.1828494 -0.60868245
0.87694359 4.1998639 -0.61193913
0.91081417 4.2321482 -0.6174612
0.92242235 4.1617241 -0.60797453
0.95388079 4.1820455 -0.61179751
0.98878586 4.2156301 -0.61760283
1.0123156 4.1998591 -0.61618686
1.0337874 4.1762714 -0.61363822
1.0637782 4.1871204 -0.61618686
1.0936913 4.1967998 -0.61859393
1.1145697 4.1718383 -0.61590368
1.1377954 4.1563272 -0.61462939
1.1664819 4.160706 -0.61632848
1.1952647 4.1648893 -0.61802757
1.2408687 4.2258668 -0.62822223
1.2747432 4.2447214 -0.63218683
1.2926332 4.2103214 -0.62822223
1.3199239 4.2070336 -0.62893021
1.3387671 4.1771722 -0.62567359
1.3680658 4.1801696 -0.62737268
1.3933755 4.1707578 -0.62723106
1.415109 4.1508851 -0.62553197
1.441852 4.1458645 -0.62609833
1.4689171 4.1416044 -0.62680632
1.5043966 4.1604428 -0.6310541
1.5302385 4.1520629 -0.63119566
1.5539467 4.1379614 -0.63048768
1.5786004 4.1264992 -0.6302045
1.6013758 4.1102781 -0.62921339
1.6305796 4.1104975 -0.63077086
1.6661452 4.1261182 -0.63473547
1.6842843 4.0984197 -0.63204521
1.704819 4.0770473 -0.63034612
1.7402618 4.0911069 -0.6341691
1.7724047 4.0967069 -0.6367178
1.8010948 4.0939097 -0.63799208
1.8290091 4.0891075 -0.63898325
1.8454634 4.0588822 -0.63600981
1.8599553 4.0250154 -0.63247001
1.8959743 4.0377221 -0.63629299
1.9194354 4.0233321 -0.63586819
1.9501282 4.0239515 -0.63785052
1.983523 4.0296741 -0.64068234
2.0104237 4.0218554 -0.64139032
2.0256572 3.9909053 -0.63841689
2.0487468 3.9757609 -0.63799208
2.0781491 3.9727647 -0.63954961
2.106199 3.9669337 -0.64068234
2.139889 3.9713664 -0.64351422
2.1637418 3.9572928 -0.6433726
2.1903832 3.9482703 -0.64408058
2.2330136 3.9675405 -0.64946109
2.2514277 3.9434474 -0.647762
2.2830212 3.9424095 -0.64988583
2.3056648 3.925766 -0.64946109
2.3317354 3.914947 -0.65002745
2.3654344 3.9166675 -0.65271771
2.3852873 3.8953254 -0.65158498
2.4122758 3.885663 -0.65243453
2.4402895 3.8774915 -0.65356725
2.4544542 3.8474216 -0.65101862
2.4640429 3.8106737 -0.6473372
2.502568 3.8186681 -0.6513018
2.5445693 3.8312805 -0.65611595
2.5696874 3.818059 -0.65654069
2.5746639 3.7752285 -0.65186816
2.5949667 3.7552874 -0.65116018
2.6225009 3.7457824 -0.65229291
2.6339831 3.7134702 -0.64946109
2.6497884 3.6875906 -0.647762
2.6793547 3.6808677 -0.64946109
2.7183361 3.6866696 -0.65342569
2.733799 3.6604021 -0.65172654
2.755013 3.6419797 -0.65144336
2.7803178 3.6289361 -0.65215135
2.8061724 3.6165011 -0.65300089
2.8252525 3.5953226 -0.65229291
2.8380153 3.5662994 -0.65016907
2.8672967 3.558069 -0.65186816
2.8997126 3.5534487 -0.65427524
2.9088526 3.5203254 -0.65144336
2.9234116 3.4940581 -0.64988583
2.9454355 3.47681 -0.65002745
2.977668 3.4714468 -0.65243453
3.0002105 3.4546056 -0.65271771
3.0135083 3.4272099 -0.65101862
1.6083324 1.8062049 -0.34418795
1.6160715 1.7926252 -0.34347999
1.6237047 1.7790186 -0.34277204
1.6507089 1.786476 -0.34617025
1.6609634 1.7755908 -0.34602866
1.6677439 1.7610523 -0.34517911
1.6826274 1.7550745 -0.34602866
1.6981896 1.7496909 -0.34701979
1.7130551 1.7434758 -0.34786937
1.6916158 1.7006385 -0.3413561
3.1745906 3.1533675 -0.63827527
3.203064 3.1428437 -0.64011598
3.2073622 3.1086607 -0.63714254
1.6799357 1.6079452 -0.33087826
1.6969616 1.6044099 -0.3322942
1.7002645 1.5878847 -0.33101985
1.6954268 1.5639939 -0.328188
1.7042598 1.5528946 -0.32804641
1.7064 1.5357839 -0.3266305
1.71875 1.5279164 -0.32719687
1.7303238 1.5193017 -0.32762164
1.7538195 1.5209827 -0.33031189
1.7586092 1.5063279 -0.32946235
3.2963808 2.7893319 -0.61590368
3.4053335 2.8458769 -0.63303638
3.4204412 2.8230379 -0.63261157
3.4300265 2.795742 -0.63119566
3.4370923 2.7665725 -0.62935495
3.4594271 2.7497435 -0.63034612
3.4840202 2.7345779 -0.63176203
3.4819572 2.6985924 -0.62836385
3.5259621 2.6982367 -0.63331956
3.5519285 2.6837137 -0.63501865
3.5580146 2.6541724 -0.63317794
3.5782185 2.6352267 -0.63388592
3.6103323 2.6248665 -0.6367178
3.625566 2.602087 -0.63657618
3.6325796 2.5734961 -0.63501865
3.6288335 2.5375407 -0.63162047
3.6435206 2.5146644 -0.63147885
3.6654265 2.4967203 -0.63261157
3.6847844 2.4769444 -0.63331956
3.7139359 2.4635928 -0.63572663
3.7488589 2.4537723 -0.63912487
3.7596869 2.4280376 -0.63841689
3.7845318 2.4113076 -0.64011598
3.8109887 2.3954177 -0.64209831
3.8029008 2.3579011 -0.63827527
3.8400972 2.3484707 -0.64209831
3.8408732 2.3166816 -0.63983279
3.8303449 2.2783911 -0.63572663
3.8399837 2.2523408 -0.63501865
3.8623002 2.2336938 -0.63643461
3.8819523 2.2133865 -0.63742572
3.8920088 2.1875849 -0.63685936
3.9062243 2.1641426 -0.63700098
3.9333301 2.1477263 -0.63926643
3.9778142 2.1404426 -0.64436376
4.0118613 2.1271269 -0.647762
4.0239606 2.1020122 -0.64762038
4.0244603 2.0709391 -0.64563811
4.030911 2.0430729 -0.64464694
4.051342 2.0222812 -0.64592129
4.0698929 2.0004423 -0.6469124
4.0856547 1.9771576 -0.64747882
4.1030712 1.9546063 -0.64832836
4.1087136 1.926451 -0.6473372
4.1294446 1.9053528 -0.64875311
4.1428609 1.8807979 -0.64903629
4.1570349 1.8565538 -0.64946109
4.1629105 1.8286222 -0.64861155
4.1767778 1.8042227 -0.64903629
4.2223916 1.7932701 -0.6544168
4.2305751 1.7661837 -0.65399206
4.241333 1.7401922 -0.65399206
4.2409139 1.709692 -0.65229291
4.2568464 1.6858257 -0.65314251
4.2772584 1.6636231 -0.65469998
4.3049555 1.6440598 -0.65739024
4.3177428 1.618657 -0.65781504
4.3145876 1.5873464 -0.65583277
4.3065557 1.5544546 -0.65314251
4.3244104 1.5309752 -0.6544168
4.3402691 1.5066857 -0.65540797
4.3513064 1.480664 -0.65569115
4.3556142 1.4523706 -0.65498316
4.3719716 1.4280778 -0.65611595
4.3844228 1.4024318 -0.65668231
2.2608547 0.70758897 -0.33710834
2.2547429 0.69051188 -0.33555081
2.2646265 0.67837 -0.33640036
2.2687464 0.66446173 -0.33640036
2.274684 0.65107375 -0.33668354
2.2853091 0.63897198 -0.33767471
2.2891867 0.62493759 -0.33767471
2.2948911 0.61138982 -0.33795789
2.2641098 0.58832514 -0.33286056
2.2513649 0.57028502 -0.33045349
2.2500165 0.55527294 -0.32974553
2.2514563 0.54099357 -0.32946235
2.2364199 0.52288163 -0.32677209
2.2405515 0.50936908 -0.32691368
2.2436347 0.4956117 -0.32691368
2.2311478 0.47851002 -0.3246482
2.2573006 0.46965685 -0.32804641
4.7965961 0.96804303 -0.69816887
4.8170185 0.9414435 -0.70029277
4.8246498 0.91223717 -0.70057595
4.8671594 0.88938314 -0.70595646
4.860827 0.85743695 -0.70425731
4.8396478 0.82311052 -0.70043433
4.8436298 0.79323936 -0.70029277
4.8474283 0.76335043 -0.70015115
4.8265729 0.72974175 -0.69646972
4.8368373 0.7009654 -0.69731933
4.8400664 0.67113781 -0.69717771
4.8411498 0.64103687 -0.69675291
4.8174925 0.60784668 -0.69278836
4.8250628 0.57874775 -0.69335473
4.8245888 0.54868287 -0.69278836
4.8258963 0.51885754 -0.69250518
4.8122458 0.48753819 -0.69009811
4.8190889 0.45837703 -0.69066447
4.8375874 0.43020412 -0.69292992
4.813499 0.39830551 -0.68910694
4.8247356 0.36944431 -0.69038129
4.8219743 0.33948508 -0.6896733
4.8150754 0.30931929 -0.68839896
4.8079886 0.27925095 -0.68712467
4.8461895 0.25164858 -0.69236356
4.8219314 0.22072788 -0.68868214
4.8202276 0.19101892 -0.6882574
4.8500004 0.16240346 -0.69236356
4.8716865 0.13321228 -0.695337
4.868453 0.10323321 -0.69477063
4.8907709 0.073689923 -0.69788569
4.9237967 0.043975268 -0.70255822
4.3327899 -0.0099799456 -0.692828
4.3583183 -0.036783405 -0.69694459
4.3728199 -0.063741572 -0.69931954
4.3624744 -0.090366431 -0.69773626
4.3598638 -0.11707924 -0.69741958
4.3906422 -0.14487246 -0.70248616
4.3876977 -0.17173286 -0.70216948
4.358943 -0.19739971 -0.69773626
4.3546915 -0.22398962 -0.69726127
4.376893 -0.25206915 -0.70106119
4.3861032 -0.27961212 -0.70280284
4.3754401 -0.30589923 -0.70137787
4.374465 -0.33281562 -0.70153618
4.3733249 -0.35973155 -0.70169449
4.3798876 -0.38734236 -0.70311946
4.3872581 -0.41514024 -0.70470279
4.401329 -0.44373685 -0.70739442
4.3818336 -0.46894741 -0.70470279
4.3847599 -0.49649191 -0.70565277
4.3718271 -0.52221525 -0.7040695
4.3597236 -0.54792184 -0.70264447
4.3484483 -0.57362872 -0.70137787
4.3516932 -0.60124588 -0.70248616
4.3488994 -0.62807721 -0.70264447
4.3293419 -0.65239477 -0.70011121
4.3164787 -0.67756826 -0.69868624
4.3054185 -0.70292687 -0.69757789
4.3321757 -0.73461539 -0.70264447
4.35287 -0.76563197 -0.70676106
4.3597469 -0.79445106 -0.70866102
4.3596416 -0.82210213 -0.70945269
4.3254414 -0.84316772 -0.70470279
4.3066349 -0.86696345 -0.70248616
4.2993007 -0.89297044 -0.70216948
4.3043609 -0.92160821 -0.70391113
4.3111596 -0.95076704 -0.70596945
4.3004303 -0.97610879 -0.70517778
4.3030138 -1.004498 -0.70660275
4.3025303 -1.0322645 -0.70755273
4.2826934 -1.0553366 -0.70533609
4.2761378 -1.0815949 -0.70533609
4.2589078 -1.1050839 -0.70359445
4.2768555 -1.1377969 -0.70771104
4.3012295 -1.1725895 -0.71293598
4.2930031 -1.1986938 -0.71277761
4.2903137 -1.2263697 -0.71356928
4.2694407 -1.24879 -0.71135265
4.2257519 -1.2642072 -0.70533609
4.2169714 -1.2898234 -0.70517778
4.2297101 -1.3221561 -0.70866102
4.2525573 -1.3579979 -0.71388596
4.2666736 -1.391414 -0.71768588
4.2477508 -1.4141363 -0.71594423
4.2408638 -1.4408088 -0.71626091
4.2543335 -1.474565 -0.72006083
4.2694092 -1.5091985 -0.72417742
4.2424197 -1.5290049 -0.72116917
4.2292509 -1.5536451 -0.72053581
4.2150149 -1.577835 -0.71974415
4.1932607 -1.5990937 -0.71768588
4.2054591 -1.6333737 -0.72148579
4.2247396 -1.6707686 -0.72655237
4.2125764 -1.6959221 -0.72623575
4.1966095 -1.7194916 -0.72528571
4.2124081 -1.7562295 -0.72987729
4.2270045 -1.7928398 -0.73431057
4.2404022 -1.8293039 -0.73858547
4.2507987 -1.8648094 -0.74238545
4.2446866 -1.8932703 -0.74333543
4.2680602 -1.9351832 -0.74951029
4.2516222 -1.9592686 -0.74871862
4.2082243 -1.9706615 -0.74317706
4.1960535 -1.9964457 -0.74317706
4.1890583 -2.0247328 -0.74412704
4.1951685 -2.0595372 -0.74745202
4.1577106 -2.0729024 -0.74301875
4.1510801 -2.1014967 -0.74412704
4.1618176 -2.139116 -0.748402
4.1722484 -2.1769459 -0.7526769
4.1561947 -2.2011187 -0.75220191
4.1521773 -2.2317216 -0.75394356
4.1418729 -2.2590485 -0.75457686
4.1452117 -2.2939827 -0.75774348
4.1568861 -2.3338771 -0.76249337
4.1630788 -2.3710685 -0.76629329
4.158711 -2.4024956 -0.7681933
4.1455951 -2.428966 -0.76850992
4.126369 -2.4518352 -0.76771826
4.0977159 -2.4689541 -0.765185
4.0749063 -2.4894176 -0.76376003
4.0645909 -2.5174935 -0.76471001
4.0532484 -2.5450115 -0.76550168
4.0375562 -2.569834 -0.76550168
4.0441136 -2.6090131 -0.76977658
4.0495148 -2.6478286 -0.77389318
4.0447145 -2.6802626 -0.77610981
4.0298319 -2.706131 -0.77642643
4.0041718 -2.7246959 -0.77468485
3.9938812 -2.7536976 -0.77595145
3.9882414 -2.7860689 -0.77816808
3.9718771 -2.8110585 -0.77832639
3.9064095 -2.8008533 -0.7688266
3.9346857 -2.8578467 -0.7778514
3.9735417 -2.9234843 -0.7890929
3.9887795 -2.9725926 -0.79574275
3.9728291 -2.9987962 -0.79621774
3.923763 -2.999727 -0.79004288
3.9193356 -3.0346279 -0.79289281
3.9045265 -3.061666 -0.79368448
3.8957188 -3.0935488 -0.79574275
3.8643527 -3.1074934 -0.79320949
3.852869 -3.1373813 -0.79479277
3.82669 -3.1553094 -0.7933678
3.7670882 -3.1451888 -0.7849763
3.7250981 -3.1491191 -0.78022641
3.701205 -3.1680641 -0.77927643
3.6518512 -3.1648467 -0.7729432
3.6123252 -3.1696103 -0.76866829
3.5846894 -3.1845014 -0.76692665
3.5621459 -3.2037954 -0.76629329
3.5270896 -3.2116311 -0.76296836
3.497154 -3.2238426 -0.76075172
3.4787505 -3.2465875 -0.7610684
3.4551759 -3.2644808 -0.76027673
3.458626 -3.3081434 -0.76550168
3.446774 -3.3375456 -0.76740164
3.4114242 -3.344116 -0.76407671
3.3719184 -3.3462055 -0.75980175
3.3708265 -3.3864272 -0.76423502
3.3804421 -3.4380269 -0.77120155
3.3971174 -3.4976621 -0.77990973
3.3878961 -3.5312665 -0.78275967
3.3423946 -3.5269027 -0.7772181
3.3233898 -3.5502281 -0.7778514
3.3250041 -3.5959282 -0.78339297
3.3108675 -3.6250114 -0.78529298
3.2998056 -3.6577222 -0.78798455
3.2851822 -3.6867471 -0.78988457
3.2501051 -3.6927516 -0.78687626
3.2351584 -3.7215672 -0.78877622
3.1691706 -3.6911528 -0.77816808
3.1502936 -3.7150476 -0.77911806
3.1280732 -3.7350645 -0.77927643
3.1120181 -3.7625575 -0.78101802
3.0963683 -3.7907584 -0.78291798
3.084208 -3.8235202 -0.78576797
3.0656104 -3.848551 -0.78703457
3.0333931 -3.8564234 -0.78481799
2.9969549 -3.8585868 -0.78149301
2.9744244 -3.8784704 -0.78180969
2.9475904 -3.8927121 -0.78101802
2.9260144 -3.9138885 -0.78165138
2.89784 -3.9262071 -0.78054303
2.8742764 -3.9447119 -0.7807014
2.8500178 -3.9622738 -0.7807014
2.8245089 -3.9780762 -0.78038472
2.7972136 -3.9912894 -0.77959305
2.7434642 -3.9661498 -0.77135986
2.7151802 -3.9772003 -0.77025157
2.7122397 -4.0257225 -0.77642643
2.6639826 -4.0069308 -0.76961827
2.6160591 -3.9877002 -0.76281005
2.6017351 -4.0194263 -0.7658183
2.5977478 -4.06777 -0.77199322
2.6537862 -4.2122912 -0.79637611
2.6383131 -4.2452683 -0.79954267
2.6230507 -4.2790556 -0.80286765
2.6059401 -4.3102794 -0.80571759
2.5784323 -4.324492 -0.80540091
2.5543513 -4.3444872 -0.80619258
2.5261605 -4.3575158 -0.80571759
2.5062344 -4.3849359 -0.80793422
2.4967294 -4.431201 -0.8136341
2.4877088 -4.479239 -0.81965065
2.4506967 -4.4770961 -0.81648403
2.4325542 -4.5094299 -0.81965065
2.3992784 -4.5138083 -0.81775069
2.385736 -4.5555611 -0.82265896
2.3907828 -4.6341724 -0.83421707
2.3761685 -4.6760435 -0.83912528
2.3425715 -4.6808224 -0.83738369
2.3124971 -4.692451 -0.83690864
2.3491714 -4.8415823 -0.86097491
2.3019729 -4.819375 -0.85448337
2.2643776 -4.816431 -0.85147506
2.2380984 -4.8374033 -0.85274172
2.205102 -4.8438559 -0.85147506
2.1826029 -4.8735156 -0.854325
2.1634042 -4.9112139 -0.85859996
2.1371534 -4.9334564 -0.86018324
2.1080027 -4.9492021 -0.86065823
2.0707319 -4.9456491 -0.85780829
2.0215621 -4.9126058 -0.84989178
1.9991527 -4.9441409 -0.85321671
1.9651337 -4.9471378 -0.85163337
1.9250531 -4.9342661 -0.84735847
1.8947409 -4.9459848 -0.84735847
1.8476765 -4.9131556 -0.83975863
1.8154441 -4.9188423 -0.83880866
1.7721188 -4.893681 -0.83263373
1.7410669 -4.9016709 -0.83215874
1.7138807 -4.9206543 -0.83358371
1.6833369 -4.9301434 -0.8334254
1.6355118 -4.8879423 -0.82455891
1.5916512 -4.8556628 -0.81743401
1.55881 -4.8559365 -0.81585073
1.5328327 -4.8776555 -0.817909
1.501134 -4.8813062 -0.81695902
1.4597791 -4.852603 -0.81062585
1.427748 -4.8538904 -0.80935919
1.4042118 -4.8843861 -0.8130008
1.3643385 -4.8577371 -0.80714256
1.3303287 -4.8507814 -0.80460924
1.2773119 -4.7720551 -0.79020119
1.2452638 -4.7692933 -0.78845954
1.2081835 -4.7462239 -0.78339297
1.1716713 -4.7238388 -0.77848476
1.1366383 -4.7059846 -0.77436817
1.1097744 -4.7215209 -0.77579314
1.0715441 -4.6878138 -0.76914328
1.0382646 -4.6740584 -0.7658183
1.0008236 -4.6398025 -0.75916845
0.97213328 -4.6448898 -0.75901014
0.94518471 -4.6585088 -0.76027673
0.90858847 -4.623528 -0.75362688
0.87319499 -4.5921555 -0.74761033
0.82912064 -4.5109963 -0.7335189
0.77589959 -4.3721123 -0.71008605
0.73840177 -4.3145032 -0.6999529
0.70854336 -4.2984934 -0.69662791
0.68045491 -4.2920327 -0.69488633
0.65232396 -4.2844133 -0.69298631
0.629017 -4.3088531 -0.6963113
0.60215676 -4.3096981 -0.69583631
0.5764851 -4.3191838 -0.69678628
0.54910028 -4.3157835 -0.69567794
0.52047485 -4.3014269 -0.692828
0.48945805 -4.2643209 -0.68633646
0.46615931 -4.2937474 -0.69061136
0.44050804 -4.3034029 -0.69171971
0.41286659 -4.2932472 -0.68966138
0.38669279 -4.2976665 -0.68997806
0.36080986 -4.3058624 -0.69092804
0.33171049 -4.2735395 -0.68538648
0.30302143 -4.2410245 -0.67984492
0.27602926 -4.228024 -0.67746997
0.25165334 -4.2562513 -0.68174487
0.22193295 -4.1896806 -0.67082006
0.19548346 -4.1751828 -0.6682868
0.16749741 -4.1180959 -0.65894532
0.14188597 -4.1091781 -0.65736198
0.11664189 -4.108984 -0.65720367
0.090814233 -4.0819826 -0.6527704
0.065433241 -4.0617304 -0.64944547
0.0401868 -4.0294733 -0.64422059
0.015353585 -4.0010099 -0.63962901
-0.0091498047 -3.9812813 -0.63646239
-0.033393729 -3.9594288 -0.63297909
-0.057499867 -3.9463146 -0.63092083
-0.08148735 -3.9350283 -0.62917918
-0.10499319 -3.9107656 -0.62537926
-0.12866104 -3.9001791 -0.62379593
-0.15270568 -3.9022765 -0.62427092
-0.17673619 -3.9032388 -0.6245876
-0.19885468 -3.8665819 -0.61888772
-0.22126882 -3.8426168 -0.61524612
-0.24320777 -3.8155665 -0.61112952
-0.26475424 -3.7874081 -0.60685462
-0.2873137 -3.7768514 -0.60542965
-0.30910558 -3.7582886 -0.60273802
-0.32972312 -3.7287822 -0.59830475
-0.34738427 -3.6716413 -0.58943826
-0.3685191 -3.6556871 -0.58722162
-0.38989177 -3.6435394 -0.58563834
-0.41490835 -3.6646252 -0.58943826
-0.43398842 -3.6335783 -0.58484668
-0.44580513 -3.547575 -0.5713886
-0.44133878 -3.3460565 -0.53924751
-0.46023917 -3.3315485 -0.53734756
-0.47784865 -3.3091171 -0.53418094
-0.49681935 -3.2973354 -0.53275597
-0.51581663 -3.2864215 -0.53148931
-0.5343805 -3.2734499 -0.52990603
-0.55330002 -3.2632949 -0.52879775
-0.57177287 -3.2510865 -0.52737272
-0.59206456 -3.2494597 -0.5276894
-0.61583519 -3.2661414 -0.53101432
-0.63208479 -3.2429187 -0.52784771
-0.65392023 -3.2486587 -0.52943105
-0.67243534 -3.237818 -0.5283227
-0.70883197 -3.3108704 -0.54098916
-0.72934645 -3.3074229 -0.54114747
-0.75640363 -3.3327348 -0.54605573
-0.77189934 -3.3068774 -0.54257244
-0.79010171 -3.2934377 -0.54114747
-0.80580533 -3.2703125 -0.53813922
-0.82973123 -3.2806222 -0.54067248
-0.8483569 -3.2697351 -0.5397225
-0.86129433 -3.237751 -0.53528929
-0.87672865 -3.2162108 -0.53259766
-0.89830565 -3.217428 -0.53370595
-0.91803056 -3.2118554 -0.53370595
-0.9385525 -3.2090051 -0.53418094
-0.95992333 -3.2088614 -0.53513092
-1.0561407 -3.4531214 -0.57708848
-1.0257465 -3.281656 -0.54938066
-1.0626864 -3.3279724 -0.55824715
-1.0849236 -3.3270216 -0.55919713
-1.1418141 -3.4299097 -0.57772183
-1.0344952 -3.0451455 -0.51375633
-1.0311685 -2.9753022 -0.50298989
-1.0540129 -2.9819517 -0.50520647
-1.0799912 -2.9967926 -0.50884807
-1.1017642 -2.9993777 -0.51043141
-1.3749567 -3.6731403 -0.62696254
-1.3823382 -3.6249645 -0.62015438
-1.3741645 -3.538182 -0.60669625
-1.4572244 -3.6848545 -0.63345408
-1.488658 -3.6978261 -0.63725406
-1.5098217 -3.6849678 -0.6366207
-1.5335438 -3.6783683 -0.63709569
-1.5610976 -3.680706 -0.63915402
-1.5824791 -3.6683383 -0.63867903
-1.6037678 -3.6558468 -0.63820404
-1.6153084 -3.6215909 -0.63392907
-1.6395385 -3.6161072 -0.63472074
-1.6695483 -3.6230171 -0.63772905
-1.6992855 -3.6287999 -0.64057899
-1.7193981 -3.613847 -0.63978732
-1.7518535 -3.6245642 -0.64358723
-1.7697086 -3.6048837 -0.64200395
-1.8023691 -3.615164 -0.64580387
-1.8240713 -3.6031561 -0.64564556
-1.8285402 -3.5576479 -0.63947064
-1.8521624 -3.5498626 -0.640104
-1.8817656 -3.5532644 -0.64279562
-1.9166228 -3.5660028 -0.64722884
-1.9389403 -3.5550423 -0.64738721
-1.950676 -3.5249367 -0.64406222
-1.9843538 -3.5344248 -0.64802051
-2.0260403 -3.5573587 -0.65451205
-2.0720341 -3.5867524 -0.66227025
-2.106982 -3.5961204 -0.66638684
-2.145149 -3.6102867 -0.67145342
-2.2166939 -3.6790903 -0.68681145
-2.2685702 -3.7134457 -0.69583631
-2.2824733 -3.6851866 -0.69314468
-2.3024166 -3.6669312 -0.69235301
-2.323813 -3.6510689 -0.69203633
-2.3520601 -3.6458681 -0.69377798
-2.3814116 -3.6421106 -0.69583631
-2.4146235 -3.6438909 -0.69900292
-2.4391387 -3.6322851 -0.69963622
-2.4597135 -3.6148014 -0.69916123
-2.4880128 -3.6085825 -0.70090288
-2.5208521 -3.6086271 -0.70391113
-2.5429471 -3.5930915 -0.70391113
-2.5718503 -3.5870497 -0.70581108
-2.5920708 -3.568805 -0.70533609
-2.6063125 -3.5424943 -0.70327783
-2.6197388 -3.515352 -0.70106119
-2.6323359 -3.4873908 -0.69868624
-2.6536844 -3.4711733 -0.69868624
-2.6767466 -3.4571674 -0.69916123
-2.6979091 -3.4406781 -0.69916123
-2.7251108 -3.4317913 -0.70074451
-2.7393095 -3.4065421 -0.69900292
-2.775748 -3.4088104 -0.70296115
-2.7922144 -3.3863819 -0.70185286
-2.8116746 -3.3676698 -0.70153618
-2.8494976 -3.3707125 -0.70581108
-2.8714104 -3.354665 -0.70612776
-2.8932338 -3.3384755 -0.70644444
-2.9286427 -3.3377297 -0.71008605
-2.9667742 -3.3396268 -0.71436095
-2.985229 -3.3191578 -0.71388596
-2.9955666 -3.2898278 -0.71151102
-2.9969563 -3.2510591 -0.70707774
-3.0316699 -3.2484889 -0.71056104
-3.0454419 -3.2233665 -0.70913601
-3.0815437 -3.2217436 -0.71293598
-3.0875158 -3.1885889 -0.70976937
-3.0800645 -3.1420865 -0.70359445
-3.091635 -3.1154194 -0.70185286
-3.1113923 -3.0970874 -0.70201117
-3.1352661 -3.0827835 -0.70311946
-3.1626225 -3.0717425 -0.70501947
-3.1557593 -3.0276721 -0.69931954
-3.1628101 -2.9973853 -0.69678628
-3.1890717 -2.9853442 -0.69852787
-3.2182045 -2.9757748 -0.70090288
-3.2349446 -2.9546406 -0.7005862
-3.2691426 -2.9492857 -0.7040695
-3.2864404 -2.9285142 -0.70391113
-3.2984176 -2.9030755 -0.70264447
-3.3139329 -2.8808386 -0.70216948
-3.3330455 -2.861737 -0.70248616
-3.3497887 -2.8405933 -0.70232785
-3.3663981 -2.8193519 -0.70216948
-3.3760252 -2.7923503 -0.7005862
-3.4290378 -2.8009386 -0.70802772
-3.4377055 -2.7730269 -0.70628607
-3.4430704 -2.7426541 -0.70391113
-3.458282 -2.7202554 -0.70359445
-3.4795871 -2.7026181 -0.70454448
-3.5133424 -2.6944354 -0.70802772
-3.5447659 -2.6841514 -0.71103603
-3.5595872 -2.6611683 -0.71071935
-3.5774379 -2.6404495 -0.71103603
-3.5887837 -2.6149609 -0.71008605
-3.6023564 -2.5911617 -0.70961106
-3.6189926 -2.5695808 -0.70976937
-3.6387343 -2.5501597 -0.71056104
-3.6664944 -2.5362098 -0.71293598
-3.6852493 -2.5158918 -0.71356928
-3.7038929 -2.4954386 -0.71420258
-3.7240684 -2.4759448 -0.71515262
-3.734237 -2.4497983 -0.71420258
-3.7409089 -2.4214745 -0.7126193
-3.7548642 -2.3979437 -0.71246099
-3.7695069 -2.3748591 -0.71246099
-3.778976 -2.3485584 -0.71151102
-3.752907 -2.3005595 -0.70391113
-3.7585025 -2.2723806 -0.70232785
-3.7715268 -2.2487705 -0.70216948
-3.763123 -2.2125762 -0.69805288
-3.7774825 -2.1899395 -0.69821125
-3.7934203 -2.1681898 -0.69868624
-3.7885876 -2.1346953 -0.69536132
-3.7714016 -2.0946312 -0.68981975
-3.784183 -2.0714507 -0.68981975
-3.8124647 -2.0566297 -0.69266969
-3.8005991 -2.0202231 -0.68823642
-3.7989278 -1.9895365 -0.68570316
-3.7979012 -1.9593995 -0.68332821
-3.7631979 -1.912354 -0.67493665
-3.7677968 -1.8856925 -0.67367005
-3.7890389 -1.867339 -0.67541164
-3.8075325 -1.8475027 -0.6766783
-3.8107779 -1.8202754 -0.67525333
-3.8236625 -1.7976989 -0.67557001
-3.8328285 -1.7733744 -0.67525333
-3.7924137 -1.7265069 -0.66622847
-3.8281684 -1.7145036 -0.67066175
-3.8142185 -1.6802362 -0.66638684
-3.8335168 -1.6607255 -0.66797012
-3.8754301 -1.650713 -0.67351168
-3.8526971 -1.613176 -0.66781181
-3.8442605 -1.5819919 -0.6646452
-3.8502333 -1.5568938 -0.6640119
-3.8606315 -1.5336044 -0.66417021
-3.8699689 -1.5098871 -0.66417021
-3.8625634 -1.4797558 -0.66132027
-3.8909788 -1.4633255 -0.6646452
-3.8609786 -1.4250662 -0.65799534
-3.8835759 -1.406391 -0.66037029
-3.895854 -1.3838571 -0.66100359
-3.885623 -1.3534321 -0.65783697
-3.8947885 -1.3298838 -0.65799534
-3.894448 -1.3031415 -0.65657037
-3.8798518 -1.2718408 -0.6527704
-3.86972 -1.2422774 -0.64976215
-3.8687916 -1.2158461 -0.64833719
-3.9035487 -1.2005001 -0.65292877
-3.9155691 -1.1779478 -0.65372038
-3.8990414 -1.1469355 -0.64976215
-3.8917708 -1.1188984 -0.64738721
-3.8957114 -1.094197 -0.64691222
-3.8823547 -1.0647897 -0.64358723
-3.9126608 -1.0473293 -0.64754552
-3.9304776 -1.0262947 -0.64944547
-3.9367011 -1.0021584 -0.64944547
-3.9140253 -0.97085476 -0.64469558
-3.8843961 -0.93824512 -0.63883734
-3.8939247 -0.91529673 -0.63947064
-3.9148686 -0.8949064 -0.64200395
-3.9251056 -0.87193871 -0.64279562
-3.8888781 -0.83888811 -0.6359874
-3.8958852 -0.81541508 -0.63630408
-3.9240396 -0.79620582 -0.640104
-3.8939719 -0.76526105 -0.63440406
-3.8927741 -0.74024731 -0.63345408
-3.9156942 -0.71973807 -0.63646239
-3.9278145 -0.69707805 -0.63772905
-3.9203389 -0.67096627 -0.63582909
-3.9156137 -0.64545411 -0.63440406
-3.9136493 -0.62048888 -0.63345408
-3.9173827 -0.5964635 -0.63345408
-3.9072902 -0.57041967 -0.63123751
-3.900938 -0.54506844 -0.62965417
-3.8895283 -0.51916397 -0.62727922
-3.8945997 -0.49553758 -0.6275959
-3.8907051 -0.47080156 -0.62648755
-3.8895969 -0.44646966 -0.62585425
-3.8785205 -0.42110392 -0.62363762
-3.9075522 -0.40001106 -0.62791252
-3.8824127 -0.37338236 -0.62347931
-3.8747966 -0.34866902 -0.62189597
-3.8748953 -0.32472235 -0.62157935
-3.8817368 -0.3013221 -0.62237096
-3.915029 -0.2797485 -0.62743753
-3.8969657 -0.25443572 -0.62427092
-3.8925397 -0.23017029 -0.62332094
-3.8702145 -0.20502968 -0.61952102
-3.8654821 -0.18100192 -0.61857104
-3.8941438 -0.15840223 -0.62300432
-3.8693855 -0.13362092 -0.61888772
-3.8661845 -0.10976446 -0.61825436
-3.8430939 -0.085514322 -0.61445445
-3.8287375 -0.061694287 -0.6120795
-3.8310184 -0.038220007 -0.61239618
-3.8361177 -0.014731233 -0.61318779
-3.7907164 0.0086997561 -0.60590464
-3.810339 0.032126796 -0.60907125
-3.7834134 0.055115882 -0.60479629
-3.8461826 0.079641812 -0.61492944
-3.84957 0.1033463 -0.6155628
-3.8202446 0.12601893 -0.61097121
-3.8134801 0.1492251 -0.61002123
-3.8134789 0.1726661 -0.61017954
-3.8044591 0.19565569 -0.60891289
-3.7805145 0.21768869 -0.60527128
-3.7574291 0.23949817 -0.60178804
-3.7578588 0.26268667 -0.60210466
-3.7571607 0.28581446 -0.60226303
-3.7474639 0.30821458 -0.60099638
-3.7681239 0.33320466 -0.60463798
-3.7286546 0.35278243 -0.59862143
-3.7598217 0.37902382 -0.60400468
-3.7377899 0.399984 -0.60083807
-3.7176051 0.42091042 -0.59798813
-3.718874 0.44418195 -0.59862143
-3.7131395 0.46662265 -0.59814644
-3.7180376 0.49043074 -0.5994131
-3.7061558 0.51201826 -0.59798813
-3.6951265 0.53361958 -0.59672147
-3.7171679 0.56010926 -0.60083807
-3.6697667 0.57601398 -0.59371316
-3.6729846 0.59963453 -0.59482151
-3.6750767 0.62315106 -0.59577149
-3.6604872 0.64380705 -0.59402984
-3.6593821 0.66678643 -0.59450483
-3.6746273 0.6928879 -0.59767145
-3.6606154 0.71353221 -0.59608811
-3.6387451 0.73247141 -0.59323817
-3.6370823 0.75538707 -0.59371316
-3.6555507 0.78265232 -0.59751308
-3.6776774 0.81102318 -0.60194635
-3.6215992 0.82198727 -0.59355485
-3.6289871 0.84711224 -0.59561312
-3.6640463 0.87904066 -0.60226303
-3.629823 0.89441729 -0.59751308
-3.6156516 0.91449302 -0.59608811
-3.6013708 0.93442869 -0.59466314
-3.5984318 0.95727038 -0.59513813
-3.6086848 0.98374772 -0.59782976
-3.5911689 1.0026846 -0.5959298
-3.5716579 1.0209007 -0.59371316
-3.5757508 1.0458465 -0.59545481
-3.5758879 1.0697486 -0.5965631
-3.5853081 1.0965803 -0.59925473
-3.5728576 1.1167908 -0.59830475
-3.5518291 1.134186 -0.5959298
-3.5034997 1.1424862 -0.58896327
-3.5320227 1.1758155 -0.59497982
-3.5219369 1.1965123 -0.59450483
-3.4930718 1.2106615 -0.59086323
-3.4995413 1.2370088 -0.59323817
-3.4751654 1.2524313 -0.59038824
-3.484098 1.2798604 -0.59323817
-3.4484379 1.2908281 -0.58848828
-3.4487557 1.3151299 -0.58991325
-3.4525864 1.3409141 -0.59197152
-3.3974669 1.3435519 -0.5838967
-3.4184687 1.3761747 -0.58896327
-3.4465063 1.4121004 -0.5952965
-3.4395995 1.4339813 -0.59561312
-3.4225552 1.4515889 -0.59418815
-3.4054246 1.4690415 -0.59276319
-3.4225678 1.5014139 -0.59735477
-3.3844357 1.5095139 -0.5922882
-3.3778074 1.5314753 -0.59276319
-3.3593795 1.5480394 -0.59117991
-3.3489234 1.5682042 -0.59102154
-3.3383467 1.588299 -0.59086323
-3.3187597 1.6040258 -0.58912158
-3.3079686 1.623924 -0.58896327
-3.2873385 1.6389035 -0.58706331
-3.2869108 1.6639495 -0.58880496
-3.2950802 1.6935661 -0.59212989
-3.2916296 1.7174069 -0.59339654
-3.2609611 1.7269418 -0.58975494
-3.2389975 1.7408407 -0.58769661
-3.2239208 1.7583178 -0.58690494
-3.2338047 1.7895417 -0.59070492
-3.2554793 1.8277209 -0.59672147
-3.2673683 1.8608569 -0.60099638
-3.2729874 1.8907493 -0.60416299
-3.2033954 1.8768508 -0.59339654
-3.2215276 1.9141257 -0.59893811
-3.2300191 1.9460874 -0.60273802
-3.2298133 1.9730771 -0.60495466
-3.1781945 1.9684197 -0.59751308
-3.1652205 1.9873585 -0.59735477
-3.1604633 2.0115147 -0.59877974
-3.1464021 2.0297983 -0.59846312
-3.1057916 2.0306923 -0.59307986
-3.097388 2.0524383 -0.59387153
-3.0937529 2.0774603 -0.59561312
-3.0515609 2.0764055 -0.58991325
-3.0346985 2.0922878 -0.58912158
-3.0209939 2.1103034 -0.58896327
-2.9918699 2.1173913 -0.58579665
-2.9828339 2.138586 -0.58658832
-2.9736497 2.1597495 -0.58737999
-2.9794288 2.1919994 -0.59117991
-2.9714646 2.21437 -0.5922882
-2.9428487 2.2212577 -0.58927995
-2.9228888 2.2344749 -0.58801329
-2.899755 2.2451131 -0.58611333
-2.8750472 2.254333 -0.5838967
-2.8588409 2.2700894 -0.58342171
-2.8610163 2.3005829 -0.58674663
-2.8437839 2.3156006 -0.58611333
-2.8173335 2.3229549 -0.58358002
-2.7757425 2.3174155 -0.57788014
-2.7509146 2.3254783 -0.57566351
-2.7410946 2.3461666 -0.57661349
-2.7341082 2.3694086 -0.57819682
-2.7269399 2.3926525 -0.5797801
-2.7240179 2.4198327 -0.58231342
-2.7186623 2.4450855 -0.58437169
-2.6860871 2.4457653 -0.58057177
-2.6717558 2.4628701 -0.58073008
-2.637826 2.4617007 -0.57661349
-2.6190834 2.4744489 -0.57582182
-2.6059916 2.4925203 -0.57629681
-2.6012881 2.5187669 -0.57867181
-2.6012959 2.5498879 -0.58215505
-2.5841994 2.5644102 -0.58183843
-2.5572715 2.5690207 -0.57930511
-2.5463057 2.5895922 -0.5804134
-2.5351837 2.6101255 -0.58152175
-2.4617033 2.565779 -0.56822199
-2.424181 2.5579004 -0.56315541
-2.4259834 2.5914695 -0.56727201
-2.4274647 2.6251562 -0.5713886
-2.4119773 2.6407306 -0.57154691
-2.3970516 2.6569467 -0.57186359
-2.3820174 2.673079 -0.57218027
-2.3551338 2.6757848 -0.56964695
-2.3321936 2.6827331 -0.56806368
-2.3131161 2.693996 -0.56743032
-2.3131449 2.7277191 -0.57154691
-2.3242571 2.7751696 -0.57851344
-2.2958584 2.7756829 -0.57566351
-2.2600465 2.7667756 -0.57091361
-2.2337289 2.7690625 -0.56853867
-2.2333055 2.8035696 -0.57281357
-2.2148402 2.8156679 -0.57249689
-2.2035782 2.8370032 -0.57408023
-2.1861291 2.8504708 -0.57408023
-2.1685977 2.863831 -0.57408023
-2.1415262 2.8644297 -0.57154691
-2.1057343 2.8528876 -0.56663871
-2.0928411 2.8721387 -0.56790531
-2.0797908 2.8913391 -0.56917197
-2.0545802 2.8935792 -0.5671137
-2.0469861 2.9206865 -0.56996363
-2.0385749 2.9469969 -0.57265526
-1.997074 2.9251988 -0.56600535
-1.976881 2.9341218 -0.56537205
-1.9675863 2.959353 -0.56790531
-1.9434338 2.9622884 -0.56616372
-1.9456075 3.0056562 -0.57218027
-1.9356309 3.0308528 -0.57471353
-1.9117347 3.034318 -0.57313025
-1.8946439 3.0485072 -0.57360524
-1.8655833 3.0432382 -0.57043862
-1.8351266 3.0351932 -0.56679702
-1.8114122 3.0379152 -0.56521368
-1.7987428 3.0591869 -0.5671137
-1.7843946 3.0778546 -0.56853867
-1.7787035 3.1118915 -0.57281357
-1.7741153 3.1485548 -0.57756346
-1.7562008 3.1619709 -0.57803845
-1.7296554 3.1596951 -0.57566351
-1.6905484 3.133749 -0.56901366
-1.6648009 3.1318567 -0.56679702
-1.6652483 3.1796257 -0.57360524
-1.6615502 3.2204967 -0.5791468
-1.6381801 3.2235889 -0.57788014
-1.608207 3.2132709 -0.57423854
-1.5989348 3.2443347 -0.57803845
-1.5893415 3.2754054 -0.58183843
-1.5917671 3.3323178 -0.59022993
-1.5553284 3.3080661 -0.58421338
-1.5287828 3.304105 -0.58183843
-1.4994811 3.2936525 -0.57835513
-1.4804541 3.3054945 -0.57883012
-1.4716859 3.3407214 -0.58342171
-1.4566542 3.3623731 -0.58563834
-1.4085274 3.3067489 -0.57439685
-1.4015563 3.3472068 -0.57993841
-1.3911358 3.3803976 -0.58421338
-1.3611157 3.3659847 -0.58025509
-1.347726 3.3926263 -0.58342171
-1.335137 3.421989 -0.58706331
-1.3077577 3.4135199 -0.58421338
-1.2843555 3.4150105 -0.58310503
-1.2637191 3.4237528 -0.5832634
-1.2423514 3.4305141 -0.58310503
-1.2206178 3.4362116 -0.58278841
-1.1780787 3.3820941 -0.57233858
-1.1738924 3.4378495 -0.58057177
-1.1618606 3.4721427 -0.58516335
-1.1466843 3.497972 -0.58832997
-1.1297257 3.5190444 -0.59070492
-1.1051522 3.51649 -0.58912158
-1.080943 3.5147109 -0.58769661
-1.0599256 3.5231683 -0.58801329
-1.0419095 3.5419202 -0.59007156
-1.0106102 3.5150328 -0.58453
-0.99569678 3.5449331 -0.58848828
-0.95878291 3.4957459 -0.57930511
-0.93425244 3.4901173 -0.57740515
-0.91755837 3.513936 -0.5804134
-0.90158111 3.5415082 -0.58405501
-0.88720107 3.5766828 -0.58896327
-0.85921228 3.5571046 -0.58484668
-0.83714426 3.5613484 -0.58468837
-0.81923598 3.583744 -0.5875383
-0.79723114 3.5887034 -0.5875383
-0.77623695 3.5983536 -0.58832997
-0.74706572 3.5692227 -0.58278841
-0.72789925 3.5872869 -0.58500499
-0.70416129 3.5829659 -0.58358002
-0.68585128 3.6066194 -0.58674663
-0.65692788 3.5738568 -0.58073008
-0.64033347 3.6079588 -0.58563834
-0.62168008 3.6322582 -0.58896327
-0.60467881 3.6681545 -0.59418815
-0.58216006 3.6717958 -0.59418815
-0.56006509 3.6782272 -0.59466314
-0.53449136 3.6610765 -0.59133822
-0.51037842 3.6525526 -0.58943826
-0.48743492 3.6517005 -0.58880496
-0.46589127 3.6614792 -0.58991325
-0.44234911 3.6554468 -0.58848828
-0.42238715 3.679673 -0.59197152
-0.40075976 3.6910303 -0.59339654
-0.37328106 3.6462712 -0.58579665
-0.35590729 3.7005842 -0.59418815
-0.33257523 3.6958144 -0.59307986
-0.30989188 3.6977856 -0.59307986
-0.2849063 3.6700845 -0.58832997
-0.26203015 3.6668394 -0.5875383
-0.24126111 3.6949809 -0.59181321
-0.21875925 3.6993487 -0.5922882
-0.19636938 3.7065372 -0.59323817
-0.17376114 3.7106316 -0.59371316
-0.15046901 3.6988025 -0.5916549
-0.12817891 3.7114975 -0.59355485
-0.10540317 3.712214 -0.59355485
-0.081681743 3.6703439 -0.58674663
-0.059587162 3.697432 -0.59102154
-0.036889244 3.6967406 -0.59086323
-0.014138694 3.6791244 -0.58801329
0.0084269289 3.6751926 -0.58737999
0.031111572 3.6908693 -0.58991325
0.053844422 3.6965327 -0.59086323
0.076545417 3.6971195 -0.59102154
0.099255636 3.6975675 -0.59117991
0.12396396 3.7580733 -0.60099638
0.14442964 3.691138 -0.59038824
0.16828293 3.7168145 -0.59466314
0.1917458 3.7285309 -0.59672147
0.21552926 3.7430561 -0.59925473
0.23861793 3.7436337 -0.59957141
0.25972313 3.7155049 -0.5952965
0.28543964 3.752238 -0.60147136
0.3088626 3.7553365 -0.60226303
0.3321602 3.7563214 -0.60273802
0.35399234 3.7414336 -0.6006797
0.37694269 3.7391913 -0.6006797
0.39935324 3.7318993 -0.59988809
0.42302224 3.7362461 -0.60099638
0.4475798 3.7473059 -0.60321301
0.47056442 3.7444892 -0.60321301
0.49391887 3.744468 -0.603688
0.52094102 3.7707098 -0.6084379
0.54279709 3.758647 -0.60701293
0.5689404 3.775749 -0.61033785
0.58903378 3.7526784 -0.60717124
0.6112529 3.7441211 -0.60637963
0.63768268 3.7607431 -0.60970455
0.66297054 3.7694013 -0.61176282
0.6836077 3.7516632 -0.60954624
0.70752972 3.7522495 -0.61033785
0.72978389 3.7439609 -0.60970455
0.76326811 3.7916822 -0.61825436
0.78712165 3.7898276 -0.61872935
0.80994725 3.7829957 -0.61841273
0.83144236 3.770241 -0.61714607
0.85477906 3.7660313 -0.61730438
0.88011611 3.7703309 -0.61888772
0.89862561 3.7456572 -0.61572111
0.91899234 3.729527 -0.61397946
0.94403857 3.7324331 -0.61540443
0.97064328 3.7409062 -0.61777937
0.99738735 3.7491927 -0.62015438
1.0164769 3.728713 -0.61777937
1.0382743 3.7186022 -0.61714607
1.0673145 3.7339964 -0.62078768
1.100741 3.7633884 -0.62680423
1.1252273 3.7612932 -0.6275959
1.1494404 3.7580948 -0.6282292
1.1662905 3.7311807 -0.62490427
1.1945702 3.7408845 -0.62775421
1.2049478 3.6949973 -0.62126267
1.2282211 3.6894078 -0.62157935
1.2597308 3.7079792 -0.62601256
1.2847227 3.7067103 -0.62712091
1.3107337 3.7080667 -0.62870419
1.3311175 3.6934521 -0.6275959
1.3585224 3.6981905 -0.62981254
1.3818809 3.6916342 -0.63012916
1.3960613 3.6609445 -0.62632924
1.4260063 3.6716373 -0.62965417
1.4604928 3.6931181 -0.63487905
1.4787004 3.6730962 -0.63297909
1.5004613 3.6621268 -0.63266248
1.5187235 3.6428263 -0.63092083
1.5595553 3.6770701 -0.63852066
1.577394 3.6565526 -0.6366207
1.5978169 3.6422842 -0.63582909
1.6112858 3.6125734 -0.6323458
1.6472864 3.633193 -0.63772905
1.6720281 3.6283975 -0.63867903
1.6867218 3.6019747 -0.63582909
1.7032759 3.5799668 -0.63377076
1.7273587 3.5738931 -0.63456243
1.7670976 3.5995657 -0.64105397
1.8006066 3.6116295 -0.64517057
1.8164889 3.5881808 -0.64295393
1.8357629 3.5716984 -0.64200395
1.8585575 3.5621178 -0.64232063
1.879917 3.5497742 -0.64216226
1.9072727 3.5486088 -0.64406222
1.9309021 3.5403066 -0.64469558
1.950676 3.5249367 -0.64406222
1.9688839 3.5068746 -0.64295393
1.9991614 3.5101709 -0.64580387
2.016216 3.4901435 -0.6443789
2.0161276 3.4410748 -0.63757068
2.049814 3.4498599 -0.64152896
2.0806262 3.4532862 -0.64453721
2.0971429 3.4328716 -0.64311224
2.1166072 3.4174209 -0.64263725
2.1475132 3.4202569 -0.64564556
2.1626267 3.3978531 -0.64390391
2.1828992 3.3836899 -0.6437456
2.1987565 3.3627949 -0.64232063
2.2275307 3.3615859 -0.64469558
2.2558222 3.3593304 -0.64691222
2.2786143 3.3486907 -0.64754552
2.2895896 3.3208277 -0.64485389
2.296351 3.2872906 -0.64105397
2.3176193 3.2747502 -0.64137065
2.3319151 3.252444 -0.63978732
2.3564703 3.2444654 -0.64105397
2.3856966 3.2426698 -0.64358723
2.4173493 3.2438042 -0.64675385
2.4276891 3.2163017 -0.64422059
2.4443796 3.1974232 -0.64342892
2.4639525 3.1823647 -0.64342892
2.4724653 3.1532009 -0.64057899
2.5089602 3.1596205 -0.6450122
2.5419135 3.161094 -0.6484955
2.5494153 3.1308908 -0.64548719
2.5616679 3.1068094 -0.6437456
2.5819485 3.0925486 -0.64406222
2.5957754 3.0706158 -0.64279562
2.6209886 3.0621314 -0.6443789
2.6242075 3.0280845 -0.64057899
2.6342714 3.0022776 -0.63852066
2.5496821 2.8701696 -0.61366278
1.6408132 1.8245255 -0.39152527
1.6479886 1.810043 -0.39057529
1.6583946 1.7991712 -0.39041695
1.6687291 1.7882396 -0.39025861
1.6857734 1.784426 -0.39168358
1.6946431 1.7719082 -0.39120859
1.7102916 1.7664417 -0.39231691
1.7217895 1.7566195 -0.39247525
1.8674717 1.8819803 -0.42319134
2.816762 2.8038456 -0.6353541
2.8339133 2.7865093 -0.6353541
2.776583 2.6968391 -0.61872935
1.6900712 1.6216364 -0.37363392
1.714324 1.6248189 -0.37680054
1.7170527 1.6075219 -0.37521723
1.7218089 1.5922638 -0.37410891
1.7337338 1.5836667 -0.3745839
1.7419519 1.5716761 -0.37426725
1.7552489 1.5642424 -0.37505889
1.7670375 1.5553998 -0.37553388
1.7608984 1.5309254 -0.37220895
1.8152096 1.558682 -0.38170877
3.0334821 2.5723991 -0.63582909
2.9992461 2.5118988 -0.62537926
3.025255 2.5022581 -0.6275959
3.0596697 2.499263 -0.63155413
3.0841701 2.4878809 -0.63345408
3.0839305 2.4566069 -0.63028753
3.0958414 2.4351964 -0.62965417
3.1263218 2.4282672 -0.63282079
3.1411626 2.4090388 -0.63282079
3.1377795 2.3760114 -0.62917918
3.1522994 2.3567135 -0.62917918
3.1849732 2.3508122 -0.63282079
3.208914 2.3382025 -0.63472074
3.2272086 2.3213515 -0.63551241
3.2140172 2.2820721 -0.63012916
3.2037008 2.2453091 -0.62537926
3.2360952 2.2385275 -0.62902087
3.2473233 2.2169592 -0.62854588
3.2641406 2.1991987 -0.62917918
3.2734618 2.1763959 -0.62838751
3.2751958 2.1486874 -0.62617093
3.3073833 2.1408901 -0.62981254
3.3296115 2.1264014 -0.63155413
