# .PCD v0.7 - Point Cloud Data file format
VERSION 0.7
FIELDS x y z
SIZE 4 4 4
TYPE F F F
COUNT 1 1 1
WIDTH 1442
HEIGHT 1
VIEWPOINT 0 0 0 1 0 0 0
POINTS 1442
DATA ascii
4.0695562 -2.1873088 -0.73890215
4.0326548 -2.1994715 -0.73462725
3.9992137 -2.2131765 -0.73098564
3.9778101 -2.2333226 -0.72956067
3.9648898 -2.2581768 -0.72971898
3.9458294 -2.2794988 -0.728769
3.9232495 -2.2986748 -0.72718573
3.9022806 -2.3186688 -0.72591907
3.8752944 -2.3349249 -0.72354412
3.852469 -2.3535116 -0.72196078
3.8203285 -2.3661864 -0.71863586
3.8391852 -2.4105866 -0.72496909
3.8009994 -2.4192522 -0.72053581
3.7811058 -2.439317 -0.71958584
3.7594562 -2.4581482 -0.71831918
3.7327797 -2.4735332 -0.7161026
3.7044172 -2.4875827 -0.71356928
3.66133 -2.4913781 -0.70818603
3.6484129 -2.5154781 -0.70866102
3.6369567 -2.5406444 -0.70945269
3.6366115 -2.5737512 -0.71246099
3.6103196 -2.5885365 -0.71040267
3.550431 -2.5787239 -0.70169449
3.5846448 -2.6373274 -0.71166933
3.5462277 -2.642751 -0.70723605
3.5354617 -2.6686249 -0.7083444
3.5017643 -2.6770737 -0.7048611
3.475904 -2.6912553 -0.70296115
3.4538865 -2.7082675 -0.70185286
3.4171002 -2.7134435 -0.69773626
3.4173141 -2.7479727 -0.7012195
3.3835449 -2.7551723 -0.69773626
3.3292487 -2.7451 -0.68997806
3.3312902 -2.7812977 -0.69393635
3.3533702 -2.8348353 -0.70216948
3.2721558 -2.8007786 -0.6887114
3.2422245 -2.8098097 -0.68601978
3.2182434 -2.8237891 -0.68459481
3.1942132 -2.8375804 -0.68316984
3.1664646 -2.847882 -0.6809532
3.13871 -2.85795 -0.67873663
3.121841 -2.8778243 -0.67889494
3.1055677 -2.8982728 -0.67921162
3.0841374 -2.913883 -0.67841995
3.0455086 -2.9129586 -0.67382836
3.014101 -2.9185398 -0.67082006
3.0165837 -2.9570248 -0.67541164
2.9738541 -2.9511344 -0.66987008
2.9542975 -2.9679263 -0.66955346
2.9540288 -3.0043044 -0.67367005
2.9162781 -3.0025399 -0.66923678
2.8943822 -3.0168147 -0.66844511
2.8703837 -3.0287838 -0.66717851
2.8409495 -3.0348053 -0.6646452
2.8048468 -3.03333 -0.6605286
2.7848504 -3.0490248 -0.66021192
2.7634439 -3.0631223 -0.65957862
2.7406559 -3.0755975 -0.65862864
2.7197759 -3.0901322 -0.65815365
2.6891043 -3.0933483 -0.65530372
2.6675007 -3.1067934 -0.65467036
2.6496646 -3.1246085 -0.65498704
2.6329782 -3.1438358 -0.65562034
2.6004238 -3.1439538 -0.65229541
2.5792103 -3.1575561 -0.65182042
2.5548282 -3.1671741 -0.65055376
2.52858 -3.1742947 -0.64881217
2.5023408 -3.1812129 -0.64707053
2.486408 -3.2011859 -0.64802051
2.4510972 -3.1960104 -0.64390391
2.4213085 -3.1976073 -0.64121228
2.4116929 -3.2258484 -0.64390391
2.3830593 -3.2286687 -0.64152896
2.357971 -3.2360475 -0.640104
2.3438358 -3.2584708 -0.64168727
2.3157957 -3.2615192 -0.63947064
2.2963064 -3.2764759 -0.63962901
2.2699809 -3.2815714 -0.63788736
2.2353294 -3.274235 -0.63377076
2.2091286 -3.2788811 -0.63202912
2.1938877 -3.2997746 -0.63345408
2.1654758 -3.3007898 -0.63107914
2.1382077 -3.3032389 -0.62902087
2.1173677 -3.315464 -0.6288625
2.0854063 -3.3100138 -0.62537926
2.0801704 -3.3470685 -0.62997085
2.0771375 -3.3883915 -0.6353541
2.0455806 -3.3833282 -0.63202912
2.0131531 -3.3763094 -0.62838751
1.9964019 -3.3954079 -0.62965417
1.9785016 -3.4127192 -0.63060415
1.9560544 -3.4222229 -0.63012916
1.9306575 -3.4264185 -0.62870419
1.9076796 -3.4347472 -0.62807089
1.8785094 -3.4316635 -0.62537926
1.8189815 -3.3718643 -0.61239618
1.8015018 -3.3890653 -0.61350447
1.7907497 -3.4192991 -0.61698776
1.7710935 -3.4328551 -0.61746275
1.7607309 -3.4647844 -0.62126267
1.7451823 -3.4870019 -0.62332094
1.7193893 -3.4887874 -0.62173766
1.6975193 -3.4983835 -0.62157935
1.6815534 -3.5203161 -0.62363762
1.6611817 -3.5332487 -0.62411261
1.6315942 -3.5263481 -0.62110436
1.6054265 -3.5264077 -0.61936271
1.5837587 -3.5361919 -0.61936271
1.5668072 -3.5566866 -0.62126267
1.5374979 -3.5490186 -0.61825436
1.5040861 -3.5311327 -0.61350447
1.4957366 -3.5721726 -0.61904603
1.4572592 -3.541106 -0.6120795
1.4284723 -3.5325882 -0.60907125
1.4158814 -3.5642283 -0.61302948
1.3929086 -3.5700891 -0.61255449
1.3699172 -3.5758026 -0.6120795
1.3507308 -3.5915346 -0.61334616
1.3259335 -3.592344 -0.6120795
1.2897481 -3.5614192 -0.60542965
1.260932 -3.5497265 -0.60210466
1.2511425 -3.5918977 -0.60796291
1.2345026 -3.6153924 -0.61065453
1.2047774 -3.6004262 -0.60685462
1.1771277 -3.5908616 -0.60400468
1.1608057 -3.6158798 -0.60701293
1.1371173 -3.6182241 -0.60622126
1.1160556 -3.6289084 -0.60685462
1.0946213 -3.6385248 -0.60732961
1.0725536 -3.6461201 -0.60748792
1.0474336 -3.6431427 -0.60590464
1.0263946 -3.6542542 -0.60669625
0.99951458 -3.6442952 -0.60400468
0.97585857 -3.6455905 -0.60321301
0.95297253 -3.6495986 -0.60289633
0.92715162 -3.6419811 -0.6006797
0.90241081 -3.6380179 -0.59909642
0.88099849 -3.6473258 -0.59972972
0.85544008 -3.6392059 -0.59751308
0.83375418 -3.6472738 -0.59798813
0.81435609 -3.6658156 -0.60020471
0.78934997 -3.6591611 -0.59830475
0.76647854 -3.6620026 -0.59798813
0.74458331 -3.6695397 -0.59846312
0.72300512 -3.6788836 -0.59925473
0.69709927 -3.6657903 -0.59640479
0.67370105 -3.665143 -0.59561312
0.65257925 -3.6769855 -0.59687978
0.63017195 -3.6818936 -0.59703809
0.60660523 -3.6798456 -0.59608811
0.58262372 -3.6747215 -0.59466314
0.56006509 -3.6782272 -0.59466314
0.5394814 -3.6952729 -0.59687978
0.51666087 -3.6975358 -0.59672147
0.48639035 -3.6438708 -0.5875383
0.46564212 -3.6595201 -0.58959657
0.44661698 -3.6907356 -0.59418815
0.42216209 -3.6777112 -0.5916549
0.39958811 -3.6802323 -0.5916549
0.37559229 -3.6688631 -0.58943826
0.35137323 -3.6534071 -0.58658832
0.32788858 -3.6436932 -0.58468837
0.30371252 -3.6239901 -0.58120507
0.28299746 -3.6454737 -0.58437169
0.26139736 -3.6579754 -0.58611333
0.23939738 -3.6664073 -0.58722162
0.2177113 -3.6816065 -0.58943826
0.19511728 -3.682873 -0.58943826
0.17219308 -3.6770971 -0.58832997
0.14794481 -3.6366482 -0.58168006
0.1254579 -3.6325536 -0.58088839
0.10364188 -3.6500337 -0.58358002
0.08113423 -3.6456652 -0.58278841
0.058446463 -3.6263494 -0.57962179
0.036165152 -3.6236775 -0.5791468
0.013937455 -3.6258059 -0.57946342
-0.0082986765 -3.6208863 -0.57867181
-0.030406788 -3.6079321 -0.57661349
-0.052572966 -3.609652 -0.57693017
-0.075356066 -3.6398635 -0.58183843
-0.098166563 -3.6570992 -0.58468837
-0.11982141 -3.6327436 -0.58088839
-0.14241864 -3.6398335 -0.58215505
-0.16345249 -3.6102862 -0.57756346
-0.18565249 -3.6102014 -0.57772183
-0.20842586 -3.6198373 -0.57946342
-0.23157597 -3.633271 -0.58183843
-0.2533825 -3.6248868 -0.58073008
-0.27464512 -3.6104648 -0.57867181
-0.29525432 -3.5900147 -0.57566351
-0.31701556 -3.5851851 -0.57518852
-0.33928707 -3.5861211 -0.57566351
-0.36366314 -3.6075497 -0.57946342
-0.38526618 -3.6003416 -0.57867181
-0.40679446 -3.593004 -0.57788014
-0.42684123 -3.5737734 -0.57518852
-0.45023963 -3.5828431 -0.57708848
-0.47053558 -3.5672874 -0.57503021
-0.49187443 -3.560421 -0.57439685
-0.51540577 -3.5690625 -0.57629681
-0.53729546 -3.5658329 -0.57629681
-0.55870533 -3.5595427 -0.57582182
-0.58037663 -3.555073 -0.57566351
-0.6016838 -3.5485244 -0.57518852
-0.62293255 -3.5418484 -0.57471353
-0.64500731 -3.5399022 -0.57503021
-0.66580051 -3.5310266 -0.57423854
-0.68802083 -3.5297823 -0.57471353
-0.70908147 -3.5225904 -0.57423854
-0.73309255 -3.529774 -0.5761385
-0.75246251 -3.5145891 -0.57439685
-0.77103561 -3.496407 -0.57218027
-0.79116297 -3.4858329 -0.57123029
-0.81680256 -3.4991817 -0.57423854
-0.8391794 -3.4979446 -0.57487184
-0.85093832 -3.4534233 -0.5683803
-0.87041694 -3.4414363 -0.56727201
-0.89548552 -3.4513223 -0.56980526
-0.91918463 -3.4553046 -0.5713886
-0.93725157 -3.438168 -0.56948864
-0.95992374 -3.4380586 -0.57043862
-0.98371547 -3.4415975 -0.5720219
-1.0053686 -3.437392 -0.57233858
-1.020214 -3.4103477 -0.56885529
-1.0492082 -3.4304609 -0.57328856
-1.0740677 -3.4362094 -0.57534683
-1.1002388 -3.4455442 -0.57803845
-1.1228905 -3.4434221 -0.57883012
-1.1330799 -3.4036787 -0.57328856
-1.1472719 -3.3770297 -0.56996363
-1.1579456 -3.3410063 -0.56505537
-1.1797403 -3.3375618 -0.56568867
-1.2032105 -3.3386202 -0.5671137
-1.2175437 -3.3144922 -0.5642637
-1.2596693 -3.3652151 -0.57423854
-1.2795904 -3.3555775 -0.57392186
-1.2937202 -3.3310959 -0.57107192
-1.3021505 -3.2927954 -0.56584704
-1.3337629 -3.3131373 -0.57075524
-1.3563132 -3.3103731 -0.57170528
-1.3754598 -3.2992547 -0.57123029
-1.3833387 -3.2616653 -0.56616372
-1.4080198 -3.2639952 -0.56806368
-1.4375421 -3.2769947 -0.57186359
-1.458829 -3.2708175 -0.57233858
-1.4621518 -3.2249355 -0.56584704
-1.4823254 -3.2168 -0.56600535
-1.5037105 -3.2112207 -0.56663871
-1.5221132 -3.199259 -0.56616372
-1.5430039 -3.1925263 -0.56663871
-1.5664805 -3.1909752 -0.56806368
-1.5873523 -3.1839542 -0.56853867
-1.6006144 -3.1618221 -0.56632203
-1.6240476 -3.1598446 -0.567747
-1.6420351 -3.1471939 -0.56727201
-1.6608528 -3.1361868 -0.5671137
-1.6908175 -3.1459401 -0.57075524
-1.6911756 -3.1008337 -0.56442207
-1.7053885 -3.0817597 -0.56283873
-1.7344179 -3.0893173 -0.56616372
-1.7665361 -3.1017821 -0.57043862
-1.7667645 -3.0583961 -0.56442207
-1.7884924 -3.0526094 -0.56537205
-1.8076935 -3.0424268 -0.56553036
-1.8120582 -3.0075979 -0.56109715
-1.8258454 -2.9888396 -0.55967212
-1.8410302 -2.9725437 -0.55872214
-1.8545089 -2.9536657 -0.55729717
-1.8927457 -2.9738832 -0.56331372
-1.9211285 -2.9779775 -0.56632203
-1.9593595 -2.9967096 -0.57218027
-1.9553463 -2.9508858 -0.56568867
-1.9376334 -2.8855531 -0.55539721
-2.0052991 -2.9470756 -0.56964695
-2.0166178 -2.9249616 -0.567747
-2.0192587 -2.8906786 -0.56347209
-2.0198443 -2.8540564 -0.55872214
-2.0476754 -2.8560529 -0.56157213
-2.0756066 -2.8578143 -0.56442207
-2.0890064 -2.8394578 -0.56331372
-2.1164205 -2.840045 -0.56600535
-2.1278579 -2.8191249 -0.56442207
-2.1343205 -2.7918966 -0.56157213
-2.1544337 -2.7826517 -0.56236374
-2.1897464 -2.7926888 -0.5671137
-2.2037706 -2.7753341 -0.56632203
-2.2096198 -2.74791 -0.56347209
-2.2332978 -2.7427223 -0.56521368
-2.2463155 -2.7243965 -0.5642637
-2.2579272 -2.704499 -0.5629971
-2.2630041 -2.6770213 -0.56014711
-2.2832401 -2.6675861 -0.56109715
-2.3053854 -2.6602411 -0.56252211
-2.3053832 -2.6274917 -0.55856383
-2.320806 -2.6125586 -0.55840552
-2.3400943 -2.6019399 -0.55919713
-2.332747 -2.561981 -0.55365556
-2.3671629 -2.5679457 -0.55808884
-2.3875911 -2.5584254 -0.55919713
-2.4093475 -2.5501864 -0.56062216
-2.4249499 -2.5353549 -0.56062216
-2.4514513 -2.5317767 -0.56315541
-2.4634836 -2.5131619 -0.56236374
-2.4712067 -2.4902899 -0.56062216
-2.4780421 -2.4667218 -0.55872214
-2.5170705 -2.4750061 -0.56410539
-2.5400009 -2.4670818 -0.56584704
-2.5415528 -2.4384632 -0.56283873
-2.554317 -2.4207852 -0.56236374
-2.5885861 -2.4232845 -0.56663871
-2.5867314 -2.3919384 -0.5629971
-2.5853193 -2.3613732 -0.55951381
-2.5924277 -2.3388519 -0.55793053
-2.6133649 -2.3288126 -0.5593555
-2.6446533 -2.3277366 -0.5629971
-2.634294 -2.2900896 -0.55777216
-2.6677749 -2.2906053 -0.56188875
-2.6569269 -2.2531207 -0.55666387
-2.6964402 -2.2583289 -0.56204712
-2.6995938 -2.2329316 -0.55983049
-2.7155383 -2.218199 -0.56030548
-2.7583029 -2.2250507 -0.56632203
-2.7765374 -2.2117748 -0.56727201
-2.778415 -2.1855409 -0.56489706
-2.790993 -2.167846 -0.56473869
-2.7979739 -2.1458733 -0.56347209
-2.8118753 -2.1292608 -0.5636304
-2.7956259 -2.0900939 -0.55777216
-2.8163424 -2.078764 -0.5593555
-2.8505917 -2.0771427 -0.5636304
-2.8664894 -2.0619187 -0.5642637
-2.8734512 -2.0402904 -0.56315541
-2.8802559 -2.0186543 -0.56204712
-2.9023328 -2.0076833 -0.56394708
-2.9072576 -1.9848273 -0.56252211
-2.9128304 -1.9625379 -0.56125546
-2.9289286 -1.9473614 -0.56204712
-2.9383457 -1.9277283 -0.56157213
-2.9575789 -1.9144912 -0.5629971
-2.9218349 -1.8660183 -0.55397224
-2.9582927 -1.8638434 -0.55872214
-2.9822533 -1.8534738 -0.56109715
-2.988519 -1.8320442 -0.56014711
-2.9971688 -1.8121401 -0.55967212
-2.9912694 -1.7836033 -0.55650556
-3.0183299 -1.7747234 -0.55951381
-3.0496645 -1.768054 -0.56331372
-3.0510254 -1.7439191 -0.56157213
-3.0565071 -1.7222577 -0.56062216
-3.0601113 -1.699636 -0.5593555
-3.0748131 -1.6831977 -0.56014711
-3.1094162 -1.6774238 -0.56458038
-3.1231377 -1.6601669 -0.56521368
-3.1087732 -1.6281475 -0.56078047
-3.0950119 -1.59682 -0.55650556
-3.1126742 -1.5818247 -0.55793053
-3.1240876 -1.5635796 -0.55824715
-3.1513364 -1.5531096 -0.56141376
-3.1696906 -1.5380541 -0.5629971
-3.1683764 -1.5134699 -0.56109715
-3.1543703 -1.4830793 -0.55698055
-3.1893988 -1.4757189 -0.56157213
-3.1921031 -1.4532578 -0.56046379
-3.1910472 -1.4292053 -0.55872214
-3.222347 -1.4195484 -0.56268042
-3.2328086 -1.4005346 -0.5629971
-3.225898 -1.3740952 -0.56030548
-3.2360899 -1.3550382 -0.56062216
-3.2525613 -1.3385377 -0.56204712
-3.264375 -1.3200356 -0.56268042
-3.2659895 -1.2974296 -0.56157213
-3.2738891 -1.2773653 -0.56157213
-3.2853534 -1.2586659 -0.56220543
-3.307802 -1.2440438 -0.56473869
-3.3292677 -1.2288517 -0.5671137
-3.3265326 -1.204703 -0.56537205
-3.3301401 -1.1829473 -0.56473869
-3.3410659 -1.1637906 -0.56537205
-3.3434715 -1.1416732 -0.56458038
-3.3532231 -1.1220764 -0.56505537
-3.3609831 -1.1017878 -0.56521368
-3.3545182 -1.07692 -0.5629971
-3.364831 -1.0575006 -0.5636304
-3.3920195 -1.0432186 -0.5671137
-3.39552 -1.0215329 -0.56663871
-3.4111967 -1.0034649 -0.56822199
-3.4191875 -0.98306084 -0.56853867
-3.4137478 -0.95885926 -0.56663871
-3.4214714 -0.93841708 -0.56695533
-3.4367032 -0.91995829 -0.56853867
-3.4518368 -0.9013477 -0.57012194
-3.4735696 -0.88429058 -0.57281357
-3.4770133 -0.86248517 -0.57249689
-3.4716823 -0.83858496 -0.57075524
-3.4969478 -0.8220107 -0.57408023
-3.5134764 -0.80317801 -0.57598019
-3.5376165 -0.78588587 -0.5791468
-3.5143812 -0.75812846 -0.57455522
-3.4967384 -0.73189944 -0.57091361
-3.5011635 -0.71043009 -0.57091361
-3.5258029 -0.69293112 -0.57423854
-3.5299881 -0.67128414 -0.57423854
-3.5340407 -0.64961189 -0.57423854
-3.5282381 -0.62619042 -0.57265526
-3.5407732 -0.60602838 -0.57408023
-3.5453992 -0.58445174 -0.57423854
-3.5606213 -0.56454116 -0.5761385
-3.5610898 -0.54223734 -0.57566351
-3.5565333 -0.51923609 -0.57439685
-3.5645421 -0.49808666 -0.57518852
-3.5704672 -0.47659743 -0.57566351
-3.5645089 -0.4535594 -0.57423854
-3.5613434 -0.43096811 -0.57328856
-3.5835397 -0.41135871 -0.57645518
-3.5820699 -0.38893673 -0.57582182
-3.5667081 -0.36514145 -0.57297188
-3.5610185 -0.34249398 -0.57170528
-3.581738 -0.32231766 -0.57471353
-3.6052949 -0.30214706 -0.57819682
-3.5992055 -0.2794089 -0.57693017
-3.5732758 -0.25535062 -0.57249689
-3.55704 -0.2322638 -0.56964695
-3.5603695 -0.21055029 -0.56996363
-3.5763843 -0.18948285 -0.57233858
-3.5794525 -0.16762725 -0.57265526
-3.6040914 -0.1466226 -0.57645518
-3.590121 -0.12399536 -0.57408023
-3.5977232 -0.10216015 -0.57518852
-3.6545496 -0.081331335 -0.58421338
-3.64412 -0.058731638 -0.58247173
-3.6207156 -0.036135796 -0.57867181
-3.5833488 -0.013777209 -0.57265526
-3.619899 0.0082963444 -0.57851344
-3.5921345 0.030272543 -0.57408023
-3.578059 0.052110616 -0.57186359
-3.5796459 0.074105203 -0.57218027
-3.611696 0.096944675 -0.57740515
-3.650507 0.12040854 -0.58373839
-3.6496997 0.14280537 -0.58373839
-3.6615775 0.16577826 -0.58579665
-3.6476724 0.18758205 -0.58373839
-3.6582816 0.21064213 -0.58563834
-3.65692 0.23308496 -0.58563834
-3.6564062 0.25558794 -0.58579665
-3.627202 0.2759195 -0.58136338
-3.6352813 0.29898039 -0.58294672
-3.6382964 0.32171562 -0.58373839
-3.6392026 0.34431294 -0.58421338
-3.6822121 0.37119484 -0.59149653
-3.6985188 0.39577889 -0.59450483
-3.6881719 0.41757593 -0.59323817
-3.6727948 0.43867511 -0.59117991
-3.6563187 0.45947817 -0.58896327
-3.648536 0.4812583 -0.5881716
-3.6464925 0.50377142 -0.58832997
-3.676559 0.53093696 -0.59371316
-3.6615155 0.55171967 -0.59181321
-3.6785455 0.57739258 -0.59513813
-3.6798058 0.6007486 -0.5959298
-3.6789708 0.62381154 -0.59640479
-3.664377 0.64449143 -0.59466314
-3.6166413 0.65899551 -0.5875383
-3.6290245 0.68428582 -0.59022993
-3.6809673 0.71750063 -0.5994131
-3.6764953 0.74007314 -0.5994131
-3.6448164 0.75699389 -0.59497982
-3.626586 0.77644891 -0.59276319
-3.6362166 0.80187708 -0.59513813
-3.6938152 0.8383832 -0.60542965
-3.5962954 0.83947867 -0.59022993
-3.5853159 0.86014688 -0.58927995
-3.6537902 0.9003247 -0.60147136
-3.6501117 0.9232114 -0.60178804
-3.6109281 0.93690914 -0.59624648
-3.5974777 0.95701647 -0.59497982
-3.5953481 0.98011112 -0.59561312
-3.6206496 1.010918 -0.60083807
-3.5640633 1.0187293 -0.59244657
-3.6695697 1.0732937 -0.61112952
-3.6610231 1.0952235 -0.61081284
-3.6674526 1.1217105 -0.61302948
-3.6237471 1.1327014 -0.60685462
-3.623313 1.1570178 -0.60796291
-3.702507 1.2073973 -0.62252933
-3.6444407 1.213248 -0.61397946
-3.6219697 1.2305042 -0.6114462
-3.5966258 1.2465602 -0.6084379
-3.5889094 1.2686051 -0.6084379
-3.6163552 1.3033261 -0.61445445
-3.5999489 1.3224264 -0.61302948
-3.5825195 1.3410283 -0.6114462
-3.5899074 1.3689668 -0.61413783
-3.5934048 1.3956163 -0.6161961
-3.5976284 1.4227232 -0.61841273
-3.598906 1.4488277 -0.62015438
-3.573503 1.4641435 -0.61730438
-3.5826786 1.4936428 -0.620471
-3.5689013 1.5136695 -0.61967939
-3.5740519 1.541798 -0.62221265
-3.5798955 1.5704433 -0.62490427
-3.5701921 1.5923796 -0.62490427
-3.5603542 1.6142558 -0.62490427
-3.5620396 1.6414442 -0.62696254
-3.5358057 1.6557313 -0.62411261
-3.5327127 1.6807897 -0.62537926
-3.5436683 1.7127478 -0.62917918
-3.541069 1.7383758 -0.63060415
-3.4932234 1.7415651 -0.6239543
-3.5168273 1.7803612 -0.63012916
-3.5242782 1.8113863 -0.63345408
-3.5201001 1.8366312 -0.63472074
-3.5166175 1.8623549 -0.63614571
-3.5077331 1.8852999 -0.6366207
-3.487431 1.9020592 -0.63503742
-3.4877892 1.9301158 -0.63725406
-3.486212 1.9572814 -0.63915402
-3.4449661 1.9620196 -0.63377076
-3.4106336 1.9702775 -0.62965417
-3.4129624 1.9996541 -0.6323458
-3.407419 2.0245931 -0.63361245
-3.3864751 2.0403664 -0.63202912
-3.3840027 2.0672848 -0.63392907
-3.3813272 2.094249 -0.63582909
-3.3859732 2.1259842 -0.63915402
-3.3886907 2.1567943 -0.64216226
-3.3778822 2.179152 -0.64263725
-3.3437881 2.1863272 -0.63867903
-3.3286641 2.2057123 -0.63836235
-3.2970345 2.2139843 -0.63487905
-3.3021622 2.2469497 -0.63852066
-3.3208277 2.2895896 -0.64485389
-3.3261423 2.3234947 -0.64865381
-3.3223 2.3512757 -0.65071213
-3.2853429 2.3555059 -0.64627886
-3.2748222 2.3785214 -0.64707053
-3.2832296 2.4155412 -0.65166211
-3.2691381 2.4362311 -0.65182042
-3.2462475 2.4502954 -0.65023714
-3.2272298 2.467169 -0.64944547
-3.2050047 2.4814839 -0.64802051
-3.1967108 2.5065866 -0.64944547
-3.1820438 2.5267682 -0.64960378
-3.1664798 2.5462451 -0.64960378
-3.1707029 2.5818377 -0.65372038
-3.1525161 2.5993595 -0.65324539
-3.1319599 2.614857 -0.65229541
-3.1181185 2.6359375 -0.6527704
-3.101136 2.6543782 -0.65261209
-3.1243355 2.7076313 -0.66100359
-3.1210217 2.7384737 -0.66385353
-3.0997312 2.7536376 -0.66290355
-3.0666268 2.7580781 -0.65942031
-3.075197 2.8001113 -0.66496187
-3.0586839 2.8195968 -0.66512018
-3.0369945 2.8342693 -0.66417021
-3.058301 2.8894699 -0.67272007
-3.0362332 2.9040859 -0.67177004
-3.0226126 2.9267824 -0.67272007
-2.9756894 2.9169333 -0.66622847
-2.9486246 2.9260948 -0.66417021
-2.9389737 2.9525299 -0.66607016
-2.939492 2.9895184 -0.67034507
-2.9204054 3.0067899 -0.67018676
-2.9217238 3.0453162 -0.67477834
-2.8961916 3.0560191 -0.67319506
-2.8638906 3.059315 -0.67002845
-2.849087 3.0811799 -0.67097843
-2.8367863 3.1058946 -0.67256171
-2.8064322 3.1107783 -0.66987008
-2.7899194 3.1308885 -0.67050344
-2.7758746 3.153878 -0.67177004
-2.7746074 3.1917171 -0.67620331
-2.7704074 3.2266619 -0.68000323
-2.7601352 3.2548969 -0.68237817
-2.7280669 3.2573881 -0.67936993
-2.6992188 3.2634134 -0.67715329
-2.6891375 3.2921498 -0.67968661
-2.6905825 3.3354876 -0.68522817
-2.6712959 3.3534784 -0.68554479
-2.6470068 3.3651495 -0.68459481
-2.6263087 3.3813279 -0.68459481
-2.5910919 3.3785741 -0.68079489
-2.5560081 3.3755162 -0.67699498
-2.5695364 3.4370055 -0.68617815
-2.5560207 3.4630351 -0.68823642
-2.5382128 3.4834416 -0.68918639
-2.5121789 3.4925375 -0.68791974
-2.4924164 3.5103014 -0.68839478
-2.470264 3.52472 -0.68823642
-2.4497135 3.541435 -0.68855309
-2.4485345 3.5865734 -0.69441134
-2.4253781 3.5998919 -0.69409466
-2.4021509 3.6130614 -0.69377798
-2.3853519 3.635989 -0.69536132
-2.3592415 3.6447542 -0.69425297
-2.3426788 3.6683156 -0.69599462
-2.3117058 3.6692538 -0.69346136
-2.2870636 3.6800146 -0.692828
-2.2835319 3.7251265 -0.69868624
-2.2652292 3.7466729 -0.70011121
-2.2275345 3.7359064 -0.69551963
-2.2130766 3.7639742 -0.69821125
-2.1919203 3.7808995 -0.69884455
-2.1667199 3.7908485 -0.69821125
-2.1477809 3.8118145 -0.69963622
-2.1372943 3.848228 -0.70391113
-2.1155381 3.8647342 -0.70454448
-2.1025655 3.89763 -0.70818603
-2.0725865 3.899123 -0.70612776
-2.0499971 3.914391 -0.70660275
-2.0313721 3.9374259 -0.70850271
-2.0152249 3.965661 -0.71135265
-1.9935054 3.9832497 -0.71230263
-1.9611713 3.9794641 -0.70945269
-1.9410268 4.0003066 -0.71103603
-1.9334658 4.0477805 -0.7173692
-1.925815 4.0962048 -0.72386074
-1.9006449 4.107944 -0.72386074
-1.8565867 4.0781903 -0.71657759
-1.8484769 4.1273537 -0.72322744
-1.8235151 4.1395221 -0.72338575
-1.7965114 4.1470089 -0.72275245
-1.7501405 4.1088982 -0.71420258
-1.7271836 4.1250243 -0.71515262
-1.7040948 4.1410232 -0.7161026
-1.6845752 4.1660476 -0.71863586
-1.6626258 4.1854825 -0.72021919
-1.6383482 4.1992846 -0.72085249
-1.5987771 4.1732979 -0.71467757
-1.5668849 4.1663938 -0.71182764
-1.5488112 4.1963081 -0.71531093
-1.5223616 4.203876 -0.71499425
-1.5100867 4.251286 -0.72148579
-1.486246 4.2669992 -0.72259414
-1.4632262 4.2853827 -0.72417742
-1.4425428 4.3111348 -0.72702736
-1.415448 4.3180285 -0.72671074
-1.3828915 4.3078294 -0.72354412
-1.3469619 4.2860899 -0.71847755
-1.3322451 4.3320255 -0.72481072
-1.3056393 4.3401184 -0.72481072
-1.2806557 4.3537316 -0.72576076
-1.2623733 4.3909254 -0.73066896
-1.2247298 4.3605638 -0.72433573
-1.201084 4.3794231 -0.72623575
-1.1810818 4.4124637 -0.73051065
-1.1557308 4.4263153 -0.73161894
-1.1312286 4.4438491 -0.73336059
-1.1056038 4.4574151 -0.73446888
-1.0789281 4.4669943 -0.73494387
-1.0537577 4.4831424 -0.7365272
-1.0262297 4.4895239 -0.7365272
-1.001232 4.5073032 -0.73842716
-0.97376496 4.5143266 -0.73858547
-0.94645172 4.5221496 -0.73890215
-0.91986418 4.5336781 -0.73985213
-0.89012533 4.5295482 -0.73826885
-0.86434412 4.5455947 -0.74001044
-0.83982688 4.5692639 -0.74301875
-0.81160212 4.573359 -0.74286044
-0.7816937 4.5675468 -0.74111879
-0.75573993 4.5849228 -0.74317706
-0.72975689 4.6031265 -0.74539369
-0.70357883 4.6211834 -0.74761033
-0.67592341 4.6302986 -0.748402
-0.64749962 4.6343594 -0.748402
-0.6215325 4.6568403 -0.75141025
-0.59568733 4.6821156 -0.75489354
-0.5662359 4.679801 -0.75394356
-0.54009885 4.705749 -0.75758517
-0.50951052 4.6932688 -0.75505185
-0.47989967 4.6884484 -0.75378519
-0.44885579 4.667716 -0.74998528
-0.41852665 4.6516972 -0.74697703
-0.39912197 4.7633958 -0.7645517
-0.36904693 4.7549257 -0.76281005
-0.34190333 4.7856627 -0.76740164
-0.31169716 4.7748613 -0.76534331
-0.27971518 4.7313433 -0.75806016
-0.2508876 4.7369146 -0.75869346
-0.2233858 4.7718997 -0.76407671
-0.19474284 4.7889652 -0.76660997
-0.16532063 4.7890835 -0.76645166
-0.13665913 4.8156691 -0.77056825
-0.10691106 4.8075328 -0.76914328
-0.077458106 4.8110604 -0.76961827
-0.047956116 4.8134193 -0.76993489
-0.018454164 4.8225093 -0.77135986
0.011138879 4.8235192 -0.77151823
0.040500302 4.7957149 -0.76708496
0.070156664 4.8111725 -0.76961827
0.099799179 4.8165741 -0.77056825
0.12956373 4.8237672 -0.77183485
0.15880057 4.812026 -0.77009326
0.18867169 4.8198414 -0.77151823
0.21922611 4.8402929 -0.77500147
0.24810901 4.8230791 -0.77246821
0.27627751 4.7968221 -0.76850992
0.31167814 4.888648 -0.78355134
0.3399455 4.8620191 -0.77959305
0.37119615 4.8785477 -0.78260136
0.40209538 4.8879871 -0.78450131
0.43260217 4.8913293 -0.78545129
0.46195513 4.8817019 -0.784343
0.49328741 4.8925295 -0.78655958
0.52508533 4.9061007 -0.78925121
0.55784625 4.926333 -0.79305112
0.58642286 4.9090915 -0.79083455
0.61751884 4.9132385 -0.79210114
0.64830023 4.9142513 -0.79289281
0.67790055 4.9062686 -0.79225951
0.70742732 4.898108 -0.79162616
0.73511326 4.8780532 -0.7890929
0.76564324 4.8773527 -0.7897262
0.79491913 4.8686647 -0.7890929
0.81982374 4.8344913 -0.784343
0.85682958 4.8711853 -0.79115117
0.88493186 4.856122 -0.78956789
0.9234969 4.8971744 -0.79716772
0.95296109 4.8885083 -0.79669273
0.97942996 4.8651457 -0.79384279
1.0114728 4.8696785 -0.79558444
1.0489845 4.8991036 -0.80144268
1.0873203 4.9301791 -0.80761755
1.1142716 4.9089713 -0.8052426
1.1356155 4.8645425 -0.79906768
1.1698202 4.8757253 -0.80207598
1.2023144 4.8790011 -0.80381763
1.2261744 4.8476019 -0.79985934
1.2553995 4.8380752 -0.79954267
1.2830305 4.8226476 -0.79827607
1.3276633 4.8699355 -0.80745924
1.3572541 4.8607469 -0.80730087
1.3797251 4.826695 -0.80302596
1.4162462 4.8418298 -0.80698425
1.4544202 4.8614268 -0.81173414
1.4790226 4.8354158 -0.8088842
1.5148517 4.8460398 -0.81220913
1.5451587 4.8385348 -0.81252581
1.5677762 4.8073726 -0.8088842
1.6087859 4.8323245 -0.81474239
1.6323702 4.8045998 -0.81173414
1.6534113 4.7702374 -0.80761755
1.6862701 4.7702422 -0.80935919
1.7355981 4.8155384 -0.81885898
1.76307 4.7992377 -0.817909
1.7931768 4.7901783 -0.81822568
1.8077561 4.7403383 -0.81157583
1.846819 4.7549276 -0.81600904
1.8665177 4.7196336 -0.81189245
1.8873281 4.6879416 -0.80840921
1.9430147 4.7420559 -0.81980896
1.9667548 4.7172856 -0.81759238
1.9995184 4.7142186 -0.81917566
2.0323184 4.710927 -0.82075894
2.0655496 4.7083144 -0.82250059
2.1008368 4.7099795 -0.8250339
2.1272502 4.6916046 -0.82408392
2.1572373 4.6811543 -0.82455891
2.18927 4.674983 -0.82582551
2.2162168 4.6578956 -0.82519221
2.243896 4.6424313 -0.82487553
2.2649412 4.6135087 -0.82218397
2.3108308 4.6348691 -0.82851714
2.352607 4.6470304 -0.83326709
2.3824306 4.6351418 -0.83374208
2.4062586 4.6116824 -0.83215874
2.411864 4.5540762 -0.82440054
2.4523845 4.5626736 -0.82867551
2.4893184 4.5640092 -0.83168375
2.5072346 4.5305076 -0.82835883
2.5412707 4.5262308 -0.8304171
2.5900099 4.5474448 -0.83722532
2.6228034 4.5400162 -0.83880866
2.6421247 4.5093555 -0.83611703
2.67731 4.5057912 -0.83849198
2.7145894 4.5053473 -0.84150022
2.7401235 4.4852357 -0.84086692
2.7790318 4.4868045 -0.84435022
2.8091352 4.4738493 -0.84514183
2.8381243 4.4590273 -0.84561682
2.8632894 4.4382105 -0.84498352
2.8731751 4.394114 -0.83991694
2.9022646 4.379694 -0.84055024
2.9197249 4.3478689 -0.83785868
2.9396818 4.3200765 -0.83595866
2.9700572 4.3076477 -0.83706701
3.0026531 4.2982464 -0.83880866
3.0460839 4.3039188 -0.84355855
3.0781887 4.2931719 -0.84514183
3.1021519 4.2710085 -0.84450853
3.1265445 4.2495074 -0.84403354
3.1578705 4.2373686 -0.84545851
3.1802418 4.2131844 -0.84450853
3.2030346 4.1896691 -0.84371686
3.2256589 4.1660337 -0.84292525
3.2663934 4.1655869 -0.84688348
3.307857 4.1655698 -0.85100007
3.327785 4.1382699 -0.8495751
3.3531144 4.1177731 -0.8495751
3.3959069 4.1184511 -0.85400838
3.4166834 4.0922313 -0.85290003
3.435991 4.0644035 -0.85147506
3.4711387 4.0552459 -0.85400838
3.4959559 4.0338707 -0.85400838
3.521944 4.0138283 -0.854325
3.5497849 3.9958334 -0.85511667
3.5709345 3.9703069 -0.854325
3.5925694 3.945401 -0.8536917
3.613364 3.9196534 -0.85290003
3.6400414 3.9002955 -0.85353339
3.6740766 3.8886523 -0.85590833
3.7135661 3.8824461 -0.85954994
3.7517433 3.8744822 -0.86287487
3.7719898 3.8478637 -0.8620832
3.8059621 3.8351591 -0.86445814
3.8287225 3.8110375 -0.86429983
3.8710454 3.8061633 -0.86857474
3.9226596 3.8098552 -0.87490797
3.9067733 3.7481201 -0.86619979
3.9246807 3.7193239 -0.8650915
3.9546368 3.7019198 -0.86667478
3.988152 3.6876395 -0.86904973
4.0136204 3.6657627 -0.86968309
4.0455685 3.6496644 -0.87174135
4.056828 3.6149197 -0.86936641
4.0804148 3.591264 -0.86968309
4.1135521 3.5758755 -0.87205803
4.1391616 3.5537841 -0.87284964
4.1307645 3.5027773 -0.86651647
4.1574788 3.4818029 -0.86762476
4.1741991 3.4524519 -0.86667478
4.1991282 3.4298975 -0.86746645
4.2323914 3.4139857 -0.86999971
4.2671614 3.3990247 -0.87284964
4.2856088 3.3709469 -0.87237465
4.3093314 3.3470097 -0.87300801
4.3360553 3.3253119 -0.87427467
4.3492928 3.2932796 -0.87284964
4.3654637 3.2635751 -0.87205803
4.3750787 3.2291055 -0.86999971
4.3908195 3.1992929 -0.8692081
4.3927321 3.1596076 -0.8657248
4.4281387 3.1440265 -0.86889142
4.4627104 3.1275628 -0.87189966
4.4939981 3.1085463 -0.87427467
4.5203266 3.0859232 -0.87569964
4.5309873 3.0526123 -0.8741163
4.5603218 3.0318594 -0.87617463
4.5920491 3.0124857 -0.87870789
4.619565 2.990154 -0.88044953
4.637825 2.9617527 -0.88044953
4.6458855 2.9269245 -0.87854958
4.6780148 2.907222 -0.8812412
4.6940813 2.8774319 -0.88092452
4.7158732 2.8511293 -0.88171619
4.7841649 2.8524764 -0.89121598
4.7888098 2.8155618 -0.88884103
4.7812223 2.7717652 -0.88424945
4.7921386 2.7389464 -0.88314116
4.8148766 2.7128835 -0.88424945
4.8340211 2.684727 -0.88472444
4.8443403 2.6516969 -0.88361615
4.874424 2.6294224 -0.88614941
4.8965693 2.6027079 -0.88725775
4.9150715 2.5739882 -0.88773274
4.9263849 2.5415182 -0.88694108
4.929563 2.5049808 -0.88472444
4.9501381 2.4773376 -0.88567442
4.973217 2.4508452 -0.88709939
5.0014873 2.426749 -0.88947433
5.0207381 2.3981423 -0.890266
5.0228481 2.3614099 -0.88804936
5.0417237 2.3326185 -0.88884103
5.071219 2.308593 -0.89153266
5.0961022 2.2822757 -0.89343262
5.1118178 2.2517595 -0.8937493
5.1219139 2.2187819 -0.89311594
5.129981 2.1849914 -0.89216596
5.1569529 2.1591928 -0.89454091
5.1838012 2.1331453 -0.89691591
5.2041154 2.1042585 -0.89818251
5.2004113 2.0657265 -0.89533257
5.2277064 2.0395198 -0.89786589
5.2594857 2.0148218 -0.90119082
5.2717495 1.9825121 -0.90119082
5.291225 1.9528626 -0.90245748
5.3040366 1.9206957 -0.90261579
5.3129301 1.8871232 -0.9021408
5.3411942 1.8603333 -0.90499073
5.3319507 1.8205073 -0.9015075
2.0338702 0.68069112 -0.34196785
2.0342553 0.66696864 -0.34133452
2.0317285 0.65236193 -0.3402262
2.0356932 0.63988316 -0.3402262
2.0320308 0.62505883 -0.33895957
2.0339367 0.61201006 -0.33864293
2.0367062 0.59923989 -0.33848459
2.0412939 0.58700436 -0.33864293
2.0448573 0.5744682 -0.33864293
2.0512002 0.56269366 -0.33911791
5.4197006 1.4506285 -0.89770752
5.5211701 1.4415379 -0.91306561
5.5098171 1.4025193 -0.90974063
5.5058603 1.3655958 -0.90768236
5.5035782 1.3292373 -0.90594071
5.5058632 1.2940878 -0.90499073
5.5368013 1.2655594 -0.90879065
5.5184374 1.2257828 -0.90451574
5.5316458 1.193148 -0.90546572
5.5427284 1.1599929 -0.90609908
5.5710306 1.1302798 -0.90958232
5.5701103 1.0945525 -0.90831566
5.5679913 1.0586948 -0.90689069
5.5724401 1.0241535 -0.90657407
5.5863972 0.9913221 -0.90784067
5.5982141 0.95802504 -0.90879065
5.6137295 0.92526233 -0.91037399
5.6124749 0.88971788 -0.90926564
5.6236849 0.85615504 -0.91021562
5.6337175 0.8223455 -0.91100729
5.652348 0.78967416 -0.91322392
5.676661 0.75758862 -0.91639054
5.6606336 0.72012717 -0.91306561
5.6737676 0.68644756 -0.91449058
5.6906252 0.65308404 -0.91654885
5.7013969 0.6189003 -0.9176572
5.6972289 0.58310163 -0.91639054
5.6987333 0.54794419 -0.91607386
5.7314911 0.51561993 -0.92082375
5.7374988 0.48068962 -0.92129874
5.7560906 0.44669759 -0.92383206
5.7597089 0.41144082 -0.92399037
5.7680364 0.37647775 -0.92494035
5.7761517 0.34142798 -0.92589033
5.795886 0.3069188 -0.92874032
5.8075237 0.27181134 -0.9303236
5.8100686 0.236212 -0.93048191
5.8045006 0.20031956 -0.92937362
5.8036466 0.16464412 -0.92905694
5.7897406 0.128702 -0.926682
5.7637653 0.092746638 -0.92240709
5.7829852 0.057565019 -0.92541534
5.801002 0.022147281 -0.92826533
4.5673823 0.011925075 -0.82208163
4.542767 -0.016016752 -0.81764168
4.5288067 -0.043759145 -0.81515527
4.244082 -0.067093261 -0.76382881
3.0413024 -0.066925421 -0.54680157
3.0221438 -0.08506307 -0.54342717
3.0087793 -0.10316925 -0.54111838
3.0051396 -0.12151016 -0.54058558
3.0092525 -0.140175 -0.54147357
3.0211115 -0.15930781 -0.54378235
3.0436552 -0.17922549 -0.5480448
3.0837438 -0.20057188 -0.55550396
4.5342884 -0.3225714 -0.81817442
4.5165248 -0.34917569 -0.81533283
4.4986057 -0.3755742 -0.81249124
3.1602283 -0.28356165 -0.57042241
3.131979 -0.3004154 -0.56562716
3.1222441 -0.318829 -0.56420636
3.1221859 -0.33819231 -0.56456161
3.1229856 -0.35767865 -0.56509441
3.1285481 -0.37777644 -0.56651521
3.1535072 -0.40043133 -0.57148796
4.4659791 -0.59469008 -0.81089282
4.3930426 -0.6124438 -0.79828322
4.3892021 -0.63938749 -0.79828322
4.384223 -0.66615945 -0.79810566
4.3858852 -0.69396996 -0.79917127
4.3883419 -0.72198552 -0.80041444
4.377039 -0.74773926 -0.79917127
4.3733377 -0.77475369 -0.79934883
4.3394623 -0.79624933 -0.79402083
4.348031 -0.82542843 -0.79650724
4.3428845 -0.85209191 -0.79650724
4.3144255 -0.87403715 -0.79224485
4.2829719 -0.89506185 -0.78744966
4.2850957 -0.9229815 -0.78887045
4.2745476 -0.94819206 -0.78798246
4.2465816 -0.96936834 -0.78389764
4.2309728 -0.99315912 -0.78212166
4.1874881 -1.0101068 -0.77519524
4.1726141 -1.0336533 -0.77359682
4.1690545 -1.0599636 -0.77412963
4.1500926 -1.0822979 -0.77182084
4.1566839 -1.1112984 -0.77430725
4.1469393 -1.1360029 -0.77377445
4.112412 -1.1537218 -0.76862401
4.1043096 -1.1786619 -0.76844645
4.0970001 -1.2038233 -0.76844645
4.0904789 -1.2292223 -0.76862401
4.1204896 -1.2658523 -0.77572805
4.1013775 -1.2875758 -0.77359682
4.0774684 -1.3076106 -0.77057761
4.0375686 -1.3221966 -0.76453924
3.9920447 -1.3344716 -0.75743526
4.0052047 -1.3662454 -0.76152003
3.9874513 -1.3875623 -0.75974405
3.9621675 -1.406081 -0.75654721
3.9580927 -1.4320393 -0.75743526
3.9270704 -1.4481305 -0.75317281
3.9144258 -1.4708153 -0.75246245
3.916357 -1.4990258 -0.75459361
3.9052515 -1.5223134 -0.75423843
3.871139 -1.5364486 -0.74944323
3.8187509 -1.5428526 -0.74109602
3.8128531 -1.5677514 -0.74180645
3.8095174 -1.5937748 -0.74304962
3.8096275 -1.6213572 -0.74500322
3.7996075 -1.6447022 -0.74500322
3.8029559 -1.67393 -0.74766725
3.7755451 -1.6895981 -0.74429286
3.7651067 -1.7127324 -0.74429286
3.7795398 -1.747362 -0.74926561
3.7420239 -1.7579706 -0.74393761
3.699192 -1.7656424 -0.737544
3.7015722 -1.7947451 -0.74020803
3.6860757 -1.8152505 -0.73932004
3.6695864 -1.8351935 -0.73825443
3.6565018 -1.8567842 -0.73789924
3.6354175 -1.8742262 -0.73594564
3.6343129 -1.9019715 -0.73807681
3.6277893 -1.9270045 -0.73914242
3.6106992 -1.9464269 -0.73807681
3.5788288 -1.9576857 -0.73399204
3.530607 -1.9595559 -0.72653282
3.5056534 -1.9739417 -0.72386885
3.5122766 -2.00615 -0.72777605
3.4964945 -2.0256906 -0.72706562
3.4712713 -2.0396302 -0.72440165
3.4527726 -2.0573657 -0.72315842
3.4459803 -2.0820744 -0.72440165
3.4255872 -2.0985539 -0.72280324
3.4235151 -2.1262815 -0.72511202
3.4079051 -2.1456752 -0.72457922
3.3631494 -2.1464317 -0.71783042
3.3242981 -2.1504612 -0.7123248
3.2986944 -2.1627266 -0.70966083
3.2788043 -2.1785703 -0.70824003
3.2563949 -2.1926031 -0.70628643
3.2786522 -2.2369409 -0.71410084
3.2608171 -2.2542188 -0.71321285
3.2041984 -2.2442689 -0.70380002
3.217658 -2.2832463 -0.70983845
3.2051861 -2.3040948 -0.71019363
3.1830318 -2.3179264 -0.70841759
3.1798382 -2.3455901 -0.710904
3.1543477 -2.3568125 -0.70841759
3.1327639 -2.3707793 -0.70681924
3.1298754 -2.3989351 -0.70948321
3.0987701 -2.4054246 -0.70575362
3.0684769 -2.4122317 -0.7022016
3.0412979 -2.4212091 -0.69936001
3.0363455 -2.4478521 -0.7016688
3.0037324 -2.452126 -0.69758403
2.9764924 -2.4604805 -0.69474244
2.9432254 -2.4635408 -0.69047999
2.9025249 -2.4599249 -0.68444163
2.9187477 -2.5045991 -0.69190079
2.9010959 -2.520525 -0.69136804
2.8789244 -2.5324297 -0.68976963
2.8596566 -2.5467749 -0.68888164
2.8125436 -2.5359418 -0.68124479
2.7954767 -2.5518248 -0.68088961
2.8028972 -2.5902991 -0.68657279
2.7538891 -2.5765264 -0.6784032
2.7265942 -2.5825496 -0.67556161
2.6787274 -2.5685866 -0.66756964
2.6607976 -2.5829186 -0.66703683
2.6617477 -2.6157482 -0.67129922
2.6498344 -2.6361947 -0.67236483
2.6322219 -2.6510077 -0.67200959
2.6214197 -2.6727285 -0.67343038
2.6104498 -2.6944163 -0.67485124
2.5863822 -2.7025635 -0.67289764
2.5596085 -2.7076569 -0.67023361
2.5510077 -2.7319415 -0.67236483
2.5462089 -2.7605615 -0.67556161
2.5292222 -2.7761328 -0.67556161
2.5147743 -2.7945251 -0.67627203
2.4367666 -2.7415078 -0.65975523
2.4406796 -2.7800696 -0.66543841
2.4261546 -2.7979667 -0.66614878
2.394855 -2.7963591 -0.66224164
2.379559 -2.8132548 -0.66277438
2.3635144 -2.8293128 -0.66312963
2.3423512 -2.8392076 -0.66206402
2.3255079 -2.8542895 -0.66224164
2.3104186 -2.8715713 -0.66295201
2.2456069 -2.8263726 -0.64927679
2.2355132 -2.8493879 -0.65140802
2.2324555 -2.8817198 -0.6556704
2.208153 -2.8867667 -0.6537168
2.1992972 -2.9120393 -0.65638083
2.1760921 -2.9183798 -0.65478241
2.1703987 -2.9483178 -0.658512
2.1516886 -2.9607837 -0.65833443
2.1271696 -2.9651358 -0.65638083
2.0901632 -2.9516323 -0.65052003
2.0691934 -2.9603691 -0.64963204
2.0498719 -2.9713898 -0.64927679
2.0282774 -2.9790313 -0.64821118
1.9989806 -2.9750857 -0.64465922
1.9926554 -3.0053375 -0.64856642
1.9687881 -3.0092733 -0.64679039
1.9566929 -3.0312173 -0.64892161
1.9407009 -3.0473163 -0.6498096
1.9177768 -3.0525012 -0.6483888
1.8808616 -3.0349369 -0.64217281
1.85553 -3.0355062 -0.63986403
1.8307705 -3.0367219 -0.6377328
1.826692 -3.0724266 -0.64288318
1.8177631 -3.1005547 -0.6464352
1.7952555 -3.1056864 -0.64519203
1.7659299 -3.09869 -0.64146239
1.7652055 -3.1420674 -0.64821118
1.7449392 -3.1511176 -0.647856
1.7142532 -3.1410351 -0.64359361
1.6730324 -3.1107633 -0.6352464
1.6622108 -3.1366205 -0.63844323
1.6538684 -3.1676953 -0.64270562
1.6339505 -3.1769087 -0.642528
1.605529 -3.1693184 -0.63897598
1.5706702 -3.1482921 -0.63275999
1.5409054 -3.1366735 -0.6284976
1.5096281 -3.1212654 -0.62352479
1.5010279 -3.1526811 -0.62796479
1.4833261 -3.1653962 -0.62867522
1.468823 -3.1851609 -0.63080639
1.4577938 -3.2129316 -0.63453603
1.4412624 -3.2290046 -0.63595682
1.419048 -3.2323811 -0.63489121
1.401529 -3.246448 -0.63595682
1.3577336 -3.1988261 -0.62494558
1.336185 -3.2025561 -0.62405759
1.3146417 -3.2061424 -0.6231696
1.2978879 -3.2214503 -0.6245904
1.284981 -3.246738 -0.62796479
1.2646785 -3.253644 -0.62778717
1.2362653 -3.2392781 -0.62352479
1.2160207 -3.2458813 -0.62334722
1.196761 -3.2551286 -0.62370241
1.1617318 -3.2207558 -0.61571038
1.1540983 -3.2621481 -0.62228161
1.1372874 -3.2784653 -0.62405759
1.1155647 -3.2807236 -0.6231696
1.0944798 -3.2847059 -0.6226368
1.0706383 -3.280134 -0.62050557
1.0672795 -3.3391321 -0.6304512
1.0450066 -3.339983 -0.62938559
1.0227637 -3.3406866 -0.62831998
0.9980092 -3.3327589 -0.62565601
0.97920108 -3.3444862 -0.62672162
0.94755489 -3.3116422 -0.61944002
0.92006004 -3.291805 -0.61464483
0.90140009 -3.3030846 -0.61571038
0.8839035 -3.3190131 -0.61766398
0.85832244 -3.304373 -0.6139344
0.83706403 -3.3057616 -0.61322397
0.82053864 -3.326122 -0.61606562
0.80195463 -3.3387487 -0.61748642
0.7711429 -3.2995279 -0.60931683
0.74739075 -3.2888436 -0.60647517
0.72677201 -3.291446 -0.60611999
0.70511711 -3.289108 -0.60487682
0.68993616 -3.3174589 -0.60931683
0.67384976 -3.3428524 -0.61322397
0.66087449 -3.3855574 -0.62032801
0.63771236 -3.3769782 -0.61801922
0.61326569 -3.3604977 -0.61428958
0.58203822 -3.3041103 -0.6032784
0.57033145 -3.3580687 -0.6125136
0.55226004 -3.3770437 -0.61535519
0.52984506 -3.3696754 -0.61340159
0.5081296 -3.3660517 -0.61215842
0.48379779 -3.3437839 -0.60754079
0.46273109 -3.3427904 -0.60683042
0.44440672 -3.3621516 -0.60984957
0.41896582 -3.3267367 -0.60292321
0.40100569 -3.3497643 -0.6066528
0.38033324 -3.3511841 -0.60647517
0.35955328 -3.3514974 -0.60611999
0.33937871 -3.3575568 -0.60683042
0.31914333 -3.3634949 -0.60754079
0.29876068 -3.3683305 -0.60807359
0.27751958 -3.3632352 -0.60683042
0.25650248 -3.3599682 -0.60594237
0.2367101 -3.3732588 -0.60807359
0.21399027 -3.3432214 -0.60239041
0.19392876 -3.3523309 -0.6038112
0.17269273 -3.3406818 -0.60150242
0.15237127 -3.3456106 -0.60221279
0.13145088 -3.3366494 -0.60043681
0.11054752 -3.3246071 -0.59812802
0.090602569 -3.3419461 -0.60114717
0.070219986 -3.3483424 -0.60221279
0.049791869 -3.3565824 -0.60363358
0.029125381 -3.3489523 -0.60221279
0.008578755 -3.3500516 -0.60239041
-0.011923607 -3.334296 -0.59954882
-0.032326009 -3.3282557 -0.5984832
-0.052716371 -3.3260267 -0.59812802
-0.073809788 -3.3571246 -0.6038112
-0.093830183 -3.3359501 -0.60008162
-0.1142639 -3.3343284 -0.599904
-0.13440438 -3.3256979 -0.5984832
-0.15430652 -3.313997 -0.5965296
-0.17546377 -3.3287115 -0.59937119
-0.19819088 -3.366869 -0.60647517
-0.21598062 -3.3213978 -0.5984832
-0.23558961 -3.309212 -0.5965296
-0.25573868 -3.3057418 -0.59617442
-0.27699837 -3.3158786 -0.59830558
-0.2984798 -3.3268592 -0.60061437
-0.31926244 -3.3288836 -0.6013248
-0.34077963 -3.3376312 -0.6032784
-0.36061785 -3.329607 -0.60221279
-0.37969977 -3.315599 -0.60008162
-0.3985056 -3.3005054 -0.59777278
-0.41280857 -3.2511361 -0.589248
-0.43806958 -3.288538 -0.5965296
-0.45986831 -3.2974844 -0.59866077
-0.47980919 -3.2926531 -0.59830558
-0.49911734 -3.2838092 -0.59723997
-0.51357156 -3.2447197 -0.5906688
-0.54001564 -3.2813213 -0.5979504
-0.55914581 -3.2721257 -0.59688479
-0.5786981 -3.2657261 -0.59635198
-0.58878702 -3.2079074 -0.58640641
-0.61946362 -3.2622459 -0.59706241
-0.63625002 -3.2419665 -0.5940432
-0.65749723 -3.2447531 -0.59528637
-0.67558372 -3.231988 -0.59368801
-0.69208884 -3.2123888 -0.59084642
-0.71050876 -3.202317 -0.58978081
-0.72598594 -3.1796675 -0.58640641
-0.75289917 -3.2067702 -0.59226722
-0.77648199 -3.2183537 -0.59528637
-0.78982955 -3.1877367 -0.59049118
-0.80840486 -3.1790152 -0.58978081
-0.83335608 -3.1949456 -0.59368801
-0.85548455 -3.1992793 -0.59546399
-0.87483901 -3.1930208 -0.59528637
-0.89202338 -3.179065 -0.59368801
-0.91314191 -3.1792073 -0.59475362
-0.93263203 -3.1735444 -0.59475362
-0.95208687 -3.167762 -0.59475362
-0.95706314 -3.1148229 -0.5858736
-0.97998744 -3.1210983 -0.58818239
-0.9943136 -3.1000323 -0.5853408
-1.0114795 -3.0882611 -0.58427519
-1.0272912 -3.0726628 -0.58249921
-1.0524769 -3.0849309 -0.58605117
-1.0681529 -3.0691202 -0.58427519
-1.0843327 -3.0550883 -0.58285439
-1.1013846 -3.04375 -0.5819664
-1.1254855 -3.0517089 -0.58480799
-1.1448812 -3.0465882 -0.58516318
-1.1741027 -3.06708 -0.59049118
-1.1982591 -3.0735724 -0.59315521
-1.2207246 -3.0753098 -0.59493119
-1.2369918 -3.0613739 -0.59368801
-1.2464002 -3.0309706 -0.589248
-1.2611777 -3.0141869 -0.58747202
-1.2750257 -2.9955249 -0.5853408
-1.2929912 -2.9867418 -0.58516318
-1.3081225 -2.9715459 -0.58374238
-1.3299476 -2.9715483 -0.5853408
-1.3550805 -2.9785612 -0.58836001
-1.3617717 -2.9451773 -0.5833872
-1.3760526 -2.9287496 -0.58178878
-1.3982348 -2.9291329 -0.58356482
-1.4183273 -2.9249263 -0.58445281
-1.4379861 -2.9197001 -0.58516318
-1.4651151 -2.9293067 -0.58889282
-1.4839523 -2.9220169 -0.589248
-1.4892306 -2.8883631 -0.58427519
-1.5160487 -2.8966107 -0.58782721
-1.5245632 -2.8698704 -0.58427519
-1.5580162 -2.8899169 -0.59031361
-1.559194 -2.8500819 -0.58409756
-1.5799944 -2.8464851 -0.5853408
-1.581501 -2.8084366 -0.57947999
-1.6060228 -2.8114989 -0.58214396
-1.6321213 -2.8169203 -0.5853408
-1.6404034 -2.7915788 -0.58214396
-1.656494 -2.7797699 -0.58178878
-1.6801336 -2.7805045 -0.58409756
-1.6904814 -2.759233 -0.58178878
-1.7068609 -2.7479725 -0.58161122
-1.7142543 -2.7224557 -0.57841438
-1.7415128 -2.7284789 -0.5819664
-1.7662375 -2.7301373 -0.58463037
-1.7754039 -2.7077253 -0.58214396
-1.7892622 -2.692682 -0.58125597
-1.8101466 -2.6881838 -0.58267677
-1.8249433 -2.6745872 -0.58214396
-1.8413199 -2.6633394 -0.58214396
-1.8581916 -2.6527972 -0.58232158
-1.8710177 -2.6365297 -0.58125597
-1.8802683 -2.6154099 -0.57912481
-1.8962809 -2.6038234 -0.57912481
-1.91339 -2.5937231 -0.57947999
-1.9169018 -2.5653765 -0.57575041
-1.9557621 -2.5841744 -0.58267677
-1.9721801 -2.5729065 -0.58285439
-1.9746569 -2.5436528 -0.57894719
-2.002389 -2.5469635 -0.58249921
-2.0161407 -2.5323193 -0.5819664
-2.0359633 -2.5252645 -0.58320957
-2.0507977 -2.5119619 -0.58303201
-2.0630376 -2.4955382 -0.58214396
-2.0625231 -2.4639642 -0.57770401
-2.0973232 -2.4745388 -0.58320957
-2.1182339 -2.4683456 -0.58480799
-2.117852 -2.4374702 -0.5805456
-2.1327682 -2.4244294 -0.5805456
-2.1358252 -2.3980672 -0.57734877
-2.1584058 -2.3936887 -0.57947999
-2.1836662 -2.3920307 -0.58232158
-2.1722584 -2.3503959 -0.57539517
-2.1873114 -2.3377419 -0.57557279
-2.2171764 -2.3407123 -0.57965761
-2.2369449 -2.3327475 -0.58107841
-2.2327123 -2.2999094 -0.57628322
-2.2302306 -2.2693179 -0.57202077
-2.2940772 -2.3058307 -0.58480799
-2.3081822 -2.2917111 -0.58480799
-2.3172834 -2.2726808 -0.58356482
-2.3219979 -2.2495158 -0.58125597
-2.3073223 -2.2080045 -0.57415199
-2.3472829 -2.2188234 -0.58072317
-2.3543808 -2.1983333 -0.57912481
-2.3786743 -2.1938558 -0.58178878
-2.4000914 -2.1865108 -0.58374238
-2.4193137 -2.1770103 -0.58516318
-2.4289489 -2.1588552 -0.58427519
-2.4155302 -2.120533 -0.57788157
-2.4366734 -2.1127648 -0.57983518
-2.4324024 -2.0830476 -0.57575041
-2.4594119 -2.0801613 -0.57912481
-2.4668434 -2.0606141 -0.57788157
-2.4999335 -2.0623519 -0.58267677
-2.5140665 -2.0482171 -0.58303201
-2.5342531 -2.038923 -0.58480799
-2.5528791 -2.0282333 -0.58622879
-2.5521157 -2.002202 -0.58320957
-2.5573521 -1.9810795 -0.58161122
-2.5686781 -1.9647524 -0.58143359
-2.6003151 -1.9637852 -0.5858736
-2.6036389 -1.9413205 -0.58392
-2.5941062 -1.9095526 -0.57912481
-2.5914464 -1.8831832 -0.57592797
-2.6093488 -1.8718371 -0.57734877
-2.6304214 -1.8626176 -0.57947999
-2.6418006 -1.8464426 -0.57947999
-2.6344519 -1.8173418 -0.57539517
-2.6479931 -1.8028049 -0.57592797
-2.6639056 -1.7898172 -0.57699358
-2.6838586 -1.7794217 -0.57894719
-2.7029607 -1.7683095 -0.58072317
-2.710453 -1.7495557 -0.5800128
-2.7286069 -1.7376508 -0.58161122
-2.7333851 -1.7172098 -0.58036798
-2.7263057 -1.6895163 -0.5766384
-2.746696 -1.6789172 -0.57876956
-2.7451482 -1.6549166 -0.57628322
-2.7620173 -1.642066 -0.57770401
-2.7754364 -1.6270792 -0.57841438
-2.7828119 -1.6085409 -0.57788157
-2.7977588 -1.5943601 -0.57894719
-2.7946208 -1.5699309 -0.57628322
-2.7990358 -1.5498925 -0.5752176
-2.8033106 -1.5298593 -0.57415199
-2.8100452 -1.5112308 -0.57361919
-2.8036144 -1.4856629 -0.57042241
-2.8109331 -1.4675212 -0.57006717
-2.8225098 -1.4515967 -0.57059997
-2.8708646 -1.4542704 -0.578592
-2.8656459 -1.4295959 -0.57575041
-2.8796628 -1.4145901 -0.57681596
-2.8944893 -1.3998947 -0.5780592
-2.9181283 -1.3893026 -0.58107841
-2.9265978 -1.3713712 -0.58107841
-2.9349573 -1.3533881 -0.58107841
-2.9297647 -1.3292524 -0.57841438
-2.9279814 -1.3068366 -0.57646078
-2.9251328 -1.2840973 -0.57432961
-2.9699974 -1.2821237 -0.58161122
-2.9805257 -1.2650299 -0.58214396
-2.9727933 -1.2402734 -0.57912481
-2.9630487 -1.2149124 -0.57575041
-2.9713602 -1.1970766 -0.57592797
-3.0015237 -1.18788 -0.58036798
-3.0582838 -1.1887022 -0.58995837
-3.0416167 -1.160787 -0.5853408
-3.0311737 -1.1355392 -0.5819664
-3.0584033 -1.1243935 -0.5858736
-3.0485828 -1.0995929 -0.58267677
-3.0497062 -1.078896 -0.58161122
-3.0320971 -1.051773 -0.57699358
-3.1167524 -1.0597754 -0.59191197
-3.1073256 -1.03534 -0.58889282
-3.104265 -1.013199 -0.58711678
-3.0804288 -0.98453945 -0.58143359
-3.0648115 -0.95885712 -0.57734877
-3.0903969 -0.94608718 -0.58107841
-3.1036851 -0.92936689 -0.58249921
-3.1149957 -0.91196561 -0.58356482
-3.1271555 -0.89473146 -0.58480799
-3.0956249 -0.86518866 -0.57788157
-3.1075208 -0.84799278 -0.57912481
-3.0774817 -0.81953257 -0.57255358
-3.1205504 -0.8105377 -0.57965761
-3.1187873 -0.78968287 -0.57841438
-3.1359944 -0.77359796 -0.58072317
-3.1607757 -0.75917166 -0.58445281
-3.1883724 -0.74514258 -0.5887152
-3.1832883 -0.72338253 -0.58693922
-3.1732533 -0.70065111 -0.58427519
-3.1803794 -0.6817866 -0.58480799
-3.1642704 -0.65804762 -0.58107841
-3.1711426 -0.63920361 -0.58161122
-3.1759706 -0.61992252 -0.58178878
-3.1990542 -0.60407919 -0.5853408
-3.1939878 -0.58284718 -0.58374238
-3.2197945 -0.56716913 -0.58782721
-3.224184 -0.54756713 -0.58800477
-3.2498202 -0.53143066 -0.59208959
-3.2413542 -0.50964367 -0.58995837
-3.2230132 -0.48650986 -0.58605117
-3.2376249 -0.46841788 -0.58818239
-3.2531104 -0.45029995 -0.59049118
-3.2441049 -0.42878109 -0.58836001
-3.2349584 -0.40738979 -0.58622879
-3.2129698 -0.38460389 -0.58178878
-3.2690485 -0.37099594 -0.59155679
-3.2781122 -0.35166654 -0.59280002
-3.2899992 -0.33253732 -0.594576
-3.3331246 -0.31625593 -0.60203522
