# .PCD v0.7 - Point Cloud Data file format
VERSION 0.7
FIELDS x y z
SIZE 4 4 4
TYPE F F F
COUNT 1 1 1
WIDTH 1451
HEIGHT 1
VIEWPOINT 0 0 0 1 0 0 0
POINTS 1451
DATA ascii
-0.040371556 -4.9950495 -0.16617604
-0.070935361 -4.9887114 -0.16597605
-0.10109954 -4.9661989 -0.16524281
-0.13012084 -4.9105353 -0.16340968
-0.15904739 -4.8726845 -0.16217647
-0.18689679 -4.818686 -0.16041
-0.21574453 -4.8014731 -0.15987673
-0.24479493 -4.7920737 -0.15961009
-0.27373812 -4.7824988 -0.15934347
-0.30137414 -4.7537985 -0.15844356
-0.32908368 -4.7309217 -0.15774363
-0.35795522 -4.72682 -0.15767698
-0.41059256 -4.6613393 -0.15564387
-0.43459666 -4.6099758 -0.15401073
-0.46217641 -4.6002607 -0.15377742
-0.4878535 -4.5734863 -0.1529775
-0.78949898 -4.497685 -0.15187763
-0.81279272 -4.4691553 -0.15107772
-0.83687466 -4.446404 -0.15047778
-0.85727465 -4.4058666 -0.14927791
-0.89019531 -4.4299202 -0.15027781
-0.91249353 -4.400887 -0.1494779
-0.93822706 -4.3893409 -0.14927791
-0.96320897 -4.3747163 -0.14897795
-0.99356562 -4.3843203 -0.14951122
-1.0181813 -4.3684072 -0.14917792
-1.048224 -4.3756852 -0.14964454
-1.0886562 -4.4244914 -0.15154433
-1.1324171 -4.4836235 -0.15381074
-1.1453751 -4.4204741 -0.15187763
-1.1686299 -4.3988733 -0.15137768
-1.1966485 -4.3954773 -0.151511
-1.2273524 -4.4015307 -0.15197761
-1.2781934 -4.4775319 -0.15487729
-1.3106849 -4.4868741 -0.15547723
-1.3470567 -4.5084343 -0.15651044
-1.3854935 -4.5354514 -0.15774363
-1.4317551 -4.5860176 -0.15981008
-1.4777778 -4.6333275 -0.16177653
-1.5426893 -4.7363138 -0.16570942
-1.5909508 -4.7846131 -0.16774252
-1.6462834 -4.8514256 -0.17044222
-1.7593658 -5.082078 -0.17894128
-1.8380824 -5.2059593 -0.18370742
-1.9319203 -5.3666778 -0.18980673
-2.0505128 -5.5883632 -0.1981058
-2.1145074 -5.655252 -0.20093882
-2.1971822 -5.7682633 -0.20543832
-2.3264952 -5.9969463 -0.21410401
-2.478884 -6.2753773 -0.22460285
-2.8472667 -7.0807228 -0.25409955
-2.8978508 -7.0806942 -0.25473282
-2.9516146 -7.0876923 -0.25563273
-3.0843127 -7.2801957 -0.26326519
-4.1388812 -9.6054153 -0.34838903
-4.2214036 -9.6338501 -0.35035548
-4.2779961 -9.6022892 -0.3501555
-4.3380709 -9.5785904 -0.35025549
-4.3988519 -9.5563316 -0.35042214
-4.4582524 -9.5309715 -0.35048881
-4.5140758 -9.4980202 -0.35028884
-4.570097 -9.4656439 -0.35012218
-4.6298513 -9.4410133 -0.35025549
-4.6903658 -9.4177952 -0.35045546
-4.7507701 -9.3941898 -0.35065547
-4.8151693 -9.3781996 -0.3511554
-4.8823218 -9.3670902 -0.35185531
-4.9439111 -9.3449078 -0.3521553
-4.9987936 -9.3099937 -0.35198864
-5.0572586 -9.2817793 -0.35208863
-5.1189508 -9.2593212 -0.35242191
-5.183979 -9.2425566 -0.35298854
-5.2504768 -9.2279491 -0.35365513
-5.3109961 -9.2024841 -0.35392177
-5.3673611 -9.1697235 -0.35392177
-5.4219947 -9.1340389 -0.35382175
-5.48103 -9.1057358 -0.35402176
-5.5399222 -9.0770521 -0.35422173
-5.6012979 -9.0522385 -0.35458836
-5.667357 -9.0346327 -0.35525495
-5.7307286 -9.0123396 -0.35575488
-5.7859197 -8.9770069 -0.35575488
-5.8343344 -8.9312944 -0.35535493
-5.879096 -8.8803263 -0.35475498
-5.9351444 -8.8465767 -0.35485497
-5.9994273 -8.8248701 -0.35545492
-6.0670691 -8.8076468 -0.35625482
-6.1387281 -8.7956619 -0.35728803
-6.2150836 -8.7896566 -0.35858789
-4.7790608 -6.6712842 -0.27326408
-4.8222528 -6.6450706 -0.27339742
-4.2035642 -5.718224 -0.23626821
-3.8148255 -5.1231318 -0.21260418
-3.4773262 -4.6104531 -0.19217314
-3.2756414 -4.2879925 -0.1795412
-3.1465745 -4.0670109 -0.17107548
-3.0796382 -3.9303958 -0.16610937
-3.0465522 -3.83939 -0.16304305
-3.0418861 -3.785562 -0.16154322
-3.025203 -3.6715772 -0.15824358
-3.0271893 -3.6283851 -0.15717703
-3.0364983 -3.5944707 -0.15651044
-3.0513515 -3.567416 -0.15614381
-3.0600996 -3.5335143 -0.15547723
-3.0738175 -3.5056522 -0.15507726
-3.0952699 -3.4867256 -0.15507726
-3.1199458 -3.471385 -0.15524392
-3.1458948 -3.4573512 -0.15547723
-3.1623101 -3.432837 -0.15524392
-3.1894481 -3.4199479 -0.15554388
-3.2124305 -3.402494 -0.15564387
-3.2284138 -3.3776605 -0.15541056
-3.2476883 -3.3563511 -0.15534391
-3.264725 -3.3327901 -0.15517725
-3.2907424 -3.3183737 -0.15544389
-3.3103335 -3.2974141 -0.15541056
-3.3312161 -3.2777414 -0.15544389
-3.3577147 -3.26351 -0.15574387
-3.3711882 -3.2366154 -0.15544389
-3.3953347 -3.2199962 -0.15564387
-3.4310732 -3.2141366 -0.15637712
-3.4587982 -3.2004914 -0.15674375
-3.4783711 -3.1792083 -0.15674375
-3.4985547 -3.1584752 -0.15677708
-3.5275648 -3.1455977 -0.15721036
-3.5632977 -3.1384289 -0.15794362
-3.5937972 -3.1263468 -0.15844356
-3.6083643 -3.1003282 -0.15824358
-3.6227481 -3.0742488 -0.15804361
-3.6461384 -3.0558145 -0.15824358
-3.6802168 -3.0461323 -0.15891017
-3.7197289 -3.0405748 -0.15981008
-3.7484243 -3.025856 -0.16024336
-3.7809861 -3.014015 -0.1608433
-3.8033347 -2.9938498 -0.16100994
-3.8350465 -2.9808855 -0.16157654
-3.8603995 -2.9627752 -0.16187651
-3.8952324 -2.9517109 -0.16257644
-3.9172714 -2.9307489 -0.16274308
-3.942415 -2.912003 -0.16304305
-3.9812026 -2.9030712 -0.16390961
-4.0159731 -2.8908522 -0.16460954
-4.0377088 -2.8690515 -0.16477619
-4.0740547 -2.8574243 -0.16554277
-4.1227345 -2.8539937 -0.16680929
-4.2121348 -2.8400702 -0.16900904
-9.8347654 -6.5447946 -0.39355066
-7.242403 -4.7555752 -0.28852904
-7.3200936 -4.7425699 -0.29046217
-7.2699013 -4.6469612 -0.2873292
-7.1672482 -4.5196257 -0.28216308
-7.1473227 -4.4459968 -0.28029662
-7.1642466 -4.3957849 -0.27989668
-6.9337211 -4.195971 -0.26986447
-6.9481807 -4.1466885 -0.26943117
-6.9338727 -4.0806561 -0.26789802
-6.8706117 -3.9868612 -0.26449838
-6.7847767 -3.8815889 -0.26026553
-6.6343665 -3.7416766 -0.25359961
-6.5777125 -3.6567004 -0.25056663
-6.4904685 -3.5562308 -0.24640042
-6.4207101 -3.4669454 -0.24293414
-6.4206877 -3.4162147 -0.24213423
-6.3636351 -3.335912 -0.23920122
-6.2987375 -3.2527704 -0.23600158
-6.220592 -3.1642075 -0.23233531
-6.1621518 -3.0870256 -0.22943564
-6.128994 -3.0235066 -0.22750252
-6.1168652 -2.9709938 -0.22636932
-5.9925218 -2.8652735 -0.22110324
-5.9530215 -2.8016326 -0.21900347
-5.9265709 -2.7448869 -0.21740365
-5.9533052 -2.7130306 -0.21777028
-5.9643683 -2.6739969 -0.2175703
-5.9898076 -2.6413836 -0.2179036
-5.7922659 -2.5119083 -0.2101378
-5.5262589 -2.3563364 -0.19993894
-5.5212569 -2.3142679 -0.19923902
-5.5325809 -2.2792041 -0.19913901
-5.5381246 -2.241838 -0.19883905
-5.5322738 -2.2000566 -0.19813913
-5.4888835 -2.1438828 -0.19610603
-5.4282179 -2.0818813 -0.19347298
-5.4090891 -2.0365579 -0.19233978
-5.4064846 -1.9977857 -0.19180651
-5.415822 -1.9635522 -0.19170652
-5.3816285 -1.9138697 -0.19007337
-5.3951578 -1.8814712 -0.19014002
-5.4103837 -1.8496253 -0.19027334
-5.4661698 -1.8313203 -0.19183983
-5.4678078 -1.7946283 -0.19150653
-5.4768133 -1.7604327 -0.19143988
-5.4865589 -1.7264944 -0.19140655
-5.4874978 -1.6898545 -0.19107325
-5.5082893 -1.6593243 -0.19143988
-5.5241194 -1.6271899 -0.19163986
-5.5359201 -1.5938171 -0.19170652
-5.5542545 -1.562256 -0.19200648
-5.5781918 -1.5321184 -0.19250643
-5.6193433 -1.5064059 -0.1936063
-5.6458845 -1.4764515 -0.19420624
-5.6732383 -1.4464748 -0.19483951
-5.6839466 -1.4121194 -0.19490616
-5.6876473 -1.3760411 -0.19473951
-5.7524071 -1.3544079 -0.19667263
-5.7606091 -1.3190863 -0.19667263
-5.8329811 -1.2980508 -0.19887239
-5.8203216 -1.2578002 -0.19817246
-5.9453077 -1.2466902 -0.20217201
-5.9175873 -1.2030153 -0.20097215
-5.9474111 -1.1711266 -0.20173873
-5.9986639 -1.1430351 -0.20323856
-6.1058192 -1.1246841 -0.20663819
-5.9217124 -1.0532253 -0.20017225
-6.1723533 -1.0588018 -0.20843798
-6.2260642 -1.0287344 -0.21003781
-6.2756896 -0.99741971 -0.21150431
-6.3380065 -0.9674964 -0.21340409
-6.3982129 -0.93655586 -0.21523723
-13.954731 -1.9560525 -0.46950886
-13.950622 -1.8682678 -0.4689756
-13.955875 -1.7818735 -0.4687756
-13.97349 -1.6970521 -0.46900892
-14.045197 -1.6183764 -0.47107536
-14.097587 -1.5368255 -0.47250852
-14.138566 -1.4535677 -0.47357509
-14.165124 -1.3685185 -0.47417501
-14.186195 -1.2827479 -0.4746083
-14.204754 -1.1966022 -0.47497493
-14.210832 -1.1093432 -0.47494158
-14.335001 -1.0305884 -0.47887447
-14.373966 -0.9447757 -0.47997436
-14.435363 -0.85989153 -0.48184082
-14.490267 -0.77396923 -0.48350731
-14.568621 -0.68853885 -0.48597369
-14.636481 -0.60176498 -0.48810679
-14.708817 -0.514359 -0.49040654
-14.759649 -0.42548218 -0.49200636
-14.876889 -0.33752266 -0.49583927
-14.996599 -0.24819008 -0.49977216
-15.048808 -0.15670092 -0.50147194
-15.136436 -0.06473583 -0.50437164
-15.18952 0.028237022 -0.50613809
-15.323981 0.12251057 -0.51063758
-15.3849 0.21740738 -0.51270407
-15.422246 0.31259149 -0.51400387
-15.524944 0.40998068 -0.5175035
-15.674971 0.51020044 -0.52260292
-15.722479 0.60833931 -0.52430278
-15.767374 0.70699084 -0.52593589
-15.796676 0.80545336 -0.52706909
-15.850307 0.90572637 -0.52903557
-15.889338 1.0058043 -0.5305354
-15.954654 1.1082643 -0.53293514
-16.003363 1.210358 -0.5348016
-16.041456 1.3122766 -0.53633475
-16.116732 1.4180353 -0.53913444
-16.142555 1.5201772 -0.54030097
-7.0486026 0.70780772 -0.23583493
-7.0222621 0.74871463 -0.23510167
-6.9887352 0.78854138 -0.23413512
-6.8577242 0.81641537 -0.22990225
-6.8506021 0.85822994 -0.2298356
-6.8650255 0.90285277 -0.23050219
-6.733613 0.92764819 -0.22626933
-6.7535148 0.97264916 -0.2271359
-6.7098622 1.0084288 -0.22586937
-6.703548 1.0495807 -0.22586937
-6.7364407 1.0971156 -0.22720256
-6.7847676 1.1477593 -0.22906901
-6.6338725 1.1641606 -0.22420289
-6.5951371 1.1991252 -0.22313635
-6.5689931 1.2360599 -0.22250308
-6.5426445 1.272719 -0.22186983
-6.5249138 1.3108724 -0.22153652
-6.4961958 1.3466256 -0.22083659
-6.483901 1.3856251 -0.22070329
-6.4947987 1.4296788 -0.22136988
-6.5638852 1.4871632 -0.22403625
-6.4339361 1.4992963 -0.21990336
-6.4158678 1.5366517 -0.2196034
-6.3975835 1.5738418 -0.21930344
-6.3819919 1.6115996 -0.21910346
-6.3584375 1.6472207 -0.21863684
-6.3259935 1.6803054 -0.21787027
-6.304956 1.7162029 -0.21750364
-6.2904558 1.7537837 -0.21737032
-6.2718873 1.7901545 -0.21710369
-6.2358413 1.8213216 -0.21623711
-6.1948614 1.8506839 -0.2152039
-6.1776538 1.886909 -0.21500392
-6.1554646 1.921504 -0.21463729
-6.13975 1.9580226 -0.21450397
-6.1171665 1.9922551 -0.21413735
-6.0981879 2.0275452 -0.21390404
-6.071435 2.0601091 -0.21340409
-6.0454574 2.0927482 -0.21293749
-6.0277905 2.12814 -0.21277083
-6.0014529 2.1603479 -0.21230422
-5.9871464 2.1967871 -0.21227089
-5.970746 2.2324326 -0.2121709
-5.9466615 2.2651141 -0.21180427
-5.9354463 2.3026435 -0.21190426
-5.9119096 2.3353484 -0.21157096
-5.8770685 2.3633778 -0.21083772
-5.8587561 2.3978803 -0.2107044
-5.8374743 2.4310949 -0.21047109
-5.8104835 2.4617999 -0.21003781
-5.7897615 2.4950333 -0.20983782
-5.7761741 2.5313137 -0.20990449
-5.7550559 2.5642679 -0.2097045
-5.7373924 2.5987074 -0.20963785
-5.7186155 2.6326091 -0.20953786
-5.6951118 2.6642609 -0.20927122
-5.681365 2.7004421 -0.20937121
-5.6601882 2.7330792 -0.20920457
-5.6415172 2.7668779 -0.2091379
-5.6038566 2.7911949 -0.20837133
-5.5750294 2.8196642 -0.20793805
-5.5602908 2.8551884 -0.20803803
-5.5400081 2.8878663 -0.20793805
-5.512466 2.9166641 -0.20757142
-5.4962273 2.9513786 -0.20763807
-5.6868968 3.0988419 -0.21557052
-5.6572795 3.1278756 -0.21517056
-5.6371088 3.1620402 -0.21513724
-5.3908682 3.0675826 -0.20643821
-5.3667502 3.0976055 -0.20623823
-5.3493681 3.1314864 -0.20630489
-5.3360691 3.1678216 -0.2065382
-5.326807 3.2066879 -0.20693815
-5.303618 3.2372296 -0.20680483
-5.2794056 3.267082 -0.20663819
-5.257566 3.298352 -0.20657152
-5.2043362 3.3096366 -0.20527168
-5.2032528 3.3539596 -0.20603825
-5.2177196 3.408778 -0.2074381
-5.3467169 3.5400293 -0.21343742
-5.4560351 3.6607389 -0.21870351
-5.1937661 3.5312104 -0.20903791
-5.1473083 3.546005 -0.20803803
-5.1352887 3.5843852 -0.20843798
-5.1180954 3.6192889 -0.20863797
-5.099854 3.6535349 -0.20880461
-5.0862389 3.6912143 -0.20917124
-5.0731583 3.7294562 -0.2095712
-5.0565925 3.7652891 -0.20983782
-5.0302019 3.7938378 -0.2097045
-5.0028572 3.8215978 -0.20953786
-5.0180516 3.8821857 -0.21117102
-5.0641608 3.9677548 -0.21413735
-10.096294 8.0100479 -0.42938
-9.8957968 7.9504175 -0.42291406
-9.8553562 8.0179243 -0.42328069
-9.9394312 8.1881771 -0.42904672
-9.9350529 8.2874203 -0.43104649
-9.8007851 8.2779341 -0.42741355
-9.7650003 8.3509064 -0.42808014
-9.7422895 8.4355249 -0.42934668
-9.6565256 8.465497 -0.42784685
-9.6888704 8.5995541 -0.43161309
-9.6604548 8.6808853 -0.43271297
-9.649889 8.7790041 -0.4346461
-9.6656818 8.9023695 -0.43781239
-20.502934 19.116631 -0.93442369
-20.425226 19.279804 -0.93625683
-20.281973 19.381292 -0.93512362
-20.141838 19.485224 -0.93415701
-20.101875 19.686764 -0.93788993
-20.013351 19.842104 -0.93942314
-19.785877 20.104013 -0.94025636
-19.694895 20.258718 -0.94182283
-19.604139 20.414505 -0.94345599
-19.561737 20.622145 -0.9474889
-19.674702 20.997772 -0.95918757
-19.614059 21.192179 -0.96255386
-19.526142 21.358601 -0.96465361
-19.415485 21.501003 -0.96568686
-19.320448 21.661497 -0.96755332
-19.096659 21.676899 -0.96298712
-19.051861 21.895451 -0.96748668
-18.998583 22.106684 -0.97165287
-18.924673 22.295988 -0.9748525
-18.825394 22.456877 -0.97681892
-18.682785 22.566576 -0.97658563
-18.568007 22.71019 -0.97785217
-18.56456 22.992432 -0.98508471
-18.440578 23.12779 -0.98601794
-18.400339 23.37007 -0.99151731
-18.290337 23.525928 -0.99335045
-18.202848 23.712233 -0.99648345
-18.092026 23.869673 -0.99841654
-17.904505 23.925821 -0.99615014
-17.839321 24.146162 -1.0007496
-17.729109 24.307652 -1.002916
-17.614666 24.464643 -1.0049158
-17.50128 24.624401 -1.007049
-17.388315 24.78614 -1.009282
-17.32637 25.023014 -1.0145814
-17.155025 25.103275 -1.0135481
-17.168324 25.456646 -1.0235471
-14.305066 21.494621 -0.86063188
-13.901882 21.169304 -0.84416705
-13.725531 21.182911 -0.84133404
-12.986486 21.457169 -0.83600134
-12.962671 21.717525 -0.84303385
-12.848436 21.829382 -0.84430039
-11.614633 20.299053 -0.77950764
-11.351388 20.124456 -0.77010864
-11.130554 20.01903 -0.76344275
-10.914327 19.916916 -0.75697678
-10.78099 19.963284 -0.75621021
-10.686466 20.081997 -0.75821
-10.503897 20.336828 -0.76290947
-10.440553 20.522043 -0.76744229
-10.316673 20.590187 -0.76760894
-10.202081 20.677299 -0.76850885
-10.12524 20.842892 -0.77234173
-10.007078 20.925364 -0.7731083
-9.9057379 21.044245 -0.77524143
-9.8230591 21.20529 -0.77894104
-9.7781582 21.452503 -0.78580689
-9.457201 21.803062 -0.79213953
-9.3553944 21.936066 -0.79487258
-7.2871823 17.381763 -0.62812448
-7.139648 17.327274 -0.62455821
-6.9517951 17.169733 -0.61732572
-6.7842493 17.056049 -0.61172634
-6.646369 17.012642 -0.60869336
-6.5200181 16.996183 -0.60666025
-6.3870754 16.96011 -0.60396051
-6.255168 16.923985 -0.60129416
-6.1464357 16.948893 -0.60082757
-6.0269136 16.942972 -0.59929436
-5.9406176 17.030594 -0.60109419
-5.8589706 17.133865 -0.60346061
-5.7165689 17.05862 -0.59956104
-5.6725893 17.27854 -0.60606033
-4.6780486 14.862491 -0.51920331
-4.5850005 14.885184 -0.51900333
-4.4335966 14.713994 -0.51207078
-4.2963328 14.58178 -0.50653809
-4.180501 14.516629 -0.50337178
-4.0634656 14.442913 -0.49993882
-3.9591451 14.410714 -0.49797237
-3.8527839 14.368128 -0.49567261
-3.7572143 14.363458 -0.49470606
-3.6455431 14.29424 -0.49153975
-3.5440249 14.261053 -0.48963994
-3.4456379 14.237846 -0.48810679
-3.3453784 14.204243 -0.48624033
-3.2697654 14.275161 -0.48797348
-3.1888466 14.325197 -0.4890067
-3.1101823 14.387476 -0.49047318
-3.0284111 14.437591 -0.49153975
-2.9551063 14.531313 -0.49410611
-2.8351498 14.873774 -0.5045383
-2.7639406 14.99999 -0.5082379
-2.7012703 15.181976 -0.51383728
-2.6266632 15.30662 -0.5175035
-2.5380743 15.354987 -0.51860338
-2.451031 15.415677 -0.52013654
-2.3702805 15.52132 -0.5232029
-2.2881806 15.625562 -0.52623588
-2.217519 15.819443 -0.53230184
-2.1312931 15.91398 -0.53503489
-2.057539 16.114132 -0.54133421
-1.9668226 16.193918 -0.54360062
-1.8796679 16.311918 -0.54716688
-1.8062001 16.56756 -0.55536598
-1.7152466 16.682722 -0.55886555
-1.6166972 16.732723 -0.56019872
-1.1776593 13.024588 -0.43571264
-1.0893257 12.931976 -0.43237966
-1.0041189 12.863686 -0.42987996
-0.92122567 12.814777 -0.42804682
-0.83844584 12.75736 -0.42594707
-0.75729758 12.714376 -0.42434722
-0.67676181 12.671876 -0.42278075
-0.5972957 12.639851 -0.42158088
-0.51837152 12.610324 -0.420481
-0.43888789 12.553336 -0.41848123
-0.36044046 12.506841 -0.41684806
-0.28267106 12.463854 -0.41534823
-0.20579103 12.441371 -0.41454834
-0.12909305 12.40842 -0.41341513
-0.052876271 12.390988 -0.41281518
0.023134431 12.380086 -0.41244856
0.099112675 12.38171 -0.41251522
0.17559041 12.416844 -0.41371509
0.25397846 12.52445 -0.41734803
0.33311406 12.609579 -0.4202477
0.41434288 12.726169 -0.42421392
0.49767107 12.85921 -0.42874673
0.58009785 12.934791 -0.4313798
0.66911548 13.120636 -0.4377124
0.75929564 13.285913 -0.44337845
0.85121334 13.445583 -0.44887784
0.94878733 13.657463 -0.45614368
1.0436442 13.797884 -0.46104315
1.1387119 13.918723 -0.46530932
1.2458086 14.158383 -0.47357509
1.3556074 14.39426 -0.48174083
1.4676485 14.622351 -0.48967329
1.5758688 14.786988 -0.49550596
1.6885157 14.9717 -0.5020386
1.8005362 15.130765 -0.50773793
1.9222684 15.350499 -0.5155037
3.0393517 23.122122 -0.77730787
3.1603148 22.951551 -0.77220845
3.3091986 22.988115 -0.77410823
1.8505396 11.822383 -0.39865011
1.9216006 11.801928 -0.39835012
1.9851491 11.737686 -0.39658368
2.0566149 11.722331 -0.39648369
2.1218915 11.673106 -0.39525047
2.1951389 11.668708 -0.39555046
2.2621174 11.631473 -0.39475054
2.3324604 11.612474 -0.39458388
2.4012361 11.586201 -0.39418393
2.4678981 11.550723 -0.393484
2.532927 11.509008 -0.39258412
2.6008484 11.481553 -0.39218417
2.6664877 11.444937 -0.39148423
2.7203734 11.360322 -0.38915116
2.8095975 11.423 -0.39188418
2.8749876 11.387133 -0.39125094
2.9430497 11.362506 -0.39101762
3.0014284 11.30173 -0.3895511
3.0696683 11.279243 -0.3894178
3.1377451 11.256346 -0.38928449
3.2308848 11.321456 -0.39221749
3.3319435 11.409831 -0.39598373
3.4908328 11.687001 -0.40634924
3.6418631 11.925361 -0.4154149
3.9013398 12.500039 -0.43627924
4.1179099 12.914843 -0.45164418
4.4384122 13.630603 -0.47764128
4.6802101 14.079224 -0.49437276
6.155026 18.143757 -0.63852334
6.330627 18.291714 -0.64508927
6.342288 17.967899 -0.63502371
15.475139 43.001801 -1.5236579
7.6116939 20.749636 -0.73664576
16.014969 42.844234 -1.5249245
16.296404 42.794666 -1.526691
7.2139077 18.598875 -0.66485375
7.1957369 18.21961 -0.6528551
7.3528762 18.288248 -0.65692127
7.4524622 18.212261 -0.65582144
7.5506253 18.133898 -0.65465486
7.5830107 17.901327 -0.64792228
7.7120852 17.899439 -0.64955544
7.8759122 17.975365 -0.65405494
8.1076546 18.199678 -0.66402048
8.2249451 18.162334 -0.66448712
8.2585125 17.942654 -0.65828782
19.335215 41.34045 -1.5215582
19.559771 41.160553 -1.5193251
19.798056 41.01096 -1.5182586
19.93932 40.664368 -1.5099262
9.8755522 19.830753 -0.73837888
9.9082022 19.594078 -0.73181295
5.5930214 10.416875 -0.39388397
21.89707 39.612518 -1.5089929
6.0194569 10.579658 -0.405516
5.8819518 10.191932 -0.39201751
5.9731522 10.204816 -0.39391729
6.0361662 10.168833 -0.39395061
6.0788631 10.099064 -0.3926841
6.1334267 10.04963 -0.39221749
6.1939225 10.010108 -0.39215082
6.2584133 9.9769945 -0.39235079
6.3297009 9.9544306 -0.39298406
6.3348975 9.8288736 -0.3895511
6.4437299 9.8642912 -0.39251745
6.4903426 9.8037319 -0.3916842
6.5186391 9.7164145 -0.38978443
6.6185884 9.7357464 -0.39218417
6.6838708 9.7031832 -0.39251745
6.7335591 9.6480551 -0.39195085
6.816288 9.6400166 -0.39331737
6.8694901 9.5898867 -0.39298406
6.9381809 9.5613079 -0.39355066
7.0044122 9.5290241 -0.39398396
7.071105 9.4970903 -0.39445058
7.1178117 9.4383621 -0.39381731
7.2872081 9.5406609 -0.39994997
13.642638 17.636925 -0.74317837
24.352131 30.696863 -1.3062822
24.54253 30.54998 -1.3064156
10.039858 12.187372 -0.52616918
9.8468609 11.804719 -0.51223743
9.5167141 11.267608 -0.49143976
9.3284559 10.9082 -0.47824124
9.0726995 10.478246 -0.46180972
8.9049215 10.157825 -0.45007768
8.7965851 9.9108829 -0.44151199
8.4738111 9.4299917 -0.42238078
8.3062153 9.130147 -0.41121536
8.2848969 8.9951992 -0.40741578
8.3004045 8.9017963 -0.40548268
8.337718 8.8325281 -0.40464944
8.4034939 8.7934866 -0.40521604
8.4677153 8.752533 -0.40571597
8.5240574 8.7032681 -0.40584931
8.5822248 8.6557693 -0.4060826
8.6479177 8.6156445 -0.40668255
8.7205639 8.5820503 -0.40761578
8.7830906 8.5381336 -0.4080824
8.8547783 8.5027723 -0.40898228
8.9249105 8.465476 -0.40981552
8.9839792 8.4173889 -0.41014883
9.050127 8.3756838 -0.41081542
9.1168394 8.334157 -0.41151533
9.2004433 8.3075333 -0.41298184
9.2676525 8.2655602 -0.41371509
9.3309431 8.2197714 -0.4142817
9.3910046 8.1708918 -0.41471496
9.454607 8.1248417 -0.41531491
9.5294266 8.0880194 -0.4164148
9.6592941 8.0968151 -0.41991439
9.8104124 8.1215267 -0.4243139
9.6681747 7.904285 -0.41604817
11.749912 9.4867115 -0.50320512
11.718036 9.342782 -0.49937218
11.62516 9.1526117 -0.49300623
11.528029 8.9620991 -0.48654029
11.4734 8.8072071 -0.48194081
11.282701 8.5512972 -0.47170863
11.114108 8.3166304 -0.46250963
11.150459 8.2375879 -0.46190971
11.164458 8.1425114 -0.46040988
11.222321 8.0796947 -0.46074319
11.269242 8.0089474 -0.46064317
11.278081 7.9115224 -0.45901003
11.345311 7.8552594 -0.45977661
11.399899 7.7900095 -0.46004325
11.582544 7.8110061 -0.46547598
11.680174 7.7730155 -0.46747574
4.8180814 3.163434 -0.19180651
4.8365622 3.1332676 -0.19177318
4.8582225 3.1051474 -0.19187316
4.8788748 3.0763454 -0.19193983
4.8968105 3.0458236 -0.1919065
4.896667 3.0042193 -0.19117324
4.8876476 2.9575567 -0.19010669
4.9005537 2.9244378 -0.18990672
4.9227118 2.8968484 -0.19007337
4.9369364 2.8645818 -0.18994005
15.340609 8.7773466 -0.58899552
15.345428 8.6555557 -0.58712906
15.103883 8.3975563 -0.57589698
15.120942 8.2859888 -0.57459712
15.068611 8.1374855 -0.57069761
15.010619 7.9875898 -0.56663138
14.978799 7.8531017 -0.56359839
14.774516 7.6307831 -0.55413276
14.861145 7.5603795 -0.55563259
14.634724 7.3324904 -0.54546708
14.540518 7.1740069 -0.54030097
14.496163 7.0418525 -0.53703469
14.354264 6.8643737 -0.53020209
14.247813 6.706358 -0.52473605
14.248794 6.6003232 -0.52326953
14.224456 6.4833369 -0.52090311
14.130825 6.3362274 -0.51603699
14.061534 6.201807 -0.51210409
14.067231 6.1014895 -0.51093757
14.134742 6.0279989 -0.51203746
5.4309297 2.2763951 -0.19597271
5.4447951 2.2430289 -0.19597271
5.468646 2.2137041 -0.19633934
5.4988422 2.1867573 -0.19693926
5.472127 2.1373358 -0.1955061
14.584985 5.594944 -0.52053648
14.619975 5.5056992 -0.52056986
5.6192856 2.0764465 -0.19937232
5.6253438 2.0395427 -0.19913901
5.6405768 2.0059929 -0.19923902
5.6574979 1.9729912 -0.19940566
5.6572037 1.934036 -0.19897237
17.757977 5.9509606 -0.62415826
17.649822 5.7944965 -0.61909217
17.634617 5.6698747 -0.61732572
17.360197 5.4643297 -0.60652691
17.447842 5.3744788 -0.60842669
17.409678 5.2459793 -0.60596031
17.300613 5.097528 -0.60106087
17.122196 4.930974 -0.593795
17.114609 4.8152633 -0.59249514
17.079264 4.6924167 -0.59026206
17.056572 4.5738101 -0.58849561
17.06111 4.462996 -0.58769566
17.074615 4.3547683 -0.58722907
17.095194 4.2484722 -0.5870291
17.134541 4.1467896 -0.58749568
17.299747 4.0745759 -0.59229517
17.429636 3.9924543 -0.59589475
17.590384 3.9158418 -0.6005609
17.71372 3.8293798 -0.60396051
17.773075 3.7282116 -0.60519373
17.975824 3.6557434 -0.6113264
21.682005 4.271234 -0.73654574
21.786345 4.15309 -0.7392121
21.844835 4.0254922 -0.7403453
21.817957 3.8822732 -0.73861217
21.830532 3.7464676 -0.73824555
21.830429 3.6086977 -0.73747897
21.693249 3.4494073 -0.73211288
21.654726 3.3071802 -0.73011315
21.511444 3.1503465 -0.72461373
21.571938 3.0241239 -0.7260136
21.680233 2.9037807 -0.72904658
21.596521 2.7577825 -0.72564697
21.542591 2.6166584 -0.72328055
21.451012 2.4720657 -0.71968096
21.180628 2.3092999 -0.71011537
21.031351 2.1625242 -0.70464933
20.980553 2.0272834 -0.7025162
20.933872 1.8931981 -0.70054978
20.795708 1.7521237 -0.69555032
20.744287 1.6196651 -0.69348389
20.753836 1.4923501 -0.69348389
20.738668 1.3634045 -0.69268399
20.745646 1.2360693 -0.69265062
20.840664 1.1134483 -0.69558364
21.081713 0.99664974 -0.70341611
21.013535 0.86423457 -0.70094973
21.031425 0.73573631 -0.70138299
20.986591 0.60526276 -0.69974983
20.98991 0.47648004 -0.69974983
20.999435 0.34779549 -0.69998318
21.116104 0.22014053 -0.70381606
21.104063 0.090514287 -0.70338279
21.604877 -0.013084129 -1.0825053
21.749893 -0.28010035 -1.0898656
21.782715 -0.41421485 -1.0916181
21.803724 -0.54846632 -1.0928198
15.952161 -0.49916941 -0.79950964
15.896379 -0.7905286 -0.7973066
15.625047 -1.0656619 -0.78453875
15.482759 -1.1514395 -0.77772921
15.412683 -1.241366 -0.77457482
15.265475 -1.3238306 -0.76756501
15.174525 -1.409803 -0.7634092
15.131797 -1.4995365 -0.76170683
15.000142 -1.5794891 -0.75554818
14.913738 -1.662975 -0.75169283
14.722729 -1.7331978 -0.74258006
14.437968 -1.9697409 -0.72991234
14.392983 -2.0536375 -0.72826004
14.334669 -2.1351433 -0.72595686
14.272941 -2.2155516 -0.72350341
14.177242 -2.2898681 -0.7193476
14.01715 -2.3523486 -0.71193725
13.8647 -2.4143221 -0.70492744
13.830952 -2.4959784 -0.70397609
13.759415 -2.5703418 -0.70112211
13.710044 -2.648279 -0.69941974
13.659256 -2.7255116 -0.6976673
13.556192 -2.7915437 -0.69326115
13.534901 -2.8738408 -0.69306082
13.386272 -2.9282336 -0.68635148
13.348566 -3.0059266 -0.68535006
13.233546 -3.0654604 -0.6803931
13.192142 -3.1412811 -0.67924154
13.062993 -3.1953497 -0.67358363
12.945306 -3.2508721 -0.66852653
12.864184 -3.3145413 -0.66537213
12.796289 -3.3809102 -0.66291869
12.743491 -3.4507482 -0.66126639
12.708604 -3.5251381 -0.66056544
12.580091 -3.5727615 -0.65500766
12.512857 -3.6367826 -0.65265435
12.470203 -3.707514 -0.65160286
12.410909 -3.7729208 -0.64970022
12.357959 -3.8398142 -0.64814806
12.291328 -3.9019692 -0.64589489
12.178801 -3.9486656 -0.64123839
12.109779 -4.0085669 -0.63888508
12.059408 -4.0741639 -0.63753319
11.977529 -4.1285534 -0.63452899
11.960451 -4.2049499 -0.63497961
4.3953176 -1.5754805 -0.23346826
4.3527355 -1.5904216 -0.23171581
4.3110728 -1.6052485 -0.23001345
4.2964725 -1.6298991 -0.22976309
4.2705541 -1.6501107 -0.22891189
4.2519841 -1.6729918 -0.22846127
4.2481284 -1.7016499 -0.22881176
4.2422314 -1.7295694 -0.22906211
4.2260041 -1.7532701 -0.22876169
4.1903238 -1.7686799 -0.22740979
4.1839814 -1.7963282 -0.22766015
4.181118 -1.8255639 -0.22811078
4.1515813 -1.8430786 -0.22710937
4.1074233 -1.8537256 -0.22530685
4.0850782 -1.8738958 -0.22470602
4.0707879 -1.89766 -0.22455581
4.0698986 -1.9277329 -0.22515665
4.0525942 -1.9500705 -0.22485623
4.0306821 -1.9700751 -0.22430545
4.0149398 -1.9929935 -0.22410518
3.9669623 -1.9996073 -0.22210237
3.9555073 -2.0243654 -0.22215244
3.9580777 -2.0564265 -0.22300364
4.1344328 -2.1803846 -0.23371862
4.1350651 -2.2132535 -0.23451973
3.9458838 -2.1432357 -0.22450574
3.8950477 -2.1466758 -0.22235273
3.898365 -2.1797969 -0.22330406
3.8823104 -2.2021976 -0.22315384
3.8617997 -2.2219923 -0.22275329
3.8429177 -2.2426255 -0.22245286
3.8170521 -2.2590408 -0.22175188
3.8056881 -2.2839613 -0.2219021
3.8086658 -2.3176541 -0.2229035
3.7867234 -2.3362598 -0.22245286
3.7655432 -2.3552136 -0.22205231
3.7274041 -2.3632984 -0.22065035
3.6960297 -2.3753245 -0.21964894
3.6864064 -2.4012291 -0.21994936
3.6766043 -2.4271049 -0.22024979
3.6682832 -2.4540615 -0.22065035
3.6556363 -2.478205 -0.22080056
3.6642344 -2.5169892 -0.22225259
3.7421699 -2.6044703 -0.22796057
3.7097948 -2.615871 -0.22695917
3.5652742 -2.5468521 -0.21904811
3.5487707 -2.5680945 -0.21899804
3.5329463 -2.5898211 -0.21899804
3.5153854 -2.6102593 -0.21889789
3.4961104 -2.6293786 -0.21869762
3.4711719 -2.6441233 -0.21814685
3.4548824 -2.6653719 -0.21814685
3.4479067 -2.6939001 -0.21874769
3.4281795 -2.7125261 -0.2185474
3.3974426 -2.7222681 -0.21764615
3.3907568 -2.7512443 -0.21829706
3.375355 -2.7732661 -0.2183972
3.3644168 -2.7990348 -0.21879776
3.3464153 -2.8189826 -0.21874769
3.3191774 -2.8310366 -0.21809678
3.2949412 -2.8454738 -0.21764615
3.2774198 -2.8656375 -0.21764615
3.284452 -2.907541 -0.21929845
3.2620873 -2.9236395 -0.21899804
3.2315135 -2.9321904 -0.21814685
3.2134612 -2.9519634 -0.21814685
3.2084515 -2.9838688 -0.21904811
3.1995349 -3.0124004 -0.21969903
3.1752076 -3.0264623 -0.21929845
3.15011 -3.0396464 -0.21884783
3.12497 -3.0526361 -0.2183972
3.1047604 -3.0703485 -0.21829706
3.0766876 -3.0801547 -0.21764615
3.0682516 -3.1096396 -0.2183972
3.0491133 -3.1284075 -0.2183972
3.0360944 -3.1535332 -0.21884783
3.0263228 -3.1822357 -0.21954881
3.025202 -3.2204003 -0.2209007
3.0081022 -3.2418306 -0.22110097
2.9807312 -3.2521274 -0.22055021
2.9566989 -3.265913 -0.22024979
2.9359381 -3.2832489 -0.22019972
2.9130929 -3.2982075 -0.21999943
2.8875484 -3.3099985 -0.21959887
2.8717475 -3.3329506 -0.21994936
2.848654 -3.347466 -0.21974909
2.8376989 -3.3763509 -0.22050014
2.841167 -3.4229035 -0.2224028
2.8340397 -3.4572654 -0.22350433
2.8152864 -3.477695 -0.22370462
2.7895296 -3.4894428 -0.22335413
2.7581654 -3.4939501 -0.22255301
2.7409728 -3.5163221 -0.2229035
2.7120359 -3.5235765 -0.22230266
2.6951988 -3.5465126 -0.22270322
2.6859736 -3.5797603 -0.22375469
2.6716862 -3.606607 -0.2244056
2.6477375 -3.6205139 -0.22425538
2.6395023 -3.6561272 -0.22545707
2.6303494 -3.6909616 -0.22660868
2.6133986 -3.7152007 -0.22710937
2.5768838 -3.7114761 -0.2259077
2.5450299 -3.7140353 -0.22510658
2.5361793 -3.7502651 -0.22635832
2.5197728 -3.7757256 -0.22695917
2.4987547 -3.794452 -0.22715946
2.4792342 -3.8155751 -0.22750995
2.4708669 -3.854259 -0.22891189
2.4567797 -3.8845415 -0.22981316
2.4355414 -3.90378 -0.23006351
2.4094489 -3.9152482 -0.22986323
2.3874526 -3.9333737 -0.23006351
2.4017429 -4.0122213 -0.23381875
2.5090711 -4.2505088 -0.24683696
2.3789518 -4.087142 -0.23647247
2.3394134 -4.0765405 -0.23502044
2.312881 -4.0882101 -0.23487023
2.2887256 -4.1040692 -0.23497038
2.2610953 -4.1136589 -0.23472002
2.2638757 -4.1792693 -0.23767415
2.2358382 -4.1886764 -0.23742379
2.1891768 -4.1625371 -0.23517065
2.1750801 -4.1980619 -0.2364224
2.1815119 -4.2744908 -0.23997737
2.1471701 -4.2717333 -0.23907611
2.1435125 -4.3304787 -0.24162968
2.1147132 -4.3390603 -0.24137934
2.1118093 -4.4014812 -0.24413317
2.0566161 -4.3547502 -0.24082856
2.0500607 -4.4107618 -0.24323192
2.0221276 -4.4214411 -0.24313179
2.024873 -4.5002551 -0.24678689
2.0546141 -4.6422849 -0.25389683
2.0236995 -4.6493096 -0.25359643
1.9794165 -4.6249113 -0.25159362
1.9362842 -4.6019869 -0.24969095
1.9053391 -4.6073203 -0.24934046
1.8856804 -4.6402063 -0.25049207
1.8771683 -4.7017779 -0.25319585
1.8628666 -4.7504005 -0.25519866
1.8390667 -4.775722 -0.25594971
3.054913 -8.0810061 -0.43249655
3.0070086 -8.1042805 -0.43274689
2.9544916 -8.1150703 -0.43234631
2.8969173 -8.111413 -0.43119472
2.8401599 -8.1092405 -0.43014324
2.7712142 -8.0707817 -0.42718911
2.7041223 -8.0355711 -0.42443526
2.6453848 -8.0235558 -0.42293316
2.5957966 -8.0386868 -0.42288309
2.5467243 -8.0554152 -0.42293316
2.5019724 -8.0861559 -0.42373428
2.4650402 -8.1434155 -0.42593735
2.4167273 -8.164134 -0.42623779
2.3602033 -8.1567421 -0.42508617
2.3090236 -8.1672268 -0.4248859
2.2543483 -8.1648741 -0.42403471
2.0080032 -7.4504733 -0.38623184
1.9592029 -7.4510627 -0.38563102
1.9109669 -7.4532695 -0.38513032
1.8683456 -7.4774513 -0.38578123
1.8309302 -7.5237103 -0.38758373
1.7877234 -7.5474367 -0.38823465
1.7481056 -7.5874619 -0.38973674
2.2535977 -10.361451 -0.53098422
2.1910098 -10.37997 -0.53123456
2.1238739 -10.376585 -0.53038341
2.0607471 -10.39236 -0.53053361
1.9963775 -10.401867 -0.53038341
1.9321508 -10.411957 -0.53028327
1.8696373 -10.431479 -0.53068382
1.8049151 -10.438819 -0.53048354
1.7406657 -10.448712 -0.53043348
1.6757306 -10.454266 -0.53018314
1.6117048 -10.465337 -0.5302332
1.546147 -10.466138 -0.52978253
1.4814792 -10.472461 -0.52963233
1.4487708 -10.714933 -0.54144889
0.85242212 -6.6088982 -0.33345807
0.8140443 -6.6318479 -0.33435932
0.77333671 -6.6367178 -0.33435932
0.73128635 -6.6294246 -0.33375847
0.69214588 -6.6486883 -0.33450955
0.65396386 -6.6796479 -0.33586141
0.61943984 -6.7541499 -0.33941638
0.58368564 -6.8244963 -0.34277108
0.54424834 -6.8588133 -0.34432325
0.50368327 -6.8829412 -0.34537473
0.46377692 -6.9207802 -0.34712717
0.44804284 -8.1924667 -0.41071609
0.39776638 -8.1950617 -0.41071609
0.34777084 -8.2043324 -0.41106656
0.29742345 -8.2063122 -0.41106656
0.19650581 -8.2013569 -0.41066602
0.1459841 -8.1914234 -0.41011524
0.095917605 -8.2091427 -0.41096643
0.045528911 -8.2065802 -0.41081622
-0.0048179585 -8.1927233 -0.41011524
-0.055020034 -8.1825523 -0.40961453
-0.10513609 -8.1750698 -0.40926406
-0.15453543 -8.1343279 -0.40726125
-0.20358953 -8.0992794 -0.40555888
-0.25750092 -8.2326422 -0.41231832
-0.19083631 -5.1020336 -0.25534886
-0.22326918 -5.126709 -0.25665069
-0.25516847 -5.1342201 -0.2571013
-0.28716829 -5.1415329 -0.25755194
-0.31617457 -5.0988035 -0.25549906
-0.35010526 -5.1356287 -0.2574518
-0.37983221 -5.1094799 -0.25625011
-0.41454449 -5.1488647 -0.25835305
-0.44457605 -5.128314 -0.2574518
-0.44831246 -4.8271513 -0.24243081
-0.46994379 -4.7438054 -0.23837513
-0.49893782 -4.73984 -0.23832506
-0.51871312 -4.6533113 -0.23411918
-0.54410237 -4.62326 -0.23276728
-0.58744979 -4.7407556 -0.23887584
-0.61704326 -4.7410235 -0.23907611
-0.64585191 -4.7351685 -0.23897597
-0.67686951 -4.7449594 -0.23967695
-0.70817858 -4.7555342 -0.240428
-0.73305476 -4.7234659 -0.23902604
-0.75995314 -4.7060614 -0.23837513
-0.78914529 -4.7032795 -0.23847526
-0.81850326 -4.7013006 -0.23862548
-0.84272236 -4.6706357 -0.23732366
-1.1504576 -4.5818539 -0.23622212
-1.180294 -4.5814781 -0.23657261
-1.2208852 -4.6214647 -0.23902604
-1.2614889 -4.6591954 -0.24137934
-1.3047369 -4.7042994 -0.24413317
-1.3054715 -4.5972481 -0.23897597
-1.3375579 -4.6025782 -0.23967695
-1.3885448 -4.6708708 -0.24368255
-1.4328662 -4.7138629 -0.24638633
-1.4902141 -4.7965436 -0.25119305
-1.5250568 -4.8044443 -0.2520943
-1.5649815 -4.8272982 -0.2537967
-1.6043017 -4.8469968 -0.25534886
-1.6372091 -4.8465238 -0.25584957
-1.7290834 -5.0167327 -0.26541293
-1.8028983 -5.1285162 -0.27192202
-1.8703964 -5.2179537 -0.27727953
-2.8173354 -7.7100873 -0.41091636
-2.88167 -7.7385168 -0.4133698
-2.9014635 -7.6478534 -0.40946433
-2.9710162 -7.6885977 -0.41261876
-2.9793694 -7.5717092 -0.40731132
-2.9110029 -7.2668076 -0.39183968
-2.9619472 -7.2645311 -0.3926909
-3.0087626 -7.2517552 -0.3929913
-3.0361109 -7.1926723 -0.39078823
-3.1826437 -7.4125142 -0.40380642
-3.3331838 -7.6335654 -0.41697484
-3.3872552 -7.6294007 -0.41787609
-3.4405789 -7.6230383 -0.41867721
-3.4889538 -7.6054149 -0.41887748
-3.5304899 -7.5730014 -0.41827667
-3.5751801 -7.547586 -0.41807637
-3.6235895 -7.5300069 -0.41832674
-3.6684086 -7.5049391 -0.4181765
-3.7143891 -7.4822888 -0.4181765
-3.7561834 -7.4513302 -0.41772589
-3.8004677 -7.4254756 -0.41757569
-3.8233931 -7.3585906 -0.41512224
-3.8698707 -7.3376427 -0.41527244
-3.913878 -7.3119984 -0.41517231
-3.991565 -7.3484011 -0.41862714
-4.0409179 -7.3316431 -0.41907778
-4.1028895 -7.3372197 -0.42083022
-4.136498 -7.2919269 -0.41967863
-4.194612 -7.2897811 -0.42103049
-4.2221456 -7.2345786 -0.41932812
-4.2593346 -7.1965032 -0.41862714
-4.3214011 -7.2002044 -0.42037961
-4.3530378 -7.1530776 -0.41917792
-4.3769164 -7.0939345 -0.41727525
-4.414536 -7.0576305 -0.41672447
-4.4732676 -7.0548711 -0.4181765
-4.5521126 -7.0827417 -0.42148113
-4.5954852 -7.0546775 -0.42148113
-4.6386857 -7.0263472 -0.42148113
-4.6622729 -6.9686995 -0.4197287
-4.7183952 -6.9598012 -0.42093036
-4.7485695 -6.9126077 -0.41982883
-4.7823362 -6.8710456 -0.41907778
-4.8272843 -6.8456535 -0.41932812
-4.8825512 -6.8345957 -0.42047974
-4.9208822 -6.799654 -0.42017931
-4.9447961 -6.7451677 -0.41867721
-4.9884725 -6.7179074 -0.41887748
-3.435055 -4.5672474 -0.28589156
-3.24997 -4.2664323 -0.26826692
-3.2602241 -4.2258511 -0.26696509
-3.264569 -4.1782231 -0.26521266
-3.1661923 -4.0014753 -0.25519866
-3.1813169 -3.9702818 -0.25444761
-3.1949196 -3.9375029 -0.25359643
-3.074451 -3.741889 -0.24218045
-3.0724397 -3.6930118 -0.24022771
-3.0699456 -3.6443017 -0.23827499
-3.0715075 -3.6010811 -0.23667274
-3.0876698 -3.5753641 -0.23622212
-3.0983732 -3.54357 -0.23537093
-3.1154234 -3.5192575 -0.23502044
-3.1249592 -3.4866886 -0.23411918
-3.1449521 -3.4659693 -0.23401904
-3.1803493 -3.4620521 -0.23507051
-3.2028928 -3.4439352 -0.23517065
-3.2267029 -3.4271262 -0.23537093
-3.2600744 -3.4202754 -0.23627219
-3.3344026 -3.4555457 -0.24012758
-3.408586 -3.4893155 -0.2439329
-3.4488943 -3.4875083 -0.2452848
-3.4575086 -3.4535763 -0.24438353
-3.4793451 -3.4329979 -0.2444336
-3.5260937 -3.4366784 -0.24623612
-3.5622244 -3.4295242 -0.24728759
-3.5774102 -3.4020963 -0.24688703
-3.5974901 -3.3793979 -0.24683696
-3.6159613 -3.3552225 -0.24668676
-3.6239634 -3.3215008 -0.24583556
-3.6361306 -3.2918291 -0.2452848
-3.669662 -3.2814388 -0.24618605
-3.6949677 -3.2634885 -0.24653654
-3.7179332 -3.2433813 -0.24673682
-3.7438176 -3.2257223 -0.24713738
-3.7954867 -3.2298739 -0.24924032
-3.8137043 -3.2052391 -0.24914017
-3.8202345 -3.1709352 -0.24828899
-3.8519778 -3.1575649 -0.24909011
-3.8774903 -3.1388969 -0.24949066
-3.9130602 -3.1281416 -0.25054213
-3.9400198 -3.1102607 -0.25104284
-3.9038885 -3.0430481 -0.24753794
-3.9319847 -3.0263467 -0.24813879
-3.9560463 -3.0063934 -0.24848928
-3.941664 -2.9574888 -0.2464364
-3.9629467 -2.9356253 -0.24663667
-3.9986212 -2.9242234 -0.24773823
-4.0529299 -2.9259386 -0.24999137
-4.0805669 -2.9079702 -0.2505922
-4.0934315 -2.8794303 -0.25029179
-4.12497 -2.8639417 -0.25114298
-7.2436361 -4.9634099 -0.43960649
-7.3037395 -4.9390106 -0.44140899
-7.3696303 -4.9179406 -0.443562
-7.4030037 -4.8748255 -0.44376227
-7.430263 -4.8276772 -0.44361207
-7.2663546 -4.658031 -0.43209597
-7.1977243 -4.55197 -0.42633793
-7.2272143 -4.5087771 -0.42643806
-7.2734566 -4.4758615 -0.42753962
-7.5133805 -4.5601749 -0.44000703
-7.6680512 -4.5899014 -0.44741741
-7.6780081 -4.5321035 -0.44636592
-7.7384734 -4.5039973 -0.44826859
-7.8084106 -4.4807863 -0.45072201
-7.8679214 -4.450985 -0.45257461
-7.9099135 -4.4108939 -0.45342579
-7.9525843 -4.370935 -0.45432705
-7.9854012 -4.325386 -0.45467755
-7.9985743 -4.2692533 -0.4539265
-8.0272713 -4.2214894 -0.45407671
-8.079627 -4.1859379 -0.4555788
-8.1096077 -4.1385531 -0.45582914
-8.1357412 -4.0891643 -0.45587924
-8.1490421 -4.0334082 -0.45522833
-8.1736374 -3.9833305 -0.45522833
-8.2015266 -3.9348311 -0.4554286
-8.1848755 -3.8652427 -0.45317546
-6.0419602 -2.8081248 -0.333408
-5.9791479 -2.7344484 -0.32900184
-6.0003676 -2.6997585 -0.32925218
-5.986681 -2.6495526 -0.32759988
-5.8215017 -2.5338545 -0.31768602
-5.6037164 -2.3982821 -0.30496824
-5.5235047 -2.3239622 -0.29981104
-5.522893 -2.2839208 -0.29900992
-5.5266247 -2.2458541 -0.29845914
-5.5245323 -2.2056065 -0.29760796
-5.5175056 -2.1636462 -0.2965064
-5.4738226 -2.1078598 -0.29345214
-5.4661007 -2.0664642 -0.29235059
-5.4393492 -2.018295 -0.29024765
-5.4300456 -1.9770237 -0.28909606
-5.4251442 -1.9376223 -0.28819478
-5.4180789 -1.8976955 -0.28719339
-5.4258423 -1.8631179 -0.28699312
-5.439065 -1.8304275 -0.28709325
-5.4606276 -1.8004593 -0.287644
-5.4810767 -1.7699885 -0.28814471
-5.4965954 -1.737829 -0.28839508
-5.5071549 -1.70407 -0.28839508
-5.5270667 -1.6731398 -0.28889576
-5.5439324 -1.6411791 -0.28924626
-5.5788426 -1.6143483 -0.29054809
-5.5876818 -1.5798153 -0.29049802
-5.6165247 -1.5508157 -0.29149941
-5.6490788 -1.5225611 -0.2927011
-5.6544509 -1.4868546 -0.29250079
-5.6663704 -1.4528755 -0.29265103
-5.8951335 -1.4730319 -0.30401692
-5.9040608 -1.4368322 -0.30401692
-5.9302592 -1.4047216 -0.30491817
-5.9621248 -1.3736886 -0.30611986
-5.9948068 -1.3425355 -0.30737159
-6.0361133 -1.312943 -0.30907398
-6.0675087 -1.2808313 -0.31027564
-6.0860171 -1.2457805 -0.31082642
-6.0857086 -1.2068599 -0.31042588
-6.0949616 -1.1698725 -0.31052601
-6.1167545 -1.1351856 -0.31127706
-6.2061834 -1.1124313 -0.31548294
-6.2542267 -1.0814759 -0.31758589
-6.2981815 -1.049316 -0.31948853
-6.360713 -1.0196604 -0.32234251
-6.4211402 -0.98897237 -0.32509637
-9.8258972 -1.4515795 -0.49733719
-9.8840637 -1.3982551 -0.49984071
-9.9399652 -1.3440039 -0.50224406
-9.9717979 -1.2860535 -0.50344574
-9.984458 -1.2254517 -0.50369608
-10.007662 -1.1660142 -0.50449723
-10.031504 -1.1064473 -0.50534838
-10.053998 -1.0465285 -0.50614953
-10.10993 -0.98968267 -0.50865299
-10.191401 -0.93456036 -0.51245832
-10.236748 -0.87541264 -0.51446116
-10.263829 -0.81432194 -0.51556265
-10.262656 -0.7508918 -0.51526225
-10.264081 -0.68770695 -0.51511204
-10.270102 -0.62483609 -0.51521218
-10.280723 -0.5621897 -0.51556265
-10.285974 -0.49919456 -0.51566279
-10.319777 -0.43738201 -0.51721495
-10.37217 -0.3758601 -0.51971847
-10.402234 -0.31305116 -0.52112043
-10.414943 -0.24948122 -0.52167124
-10.43525 -0.18590924 -0.52262253
-10.487127 -0.12246991 -0.52517611
-10.538616 -0.058400955 -0.52772969
-10.569737 0.0062829587 -0.52928185
-10.59247 0.071292639 -0.53043348
-10.600821 0.13640131 -0.53088409
-10.606775 0.20157714 -0.53123456
-10.648271 0.26773572 -0.5333876
-10.687356 0.33434856 -0.53544044
-10.716043 0.4010773 -0.53699261
-10.767261 0.46917114 -0.5396964
-10.769167 0.53547704 -0.53994679
-10.819528 0.60455531 -0.54265052
-10.866451 0.67408609 -0.5452041
-10.930865 0.74543887 -0.54865897
-10.967917 0.81560701 -0.55076188
-10.985603 0.88473403 -0.5519135
-11.005837 0.95436764 -0.55321532
-11.02762 1.0244676 -0.55461729
-11.051936 1.0951662 -0.55616945
-11.088712 1.1675617 -0.5583725
-11.126006 1.2405599 -0.56062567
-6.9313979 0.8158589 -0.34928018
-6.8836417 0.85309047 -0.34712717
-11.113171 1.4466906 -0.56122655
-6.7548947 0.92143148 -0.34116885
-6.7412043 0.96173263 -0.34076828
-6.7391272 1.0036664 -0.34096858
-6.7239604 1.0436192 -0.34051794
-6.7006688 1.0821494 -0.33966675
-6.6692786 1.1191108 -0.338415
-6.65835 1.1593262 -0.33821473
-6.5990195 1.1907576 -0.33556101
-6.5729351 1.2277411 -0.33460969
-6.5574331 1.2665334 -0.33420911
-6.5368061 1.3042043 -0.3335582
-6.4778132 1.3338131 -0.33095458
-6.4773231 1.3751948 -0.33135512
-6.4668117 1.4144861 -0.33125499
-6.5203686 1.4681824 -0.33445945
-6.5024805 1.5061344 -0.33400884
-6.4445376 1.5344362 -0.33150533
-6.4194794 1.5701531 -0.33070421
-6.3913198 1.6048906 -0.32975289
-6.3784504 1.643329 -0.32960269
-6.3740406 1.6839663 -0.3299031
-6.3471994 1.7186071 -0.32905191
-6.303813 1.7484434 -0.32734951
-6.2727904 1.7813596 -0.32629806
-6.2492743 1.8161913 -0.32564715
-6.2246103 1.8505169 -0.32494617
-6.2035828 1.8857706 -0.32444546
-6.1728206 1.9178721 -0.32344407
-6.1409459 1.9493651 -0.32239258
-6.1545205 1.995326 -0.32374448
-6.1298356 2.0289714 -0.32309356
-6.0756378 2.0524793 -0.32089049
-6.0421567 2.0825593 -0.31978896
-6.0141897 2.1142938 -0.31898785
-5.9982824 2.1501453 -0.31883761
-5.9924812 2.189652 -0.31923819
-5.9948444 2.2323053 -0.32008937
-5.9810343 2.269047 -0.32008937
-5.9539566 2.300663 -0.31938839
-5.919282 2.3291063 -0.31828687
-5.8993163 2.3631539 -0.31798643
-5.8643594 2.3910108 -0.31688491
-5.8421979 2.4238868 -0.31648433
-5.8354969 2.4631839 -0.31693497
-5.8331208 2.5044603 -0.31763595
-5.8094063 2.5366073 -0.31718531
-5.787343 2.5693686 -0.31683484
-5.7814822 2.6093504 -0.31738558
-5.7535615 2.6393616 -0.31673467
-5.7354479 2.6737711 -0.31663454
-5.7053952 2.7024992 -0.31588349
-5.6707067 2.7287939 -0.3148821
-5.6583428 2.7657304 -0.31513244
-5.6305313 2.7950678 -0.31453159
-5.6159506 2.8309124 -0.31468183
-5.5984745 2.8653178 -0.31468183
-5.5701532 2.8940895 -0.31408098
-5.5487571 2.9263492 -0.31388068
-5.6900716 3.0456545 -0.32294336
-5.6695218 3.0795572 -0.32284322
-5.4257278 2.9903824 -0.30997524
-5.4308128 3.0367796 -0.31132713
-5.4146833 3.0715239 -0.31147733
-5.4251671 3.1216264 -0.3131797
-5.4248877 3.1659317 -0.31428126
-5.4036407 3.1981411 -0.31418112
-5.3299665 3.1988561 -0.31102669
-5.3068256 3.2294228 -0.31082642
-5.29286 3.2655952 -0.31117693
-5.2972784 3.3133705 -0.31262895
-5.2996216 3.3602521 -0.31398085
-5.2469773 3.3721864 -0.31207818
-5.207777 3.3923242 -0.31097662
-5.2027001 3.43467 -0.31192797
-5.188168 3.4709716 -0.31232852
-5.2337327 3.5481384 -0.3163842
-5.2546697 3.6095927 -0.31898785
-5.1512704 3.5852802 -0.31403092
-5.1316233 3.6185472 -0.31418112
-5.1263895 3.6621585 -0.31523257
-5.1208129 3.7058411 -0.31628406
-5.1100602 3.7460499 -0.31703511
-5.0917892 3.7809069 -0.31733552
-5.0748801 3.8168809 -0.31773609
-5.0688424 3.8612635 -0.31883761
-5.0996156 3.9343896 -0.32229245
-10.199397 7.9695139 -0.64829826
-5.5490599 4.3908424 -0.35413697
-5.4191365 4.3423672 -0.34752774
-9.9121571 8.043251 -0.63933575
-9.8510437 8.094409 -0.63858467
-9.7958174 8.1502295 -0.6382342
-9.7486792 8.2127571 -0.63843447
-9.7171001 8.2886229 -0.63968623
-9.7212362 8.3957453 -0.6433413
-9.7176561 8.4973125 -0.64654583
-9.6765509 8.5667095 -0.64729685
-9.6334724 8.6345882 -0.64794779
-9.6320829 8.7405176 -0.65145266
-12.372345 11.366432 -0.84166861
-12.32504 11.46322 -0.84322077
-12.392625 11.668717 -0.85273409
-12.456701 11.874091 -0.86214727
-12.511533 12.073751 -0.87105972
-12.456503 12.169138 -0.87241161
-12.434858 12.298014 -0.87616682
-12.396571 12.411533 -0.87882054
-12.351748 12.519358 -0.88107371
-12.315126 12.636396 -0.88397777
-12.309396 12.786553 -0.88918507
-12.316048 12.951589 -0.89539373
-12.269168 13.061857 -0.89779711
-12.250607 13.20352 -0.90235347
-12.372517 13.667543 -0.92363322
-12.326366 13.785641 -0.92648721
-12.418068 14.060892 -0.93985587
-12.309893 14.111986 -0.93820357
-12.27457 14.247029 -0.94215912
-12.344846 14.507673 -0.95437622
-12.259452 14.587734 -0.95467663
-12.333002 14.859427 -0.96749455
-12.216332 15.091941 -0.97280192
-12.162786 15.215764 -0.97595638
-12.074765 15.297162 -0.97640699
-11.991113 15.384355 -0.97725821
-11.931211 15.502757 -0.9801122
-12.140207 16.389887 -1.0219207
-12.05415 16.484226 -1.0231724
-12.031693 16.667202 -1.0299318
-11.947746 16.766741 -1.0315341
-11.967029 17.013737 -1.042199
-11.982586 17.259954 -1.0527637
-12.022189 17.778835 -1.0753453
-11.851795 18.998205 -1.1219605
-11.852244 19.261105 -1.1331762
-11.856646 19.535818 -1.1450428
-11.733476 19.60306 -1.1447424
-11.658662 19.752094 -1.1492486
-11.558346 19.859512 -1.1513516
-11.540656 20.111975 -1.1618663
-11.574884 20.461454 -1.1779388
-11.439877 20.515518 -1.1769874
-11.397963 20.738497 -1.1857497
-11.197722 20.673679 -1.178089
-10.547452 20.35928 -1.1488981
-10.422785 20.424503 -1.1489482
-11.311677 22.854897 -1.2778285
-10.897228 23.448053 -1.2956533
-10.041203 23.46369 -1.2788799
-9.2109718 22.275469 -1.2078305
-9.0944204 22.381533 -1.2105343
-6.89008 17.571749 -0.94561392
-6.7498336 17.52981 -0.94110763
-6.628726 17.535397 -0.93920499
-6.5404611 17.628178 -0.94200891
-6.4536972 17.7271 -0.94516331
-6.3501782 17.781416 -0.94596446
-6.1587567 17.585335 -0.93349701
-5.9891186 17.443316 -0.92398369
-5.7806869 17.178719 -0.90806144
-5.7236404 17.360886 -0.91582227
-5.6314321 17.44035 -0.91817558
-5.549902 17.555519 -0.92243153
-5.4710078 17.682747 -0.92733836
-4.5407043 15.001176 -0.78513956
-4.4224949 14.940648 -0.78053313
-4.2766094 14.78042 -0.77076948
-4.1467152 14.667987 -0.7635594
-4.0260706 14.58244 -0.75780135
-3.9172881 14.535508 -0.75409615
-3.7904415 14.416314 -0.7466858
-3.7096016 14.469292 -0.74823797
-3.5931532 14.38132 -0.74252999
-3.4800501 14.301201 -0.73727268
-3.3857894 14.295073 -0.73587072
-3.3107922 14.371054 -0.73872471
-3.2321525 14.433981 -0.74092776
-3.1462858 14.466228 -0.7415787
-3.0731382 14.559529 -0.74538398
-2.9965608 14.640734 -0.7485885
-2.9062819 14.656885 -0.74848831
-2.8509283 14.854918 -0.75770122
-2.7812266 14.988006 -0.76360947
-2.6951995 15.038213 -0.76531184
-2.6212513 15.160755 -0.77071941
-2.5526283 15.323345 -0.77817982
-2.4735727 15.432405 -0.78293651
-2.3993542 15.580551 -0.78969592
-2.3072112 15.618692 -0.79089761
-2.2351115 15.800669 -0.79940951
-2.149224 15.896235 -0.80356532
-2.0704217 16.054733 -0.8109256
-1.9813612 16.144457 -0.81483108
-1.9247899 16.521379 -0.83325684
-1.8294014 16.587479 -0.83601069
-1.7352381 16.671904 -0.8397159
-1.6391346 16.745852 -0.84292036
-1.1799277 12.867802 -0.64719671
-1.1003547 12.867833 -0.64684623
-1.0158505 12.804649 -0.6433413
-0.93311065 12.753864 -0.64048731
-0.8474949 12.649733 -0.63497961
