# .PCD v0.7 - Point Cloud Data file format
VERSION 0.7
FIELDS x y z
SIZE 4 4 4
TYPE F F F
COUNT 1 1 1
WIDTH 1449
HEIGHT 1
VIEWPOINT 0 0 0 1 0 0 0
POINTS 1449
DATA ascii
2.074373 3.3399084 -0.70735204
2.0901093 3.3196213 -0.70575362
2.1353161 3.3457272 -0.71410084
2.144583 3.3152082 -0.7103712
2.1557138 3.2879944 -0.70735204
2.18946 3.2951992 -0.71179205
2.2035933 3.2727227 -0.70983845
2.2208602 3.255075 -0.7089504
2.2407911 3.2413869 -0.7089504
2.2533 3.2170968 -0.70664161
2.275275 3.2064207 -0.70735204
2.2897375 3.1852074 -0.70575362
2.3185055 3.1838274 -0.70859522
2.3379974 3.1695416 -0.70859522
2.3479791 3.1425209 -0.70575362
2.3672171 3.1280549 -0.70575362
2.3911541 3.1197205 -0.70717442
2.4018047 3.0941052 -0.70468801
2.4329064 3.0947847 -0.70824003
2.4524624 3.0805686 -0.70841759
2.4509399 3.0401766 -0.70255685
2.4602149 3.0136442 -0.69989282
2.468003 2.9855957 -0.69687361
2.4875388 2.9719057 -0.69722879
2.5108163 2.9625931 -0.69864964
2.5174139 2.9336865 -0.69545281
2.5405297 2.9241285 -0.69687361
2.5707712 2.9225264 -0.700248
2.5951989 2.9140477 -0.70202404
2.6169837 2.9024551 -0.70308959
2.6294367 2.8805275 -0.7016688
2.6477296 2.865062 -0.70184642
2.6652596 2.848762 -0.70184642
2.6407387 2.7880495 -0.69083524
2.668011 2.7824502 -0.69349921
2.6809216 2.7617898 -0.6924336
2.7040241 2.7516062 -0.69403201
2.700038 2.7140298 -0.68870401
2.7145455 2.6953309 -0.68817121
2.7563212 2.7034354 -0.69456482
2.7891109 2.7022245 -0.69864964
2.8042173 2.6836987 -0.6982944
2.8327868 2.6779366 -0.70131361
2.8520417 2.6631918 -0.70202404
2.833612 2.6136096 -0.69349921
2.8445039 2.5915334 -0.69225603
2.8691285 2.5819321 -0.6943872
2.8805044 2.5603554 -0.69332165
2.9072516 2.5523736 -0.69598562
2.9191411 2.5312629 -0.69509763
2.9278915 2.5075412 -0.69349921
2.9454763 2.4914358 -0.69403201
2.9743006 2.4846745 -0.69722879
2.9667201 2.4475861 -0.69190079
2.9565089 2.4088194 -0.68604004
2.980433 2.3980377 -0.68817121
3.0112696 2.3925636 -0.69190079
3.0305383 2.3776875 -0.6929664
3.041959 2.3566363 -0.69225603
3.0501094 2.3331423 -0.69083524
3.0557306 2.307858 -0.68888164
3.0777223 2.2949488 -0.69065762
3.0965004 2.2795224 -0.69172323
3.0945091 2.2489061 -0.68817121
3.1090496 2.2304502 -0.68834883
2.6336336 1.8648931 -0.58019042
2.4756613 1.7302738 -0.54289436
2.4659827 1.7010767 -0.53845435
2.469867 1.6814818 -0.53703356
2.4776876 1.6646485 -0.53650075
2.4935958 1.6532221 -0.53774399
2.5160441 1.6459743 -0.54040796
2.5310566 1.6337084 -0.54147357
2.5999613 1.6556906 -0.55408317
3.2416377 2.0366507 -0.68870401
3.0073359 1.8637495 -0.63631201
2.6912847 1.6450322 -0.56704801
2.6794176 1.6152732 -0.56243038
2.6977363 1.6038328 -0.56420636
2.6990378 1.5822711 -0.56243038
2.7095475 1.566173 -0.562608
2.7464638 1.5651152 -0.56829119
3.2638881 1.8336722 -0.67343038
3.3396404 1.8493773 -0.68675041
3.3630176 1.8354532 -0.68923682
3.3421514 1.797531 -0.68266559
3.3539872 1.777451 -0.68284321
3.3770425 1.7632165 -0.68532962
3.3755469 1.7361586 -0.68284321
3.3852584 1.714969 -0.68266559
3.409806 1.701197 -0.68550724
3.4139977 1.6772043 -0.684264
3.4109368 1.6497951 -0.68160003
3.4485378 1.6419543 -0.6871056
3.461221 1.6220167 -0.6876384
3.4675338 1.5990994 -0.68692803
3.4575663 1.5688438 -0.68302083
3.4527502 1.5411787 -0.68017924
3.4657459 1.5215471 -0.68088961
3.4985058 1.5103986 -0.68550724
3.5086133 1.4892883 -0.6856848
3.5258589 1.4711438 -0.68728322
3.5284462 1.4468672 -0.68604004
3.5436466 1.4277654 -0.68728322
3.5486805 1.4045458 -0.68657279
3.5287991 1.3716874 -0.68106723
3.5288749 1.3468498 -0.67946881
3.5426018 1.327244 -0.68053442
3.5673034 1.3115976 -0.6837312
3.5215957 1.2703078 -0.67343038
3.5293238 1.2486758 -0.67343038
3.5834041 1.2431315 -0.6823104
3.5928276 1.2217547 -0.68266559
3.583452 1.1940838 -0.67946881
3.6000659 1.1751289 -0.68124479
3.5744021 1.1425248 -0.6750288
3.5897975 1.1232175 -0.67662722
3.5749803 1.0945399 -0.67254239
3.5750301 1.0706062 -0.67129922
3.6117527 1.0575041 -0.6769824
3.6257424 1.03749 -0.6784032
3.6310923 1.0149583 -0.67822564
3.6135182 0.98617774 -0.67378563
3.6004829 0.95891851 -0.67023361
3.5643914 0.92591435 -0.6624192
3.6119792 0.91466278 -0.67023361
3.6270776 0.89484173 -0.67200959
3.5970967 0.86405897 -0.66543841
3.5984979 0.84107476 -0.66472799
3.5901566 0.81592339 -0.66224164
3.5979781 0.79451632 -0.66277438
3.6075966 0.77345687 -0.66366243
3.6093841 0.75070482 -0.66312963
3.5570073 0.71706015 -0.65265119
3.6067345 0.70409107 -0.6609984
3.6177559 0.68322676 -0.66224164
3.6315606 0.66278434 -0.66401762
3.5967932 0.63365269 -0.65691364
3.6151662 0.61404562 -0.65957761
3.5955577 0.58803576 -0.65531522
3.6010423 0.56626886 -0.6556704
3.6316946 0.5482806 -0.66064322
3.6174595 0.52344686 -0.65744638
3.6059816 0.49921387 -0.65478241
3.6119034 0.47746596 -0.65531522
3.6050014 0.4540633 -0.65353918
3.6047885 0.43158337 -0.65300643
3.5927017 0.40778932 -0.6503424
3.607856 0.38710427 -0.65265119
1.9251406 0.1943212 -0.34700152
1.9311953 0.18297081 -0.34788954
1.9156176 0.16963658 -0.34487033
1.9107379 0.1573927 -0.34380475
1.9146112 0.14589095 -0.34433752
1.9243054 0.134762 -0.34593594
1.9309886 0.12333044 -0.34700152
1.9484106 0.1124491 -0.35002074
1.9559435 0.10084869 -0.35126394
1.9594746 0.08898022 -0.35179675
1.9472004 0.076449409 -0.34948793
3.738683 0.12439462 -0.67289764
3.6862538 0.10000195 -0.66330719
1.9669714 0.04099042 -0.35286233
1.8874826 0.027723243 -0.33847675
1.8915535 0.016176321 -0.33918715
1.8924832 -0.0055295103 -0.37231559
1.8747572 -0.016979098 -0.36881939
1.8755985 -0.028497111 -0.36901361
1.8695041 -0.039878689 -0.36784819
1.872166 -0.051430225 -0.36843091
1.8767171 -0.063082106 -0.36940208
1.8772749 -0.074635342 -0.3695963
1.884621 -0.086513631 -0.3711502
1.8850342 -0.098126948 -0.37134442
3.4522393 -0.20117377 -0.68231362
3.4431086 -0.22184734 -0.68075973
3.4592955 -0.24421446 -0.68425596
3.4645786 -0.26596177 -0.6856156
3.4501729 -0.28615999 -0.68309057
3.4757102 -0.30976477 -0.68852913
3.3721857 -0.3213982 -0.66832876
3.358439 -0.34089386 -0.66599792
3.3523827 -0.36107394 -0.66522098
3.4124813 -0.38874775 -0.677652
3.3915267 -0.4074544 -0.67396152
3.4035611 -0.43010262 -0.67687505
3.3998854 -0.45084935 -0.6766808
3.3504171 -0.4652226 -0.66735756
3.3533242 -0.48661736 -0.66852295
3.2901418 -0.49807572 -0.65648043
3.280241 -0.51718426 -0.65512079
3.2469974 -0.53237909 -0.64909953
3.2562408 -0.55443382 -0.65162456
3.2363558 -0.57150197 -0.64832258
3.2385778 -0.59240866 -0.64948803
3.232954 -0.61190403 -0.64909953
3.215661 -0.6290918 -0.64638025
3.2175095 -0.64997673 -0.6475457
3.1990564 -0.66670352 -0.64463216
3.2035367 -0.68817496 -0.64638025
3.1935072 -0.70654666 -0.64521486
3.1661568 -0.72089976 -0.64055324
3.1769557 -0.74389297 -0.64366096
3.163748 -0.76130617 -0.64191288
3.1504464 -0.77858537 -0.64016473
3.1703312 -0.80417436 -0.64521486
3.1435027 -0.81792885 -0.64074749
3.1298947 -0.83492541 -0.63899934
3.1161969 -0.8517859 -0.63725126
3.0787947 -0.86189663 -0.6306473
3.0828781 -0.88347471 -0.63258964
3.0830469 -0.9040308 -0.63375503
3.0802608 -0.92377663 -0.63433772
3.0923533 -0.94812435 -0.6380282
3.0275059 -0.94859809 -0.62579143
3.0253656 -0.96835315 -0.62656838
3.0119078 -0.9844594 -0.62501448
2.9853396 -0.9960894 -0.62074131
2.9828858 -1.0156534 -0.62151825
2.9895701 -1.0384442 -0.62423754
2.9480066 -1.0443183 -0.61685663
2.9175558 -1.0537215 -0.61180657
3.0030887 -1.1054988 -0.63123
2.8988945 -1.0873775 -0.61064112
2.9489789 -1.1268582 -0.62268364
2.9310393 -1.1406615 -0.62035286
2.8802121 -1.1412754 -0.61102962
2.8740652 -1.1592935 -0.61122382
2.8805091 -1.1824957 -0.61413735
2.8695786 -1.1986353 -0.6133604
2.8513365 -1.2116156 -0.61102962
2.8582554 -1.2353162 -0.61413735
2.7913525 -1.2267765 -0.60131788
2.782877 -1.2434806 -0.60112363
2.7751949 -1.2605325 -0.60112363
2.7540491 -1.2713687 -0.59821016
2.7790544 -1.3036605 -0.60539681
2.7373545 -1.3046472 -0.5980159
2.7089918 -1.3115852 -0.59354854
2.7114558 -1.3333781 -0.59587932
2.6918151 -1.3442916 -0.59335428
2.7018881 -1.3701012 -0.59743321
2.7021515 -1.3911448 -0.59937555
2.6831326 -1.4022455 -0.59704477
2.6510813 -1.4062691 -0.59180039
2.6588132 -1.4313456 -0.59549087
2.6568673 -1.4513956 -0.59704477
2.6573489 -1.4729024 -0.59918129
2.6055114 -1.4651357 -0.58946961
2.6322579 -1.5015123 -0.59762746
2.572902 -1.4886463 -0.58616763
2.5637195 -1.5044053 -0.58616763
2.5797286 -1.5351592 -0.59199464
2.5400259 -1.5327114 -0.58500218
2.5565119 -1.5641408 -0.59102345
2.555202 -1.5849694 -0.59296584
2.5562236 -1.6074072 -0.59549087
2.5123994 -1.6014405 -0.58752728
2.4868717 -1.6067106 -0.58383679
2.4794281 -1.623552 -0.58441949
2.4612463 -1.63331 -0.58247715
2.4316432 -1.6352415 -0.57781553
2.3453684 -1.5981992 -0.5595575
2.4243081 -1.6738774 -0.58092326
2.4477491 -1.7123406 -0.58908111
2.4395971 -1.7290295 -0.5896638
2.4106162 -1.7308056 -0.58519644
2.4062967 -1.7501808 -0.58675033
2.3378642 -1.7224319 -0.57257122
2.3343265 -1.7420251 -0.5743193
2.3415914 -1.7699218 -0.57878673
2.3228986 -1.7782925 -0.57684433
2.2886879 -1.7744781 -0.57101732
2.2939579 -1.8012114 -0.57509625
2.306663 -1.8341815 -0.58111751
2.2525818 -1.8138436 -0.57024038
2.2740986 -1.8542899 -0.57859248
2.2452812 -1.8538421 -0.57412511
2.2346165 -1.8682133 -0.5743193
2.2088869 -1.8698461 -0.57062888
2.2048197 -1.8897488 -0.57257122
2.1857746 -1.8968117 -0.57062888
2.1667264 -1.9037124 -0.56868654
2.1476758 -1.9104508 -0.56674415
2.1512189 -1.93738 -0.57082307
2.1240697 -1.9366622 -0.56674415
2.1114259 -1.9489934 -0.56654996
2.14816 -2.0074611 -0.57975787
2.1165636 -2.0024002 -0.57451355
2.0943201 -2.0058494 -0.57179427
2.0671844 -2.0043209 -0.56771535
2.0359473 -1.9984121 -0.56247103
2.0375624 -2.0246971 -0.56635571
2.0216432 -2.0336823 -0.56538457
2.0043161 -2.0411487 -0.56402493
2.0122416 -2.0745342 -0.56985193
1.98251 -2.0691328 -0.56499606
1.9684284 -2.0798335 -0.56460762
1.9475914 -2.0832725 -0.56227678
1.9387646 -2.099508 -0.56344217
1.9298118 -2.1157134 -0.56460762
1.9338639 -2.1464648 -0.56965768
1.9226131 -2.1604888 -0.57024038
1.9112631 -2.1744559 -0.57082307
1.9010999 -2.1898463 -0.57179427
1.8659199 -2.1761487 -0.56519032
1.8588711 -2.1950431 -0.56713265
1.823343 -2.1800692 -0.56033444
1.827422 -2.2123945 -0.56577301
1.8082327 -2.2167239 -0.56402493
1.786598 -2.2178457 -0.56149983
1.7772301 -2.2341404 -0.56285948
1.7683356 -2.2511749 -0.56441337
1.7460732 -2.2511306 -0.56169409
1.7429625 -2.2758212 -0.56519032
1.7307402 -2.2888203 -0.56577301
1.7149034 -2.2970386 -0.56519032
1.7042685 -2.3122561 -0.56635571
1.6946653 -2.3290157 -0.5679096
1.6894982 -2.3521185 -0.57101732
1.6727648 -2.3592396 -0.57024038
1.6548829 -2.3646367 -0.56907499
1.6425723 -2.377975 -0.56985193
1.6163484 -2.3709867 -0.56577301
1.6099824 -2.3930693 -0.56868654
1.5909284 -2.3963645 -0.56713265
1.5611457 -2.3831041 -0.56169409
1.5401049 -2.3827515 -0.55936325
1.5613157 -2.4484024 -0.57257122
1.5201497 -2.4164181 -0.56285948
1.5037427 -2.4231992 -0.56227678
1.4827014 -2.4223399 -0.559946
1.4799758 -2.4515481 -0.56460762
1.4618952 -2.4555254 -0.56344217
1.4458077 -2.4627571 -0.56305373
1.4316521 -2.4732802 -0.56344217
1.4140186 -2.4777579 -0.56247103
1.4055214 -2.4983575 -0.56519032
1.4020563 -2.5283825 -0.57004619
1.3761679 -2.5179996 -0.56577301
1.3383681 -2.4849389 -0.55644977
1.3221761 -2.4913709 -0.55606127
1.3055011 -2.4968288 -0.55547857
1.2991383 -2.5222344 -0.55936325
1.2836378 -2.5301583 -0.55936325
1.2588831 -2.5195582 -0.55528432
1.2572548 -2.5554025 -0.56149983
1.2453996 -2.5710146 -0.56324798
1.2262236 -2.5715239 -0.56169409
1.2070884 -2.5718951 -0.56014019
1.1781251 -2.5507545 -0.55392474
1.1835517 -2.6043763 -0.56402493
1.1767557 -2.6321876 -0.56849229
1.1447916 -2.6034381 -0.56072289
1.1217891 -2.5942059 -0.55722672
1.1081525 -2.606457 -0.55839211
1.090626 -2.609587 -0.55761516
1.0734755 -2.6135075 -0.55703247
1.0658611 -2.6409678 -0.56149983
1.0510823 -2.6511059 -0.56227678
1.0291018 -2.6428792 -0.55916905
1.019871 -2.66747 -0.56305373
1.0027952 -2.6718407 -0.56266528
0.98197562 -2.6659765 -0.56014019
0.97159863 -2.6885583 -0.56363642
0.95639426 -2.6981678 -0.56441337
0.93917668 -2.702132 -0.56402493
0.92099768 -2.7032011 -0.56305373
0.90874177 -2.7218282 -0.56577301
0.88745105 -2.7133672 -0.56285948
0.87048632 -2.7178271 -0.56266528
0.85320681 -2.7212451 -0.56227678
0.8382194 -2.7320559 -0.56344217
0.81805742 -2.725873 -0.56111139
0.80601025 -2.7468431 -0.56441337
0.78589684 -2.7404213 -0.56208253
0.7637763 -2.7262995 -0.55819786
0.75013858 -2.7422893 -0.5605287
0.73835665 -2.7657964 -0.56441337
0.73199779 -2.8110955 -0.57276547
0.70001745 -2.757534 -0.56091714
0.68167174 -2.7560635 -0.55975175
0.66635513 -2.7668703 -0.56111139
0.65227395 -2.7833233 -0.56363642
0.63649076 -2.7930119 -0.56480181
0.62527716 -2.8236823 -0.57024038
0.60855794 -2.830343 -0.57082307
0.58657455 -2.8119366 -0.56635571
0.57300216 -2.8337519 -0.57004619
0.55108148 -2.8141098 -0.56538457
0.53307396 -2.8135829 -0.56460762
0.52003855 -2.8399589 -0.56926924
0.49953088 -2.8257086 -0.56577301
0.48564297 -2.8490279 -0.56985193
0.46910536 -2.8577623 -0.57101732
0.45370182 -2.8741524 -0.57373661
0.43870237 -2.8943403 -0.57723284
0.41811544 -2.877562 -0.57334816
0.3989661 -2.8693855 -0.57121158
0.38225567 -2.8785868 -0.57257122
0.36606273 -2.8925564 -0.574902
0.3467851 -2.8820868 -0.57237697
0.32965004 -2.8890336 -0.57334816
0.31223246 -2.8939278 -0.57393086
0.29308167 -2.8821261 -0.57121158
0.27557805 -2.8858232 -0.57160002
0.2576043 -2.8845286 -0.57101732
0.24136142 -2.9036515 -0.57451355
0.22376592 -2.9080119 -0.57509625
0.2063335 -2.9152012 -0.57626164
0.18850543 -2.9173915 -0.57645589
0.17277308 -2.9557061 -0.58383679
0.15417363 -2.9478941 -0.58208871
0.136489 -2.9576037 -0.58383679
0.11845628 -2.9613261 -0.58441949
0.09988641 -2.9502323 -0.58208871
0.081863515 -2.9537315 -0.5826714
0.063464276 -2.9414287 -0.58014637
0.045520194 -2.9486287 -0.58150601
0.027571477 -2.9645472 -0.58461374
0.0093687689 -2.9607368 -0.58383679
-0.0087351147 -2.9401383 -0.57975787
-0.026820404 -2.9449339 -0.58072907
-0.043731667 -2.8691893 -0.56577301
-0.062388718 -2.9179034 -0.57548475
-0.08058928 -2.9282522 -0.57762128
-0.098621361 -2.9296634 -0.57800978
-0.11800338 -2.9642892 -0.58500218
-0.13740791 -2.9899673 -0.59024656
-0.15605821 -2.9949455 -0.59141195
-0.17626041 -3.025269 -0.59762746
-0.19406201 -3.0123835 -0.59529662
-0.21095146 -2.9886301 -0.59082925
-0.23161522 -3.0175998 -0.59685051
-0.25110039 -3.027853 -0.59918129
-0.26618809 -2.9871721 -0.59141195
-0.28535035 -2.9942713 -0.59316003
-0.30014855 -2.9573305 -0.58616763
-0.32144243 -2.9846923 -0.59199464
-0.33708358 -2.9592724 -0.58733302
-0.35043454 -2.9172168 -0.57936943
-0.36598954 -2.8965206 -0.57567894
-0.38440052 -2.8990827 -0.57665014
-0.41527587 -2.9909167 -0.59549087
-0.42741817 -2.9455981 -0.58694452
-0.45620799 -3.0137224 -0.60112363
-0.4763726 -3.0215251 -0.60326022
-0.4969677 -3.0311296 -0.60578531
-0.5157218 -3.02899 -0.6059795
-0.53310293 -3.0190067 -0.60461986
-0.55038106 -3.0089242 -0.60326022
-0.5704757 -3.0141649 -0.60500836
-0.58801746 -3.0057945 -0.60403717
-0.60722685 -3.005976 -0.60481411
-0.62866288 -3.0165982 -0.60772765
-0.6409775 -2.9839122 -0.60190058
-0.65863842 -2.9770498 -0.60131788
-0.67515004 -2.9653006 -0.59976399
-0.70451814 -3.0088575 -0.60947573
-0.71998233 -2.9920797 -0.6069507
-0.73550272 -2.9761782 -0.60461986
-0.75929946 -2.9934781 -0.60908729
-0.77542889 -2.9802189 -0.60733914
-0.792436 -2.9706659 -0.60636801
-0.80495685 -2.9449308 -0.60209483
-0.84073466 -3.0032256 -0.61510855
-0.85590249 -2.9866946 -0.61277771
-0.8822192 -3.0086844 -0.61841053
-0.89925414 -2.9985166 -0.61743933
-0.91591007 -2.9873152 -0.61627394
-0.93715638 -2.9909997 -0.61821628
-0.95070541 -2.9702454 -0.61510855
-0.97165608 -2.9727476 -0.61685663
-0.9833566 -2.9471891 -0.61277771
-1.0096445 -2.9652429 -0.61782783
-1.0210588 -2.9395328 -0.61374891
-1.0331788 -2.9165692 -0.61025268
-1.0547215 -2.9203234 -0.61238927
-1.0617739 -2.8843396 -0.60617375
-1.0773844 -2.8722599 -0.60500836
-1.1051443 -2.892168 -0.61064112
-1.1321213 -2.9091001 -0.61569124
-1.1347694 -2.8637972 -0.6075334
-1.1508518 -2.8531418 -0.60675645
-1.1564133 -2.8169887 -0.60054094
-1.1850213 -2.8369939 -0.60636801
-1.2035576 -2.8323777 -0.6069507
-1.2372624 -2.8627574 -0.61510855
-1.2469094 -2.8371515 -0.61122382
-1.2823063 -2.8697481 -0.61996436
-1.2929928 -2.8466432 -0.61666238
-1.3112576 -2.8404372 -0.61705089
-1.3307449 -2.8367782 -0.61802202
-1.3578348 -2.8489258 -0.62248945
-1.3731523 -2.8361263 -0.62151825
-1.3714783 -2.7889168 -0.61297196
-1.3890034 -2.7813268 -0.61316621
-1.4091492 -2.7788756 -0.61452585
-1.4315625 -2.7806423 -0.61685663
-1.4376911 -2.7509418 -0.61219501
-1.4807495 -2.7914612 -0.6232664
-1.5052907 -2.7961426 -0.62637413
-1.5200675 -2.7825494 -0.62540293
-1.5328315 -2.7654486 -0.62365484
-1.5459241 -2.7491512 -0.62210095
-1.6006808 -2.8060725 -0.63725126
-1.6046022 -2.7732739 -0.63200694
-1.6052028 -2.7354581 -0.62559718
-1.6440327 -2.7626467 -0.63414347
-1.656898 -2.7457883 -0.63258964
-1.6906116 -2.7631819 -0.63899934
-1.7121887 -2.7602587 -0.64074749
-1.729093 -2.7497008 -0.64074749
-1.7301121 -2.7142248 -0.63492042
-1.7499281 -2.7085013 -0.63608587
-1.7772634 -2.7141256 -0.63997054
-1.7993082 -2.7113423 -0.64191288
-1.7830619 -2.6514132 -0.6302588
-1.8120037 -2.6590662 -0.63472623
-1.8377618 -2.6616199 -0.6380282
-1.8782405 -2.6848547 -0.64638025
-1.8821988 -2.6556733 -0.64210713
-1.9041802 -2.6520424 -0.64404947
-1.8996423 -2.6117511 -0.63705701
-1.9522934 -2.6497972 -0.64929378
-1.9356568 -2.5937459 -0.63841665
-1.9462111 -2.5747776 -0.63666856
-1.9631656 -2.5643449 -0.63705701
-1.9722508 -2.5437241 -0.63492042
-1.9987276 -2.5454612 -0.63841665
-2.0185828 -2.5385237 -0.63977629
-2.0556564 -2.5528295 -0.6465745
-2.1066201 -2.5834997 -0.65764588
-2.1030691 -2.5470772 -0.65162456
-2.1167703 -2.5318675 -0.65104187
-2.1607895 -2.5525212 -0.65978241
-2.1757724 -2.53847 -0.65958822
-2.1527269 -2.4806225 -0.64793414
-2.2015791 -2.5056839 -0.65803432
-2.214956 -2.4899294 -0.65745163
-2.2439797 -2.4915979 -0.66153055
-2.284343 -2.5053253 -0.66891146
-2.2903566 -2.4811714 -0.66619217
-2.3062074 -2.467788 -0.66638643
-2.3233287 -2.4557285 -0.66696912
-2.3492103 -2.4527607 -0.67007685
-2.3799229 -2.4544966 -0.67454422
-2.4148681 -2.4601476 -0.68017703
-2.4112473 -2.4264982 -0.67493272
-2.4386141 -2.4241045 -0.67842895
-2.4597423 -2.4152808 -0.68017703
-2.4822619 -2.4076548 -0.68231362
-2.49628 -2.3917003 -0.68211937
-2.487395 -2.3540888 -0.67570966
-2.492476 -2.3300738 -0.67318457
-2.521862 -2.3287106 -0.6772635
-2.4947889 -2.2755158 -0.66619217
-2.5283833 -2.2778921 -0.67143649
-2.5708945 -2.2877653 -0.67901164
-2.5568831 -2.2473407 -0.67163074
-2.6076651 -2.2637606 -0.68134242
-2.5812898 -2.2132409 -0.67085379
-2.6292591 -2.2265191 -0.67978859
-2.6564169 -2.2216711 -0.68328476
-2.6662169 -2.2022066 -0.68231362
-2.6964035 -2.1994452 -0.6865868
-2.7052643 -2.1791673 -0.68542135
-2.7170489 -2.1613057 -0.6850329
-2.7194588 -2.1361113 -0.68231362
-2.7263131 -2.1145754 -0.68075973
-2.7672751 -2.1192768 -0.68775219
-2.7528393 -2.0815518 -0.68095398
-2.9054873 -2.1690674 -0.71552771
-2.8626733 -2.1098812 -0.70173705
-2.8866708 -2.1003556 -0.70445633
-2.9130492 -2.0923312 -0.70775831
-2.8530078 -2.0227928 -0.69008297
-2.8605435 -2.0018747 -0.68891758
-2.8864949 -1.9937615 -0.69221956
-2.9570358 -2.0157914 -0.70620441
-2.9188836 -1.9636647 -0.69416189
-2.9398677 -1.9516852 -0.69629848
-2.9058335 -1.9035116 -0.68542135
-2.9273453 -1.8920351 -0.68775219
-2.9852195 -1.9035695 -0.69862932
-3.0259063 -1.9034961 -0.70542753
-3.0608683 -1.8993742 -0.71086609
-3.0540574 -1.8692926 -0.70659292
-3.0528722 -1.8429145 -0.70367938
-3.0556931 -1.8191304 -0.70173705
-3.0710275 -1.8028295 -0.70270824
-3.0845788 -1.7854263 -0.70329094
-3.1031442 -1.7708411 -0.70503902
-3.1464412 -1.7700415 -0.71241993
-3.1478055 -1.7454698 -0.71028334
-3.1171365 -1.7035447 -0.7009601
-3.1448045 -1.6936878 -0.70484477
-3.1586037 -1.6761988 -0.70562172
-3.1888242 -1.6672386 -0.71008915
-3.2338784 -1.6656052 -0.71785849
-3.2265406 -1.6368562 -0.71397382
-3.2452989 -1.6214113 -0.71591616
-3.2402227 -1.5941075 -0.71261418
-3.277312 -1.5874504 -0.71863544
-3.3082421 -1.5774425 -0.72329706
-3.3045382 -1.5508634 -0.72038352
-3.3095391 -1.5285017 -0.71941239
-3.3036728 -1.5012679 -0.71611041
-3.3235691 -1.4857721 -0.71844119
-3.3487871 -1.4724571 -0.72193742
-3.3892734 -1.4655058 -0.72873563
-3.3611877 -1.4289491 -0.72077203
-3.3979511 -1.420022 -0.72679329
-3.414767 -1.4024994 -0.72854137
-3.4287663 -1.3837227 -0.72970682
-3.4590788 -1.371333 -0.73436844
-3.4783974 -1.354353 -0.73669922
-3.4912238 -1.3347356 -0.73767042
-3.4717946 -1.3029505 -0.73184335
-3.4732804 -1.2792506 -0.73048371
-3.4902904 -1.261248 -0.73242611
-3.5220037 -1.248327 -0.73747617
-3.5481291 -1.2331322 -0.74136084
-3.5389144 -1.2056452 -0.73786461
-3.5592723 -1.1882561 -0.7405839
-3.5636992 -1.16548 -0.7400012
-3.5782573 -1.1459846 -0.74155509
-3.5749252 -1.1207799 -0.73941851
-3.5695426 -1.0950842 -0.73689348
-3.5705576 -1.0714699 -0.73572809
-3.6165991 -1.0611379 -0.74388593
-3.6400156 -1.0437928 -0.7473821
-3.6132901 -1.0121796 -0.7405839
-3.712162 -1.0153463 -0.75961888
-3.6586118 -0.97661525 -0.7473821
-3.6930146 -0.96156132 -0.75320917
-3.7045503 -0.94033098 -0.75437456
-3.7178683 -0.91946608 -0.75592846
-3.7177179 -0.89525884 -0.75476301
-3.730782 -0.87422037 -0.7563169
-3.7724211 -0.85959142 -0.7636978
-3.754638 -0.83134007 -0.75903618
-3.7395282 -0.80395794 -0.75495726
-3.7818425 -0.78880644 -0.76253241
-3.7923803 -0.76675266 -0.7636978
-3.8201182 -0.74799097 -0.76835942
-3.8015041 -0.72015661 -0.7636978
-3.7923422 -0.694345 -0.76097852
-3.8293753 -0.67686564 -0.76758248
-3.8469944 -0.65566278 -0.77030176
-3.8712735 -0.63538069 -0.77438068
-3.8712234 -0.61100358 -0.77360374
-3.8632607 -0.58547568 -0.77127296
-3.8619268 -0.5610553 -0.77030176
-3.8662679 -0.53748339 -0.77049601
-3.8908868 -0.51658922 -0.77476919
-3.8336444 -0.48507497 -0.76272666
-3.8618712 -0.4645876 -0.76777673
-3.8792689 -0.44254971 -0.77069026
-3.928726 -0.4237853 -0.7800135
-3.9449151 -0.40105927 -0.78273278
-3.9287479 -0.37507606 -0.7790423
-3.9202275 -0.35000378 -0.77690578
-3.9359875 -0.32707956 -0.779625
-3.9643281 -0.30495229 -0.78486937
-3.9357908 -0.27847764 -0.77884811
-3.9256785 -0.25356483 -0.77651727
-3.9359741 -0.229987 -0.77826536
-3.9657202 -0.20731524 -0.78389817
-3.9963148 -0.18433218 -0.78972518
-4.0267763 -0.16098143 -0.79555225
-4.0120015 -0.13574086 -0.79244447
-4.0088367 -0.11101276 -0.79166758
-4.0104232 -0.086433992 -0.79186177
-4.0030313 -0.061704423 -0.79030794
-3.9925444 -0.037041724 -0.78817135
-3.9926968 -0.012543235 -0.78817135
-4.0054507 0.011994747 -0.79069638
-4.0043206 0.036562484 -0.79050213
-3.9785192 0.060740832 -0.78545207
-3.9927826 0.085467286 -0.78836554
-3.9706104 0.10936929 -0.78409243
-3.9992764 0.13472316 -0.78991944
-3.9768105 0.1583994 -0.78564632
-3.9836032 0.18315862 -0.78720015
-3.9970984 0.20836507 -0.79011369
-3.9879105 0.23242974 -0.78855979
-3.9550838 0.25487399 -0.78234428
-4.0336838 0.28480774 -0.79827154
-4.0191455 0.30857554 -0.79574651
-4.0269523 0.33404231 -0.79768884
-4.0785661 0.36353838 -0.80837172
-4.0928593 0.39014065 -0.8116737
-4.0308566 0.40919927 -0.79982537
-4.0389981 0.4350808 -0.80196196
-4.0781622 0.46463296 -0.81031406
-4.1025052 0.4929257 -0.81575263
-4.0410109 0.51070547 -0.80409855
-4.032939 0.53484589 -0.80312741
-4.0470705 0.5620113 -0.80662358
-4.082377 0.59247112 -0.81439298
-4.0835142 0.61824352 -0.81536412
-4.0505748 0.63870221 -0.80953711
-4.0901403 0.67068988 -0.81827766
-4.0946512 0.69725645 -0.82002574
-4.0893297 0.72219694 -0.81983155
-4.0828915 0.74692184 -0.81944305
-4.1100378 0.77798259 -0.82585281
-4.117702 0.80563605 -0.82837784
-4.147296 0.83788204 -0.8353703
-4.1459179 0.8641144 -0.83614725
-4.1242337 0.8860333 -0.83284521
-4.0880709 0.90453899 -0.82662976
-4.0623579 0.92503089 -0.82255083
-4.0623364 0.95128202 -0.82371622
-4.0917101 0.98468447 -0.83090287
-4.0922575 1.0114201 -0.83226252
-4.0764661 1.0340981 -0.83032018
-4.0690947 1.0588442 -0.83012599
-4.0767384 1.0875854 -0.83303946
-4.1191916 1.1260331 -0.84313965
-4.1103158 1.1507577 -0.8427512
-4.112607 1.1786597 -0.84469354
-4.1071801 1.2044241 -0.84508198
-4.0799813 1.2236834 -0.84100306
-4.0658312 1.2466813 -0.83964342
-4.104908 1.2862741 -0.84935516
-4.072648 1.3036603 -0.84430504
-4.0552487 1.3255764 -0.8423627
-4.0619264 1.3554031 -0.84547049
-4.0591049 1.3821986 -0.84663588
-4.0459142 1.4054689 -0.84566468
-4.0372143 1.4302677 -0.84566468
-4.0191364 1.4516798 -0.84372234
-4.0073919 1.4752965 -0.84313965
-4.0083671 1.5036483 -0.84527624
-4.0210567 1.5366201 -0.84993786
-4.0307493 1.5687366 -0.85401678
-4.0228715 1.5941622 -0.85440522
-3.993001 1.6107414 -0.85013211
-4.0084505 1.6456445 -0.85557067
-3.9946573 1.6686963 -0.85479373
-3.9780233 1.6904896 -0.85343409
-3.9711778 1.7164235 -0.85421103
-3.9704494 1.7451003 -0.85634762
-3.9587712 1.7690294 -0.85615337
-3.9442699 1.7916636 -0.85537642
-3.9251866 1.8121305 -0.85362834
-3.903337 1.8311806 -0.8512975
-3.901768 1.8597399 -0.85343409
-3.9114726 1.893907 -0.85809571
-3.8900955 1.9131091 -0.85595912
-3.881794 1.9386957 -0.85673606
-3.8864477 1.9709083 -0.86042655
-3.8760254 1.9956161 -0.86081499
-3.8367579 2.0052741 -0.85479373
-3.8581765 2.0467086 -0.86236888
-3.8369086 2.0656929 -0.86042655
-3.8000579 2.0760269 -0.85498798
-3.814702 2.1145246 -0.86120343
-3.7922509 2.1326015 -0.8590669
-3.7807982 2.1568024 -0.85945535
-3.7573044 2.1740644 -0.85712451
-3.7438941 2.1970778 -0.85712451
-3.7303426 2.2200086 -0.85712451
-3.7242091 2.2474177 -0.85887265
-3.7103493 2.2702267 -0.85887265
-3.7180221 2.3063962 -0.86392272
-3.7096128 2.3328218 -0.86528236
-3.6778591 2.3444655 -0.86120343
-3.6444547 2.354743 -0.85673606
-3.6151667 2.3673866 -0.85323983
-3.6193705 2.4020011 -0.85770726
-3.6387506 2.4471581 -0.86586505
-3.6188028 2.4661243 -0.86469966
-3.6229751 2.5016608 -0.86936128
-3.608361 2.5244062 -0.86955553
-3.565594 2.5272114 -0.86295158
-3.5516138 2.5501862 -0.86334002
-3.5247936 2.5638514 -0.86062074
-3.5089958 2.5854309 -0.86062074
-3.4891353 2.6039791 -0.8596496
-3.4464867 2.6052256 -0.85304558
-3.4460135 2.6382508 -0.85693032
-3.4398382 2.6671605 -0.85945535
-3.4280369 2.6918521 -0.86062074
-3.3891907 2.695128 -0.85498798
-3.3817577 2.7232566 -0.85731876
-3.38627 2.7613144 -0.86275733
-3.3609431 2.7751694 -0.86062074
-3.348367 2.799515 -0.86178619
-3.3423562 2.8295155 -0.86469966
-3.3234422 2.8486936 -0.86431122
-3.3007145 2.8645313 -0.86295158
-3.2742338 2.8769598 -0.86062074
-3.2572522 2.8976479 -0.86081499
-3.2408688 2.9188926 -0.86120343
-3.2279716 2.9433501 -0.86256307
-3.1766965 2.9324918 -0.85362834
-3.1521933 2.9459 -0.85188019
-3.1411836 2.9719281 -0.85382253
-3.1540577 3.0210037 -0.86236888
-3.1291239 3.0341532 -0.86062074
-3.1062479 3.0491729 -0.85945535
-3.0721731 3.0529621 -0.85518217
-3.047159 3.0654933 -0.85343409
-3.0310411 3.0869324 -0.85421103
-3.0079453 3.1012473 -0.85304558
-3.0112534 3.1430216 -0.85945535
-2.9777527 3.1464763 -0.85537642
-2.949682 3.1553717 -0.85285139
-2.9435742 3.1878262 -0.85673606
-2.8995016 3.1790097 -0.84954941
-2.8917589 3.2098601 -0.85304558
-2.8674445 3.2224131 -0.851686
-2.849561 3.2421572 -0.8522687
-2.8263986 3.2558768 -0.8512975
-2.812114 3.2798605 -0.85304558
-2.7684829 3.2693536 -0.84585893
-2.7395606 3.2757437 -0.84313965
-2.737524 3.3144264 -0.84877247
-2.7146554 3.3281207 -0.84799552
-2.6898763 3.3393669 -0.84663588
-2.6681144 3.3542733 -0.84624743
-2.6450593 3.3674955 -0.84547049
-2.6171331 3.3743598 -0.84313965
-2.6106923 3.4090471 -0.84780127
-2.5861759 3.4203067 -0.84663588
-2.5686615 3.4408276 -0.84780127
-2.5614672 3.4754765 -0.85246289
-2.4991207 3.4348071 -0.83867228
-2.5031753 3.4851351 -0.84721857
-2.4715323 3.4860234 -0.84372234
-2.4607811 3.5163941 -0.84741282
-2.4319117 3.5209339 -0.84488779
-2.4108145 3.5365999 -0.84508198
-2.3901639 3.5529537 -0.84547049
-2.3639786 3.5610142 -0.84391659
-2.3275723 3.5532959 -0.83867228
-2.2961426 3.5526807 -0.83517605
-2.2774646 3.5716655 -0.83634144
-2.2528951 3.5814207 -0.8353703
-2.2288086 3.5918424 -0.83459336
-2.2077518 3.6071239 -0.8349818
-2.1967289 3.6390791 -0.83925498
-2.17185 3.6482747 -0.83828378
-2.1310513 3.6302304 -0.83109713
-2.1264253 3.6738029 -0.83808959
-2.0965512 3.674001 -0.83517605
-2.0763729 3.691071 -0.83614725
-2.0570154 3.7097473 -0.83750689
-2.0285697 3.7119691 -0.83517605
-2.0029647 3.7191641 -0.83401066
-1.9768883 3.7253182 -0.83265102
-1.9544474 3.7382474 -0.83284521
-1.9162037 3.7205174 -0.82624125
-1.8826892 3.7112086 -0.82157964
-1.8642658 3.7314663 -0.82352197
-1.8486954 3.7577989 -0.82682395
-1.8350096 3.7884948 -0.83109713
-1.8070858 3.7899425 -0.82896054
-1.7883807 3.8107278 -0.83109713
-1.7587963 3.8082707 -0.82818359
-1.7256576 3.7975564 -0.82352197
-1.7011229 3.8053865 -0.82293928
-1.6757677 3.8112628 -0.82196814
-1.6562433 3.8304772 -0.82391047
-1.6472903 3.8748739 -0.83129138
-1.6049527 3.8405573 -0.82177389
-1.5850835 3.8594072 -0.82371622
-1.5650432 3.8781571 -0.82565856
-1.5451938 3.8977184 -0.82779515
-1.4853075 3.8147986 -0.80817747
-1.4793843 3.8696556 -0.81788921
-1.4600927 3.8905995 -0.82041425
-1.4467008 3.9280219 -0.82643551
-1.4135722 3.9119146 -0.82119119
-1.3689009 3.8622637 -0.80895442
-1.3477525 3.8780031 -0.81050831
-1.3150765 3.8601999 -0.80506974
-1.3100002 3.9240258 -0.81672376
-1.2758379 3.9012215 -0.81031406
-1.2512782 3.9071078 -0.80992556
-1.2222934 3.8987994 -0.80662358
-1.2009367 3.9146662 -0.80837172
-1.1828135 3.9416926 -0.81245065
-1.1572249 3.9441695 -0.81147945
-1.1338133 3.9540248 -0.81206214
-1.1050333 3.9448488 -0.80876017
-1.0877932 3.9771028 -0.81400448
-1.0428826 3.9069319 -0.79827154
-1.0206202 3.9199023 -0.79963118
-1.0088542 3.9745829 -0.80953711
-0.97714889 3.9511774 -0.80351585
-0.95311612 3.9580526 -0.8037101
-0.92075753 3.9294426 -0.79671764
-0.89989769 3.9493651 -0.79963118
-0.87797987 3.965348 -0.80176777
-0.85033453 3.9553156 -0.79865998
-0.82404685 3.9508557 -0.79671764
-0.80212134 3.9673758 -0.79904848
-0.77813977 3.974148 -0.79943693
-0.75008982 3.9595714 -0.79555225
-0.72683984 3.9698889 -0.79671764
-0.70502752 3.988764 -0.79963118
-0.67955118 3.9872127 -0.79846579
-0.65269113 3.9767871 -0.79555225
-0.62598473 3.9661825 -0.79263872
-0.60295916 3.9786777 -0.79438686
-0.57994479 3.9920104 -0.7963292
-0.55314422 3.978976 -0.79302722
-0.53284866 4.013413 -0.79924268
-0.50735128 4.0097942 -0.79788303
-0.47723439 3.9670568 -0.78875405
-0.45355076 3.9757583 -0.78991944
-0.42788571 3.9667628 -0.78758866
-0.40304232 3.9644337 -0.78661746
-0.37777779 3.957067 -0.78467512
-0.35148567 3.9368379 -0.78020775
-0.3267549 3.9320772 -0.77884811
-0.30232126 3.9300957 -0.77807117
-0.28041437 3.9631891 -0.78428668
-0.25501764 3.9481938 -0.78098464
-0.22690052 3.8830926 -0.76777673
-0.20414412 3.9049835 -0.77185565
-0.18099219 3.9238009 -0.77535188
-0.15734312 3.9356198 -0.77748847
-0.13239709 3.9129815 -0.77282685
-0.1078161 3.8931282 -0.76874793
-0.083947361 3.8946972 -0.76894212
-0.060695734 3.937315 -0.77729422
-0.036138073 3.894453 -0.76874793
-0.012235444 3.8926399 -0.76835942
0.011604551 3.8779271 -0.76544595
0.03548003 3.886611 -0.76719403
0.059642982 3.9069178 -0.77127296
0.083361574 3.8947098 -0.76894212
0.1069326 3.8823581 -0.76661134
0.13065302 3.8786876 -0.76602864
0.15421511 3.8719316 -0.76486319
0.17706755 3.8513145 -0.76097852
0.19972394 3.8315425 -0.7572881
0.22305867 3.8273072 -0.75670534
0.24691728 3.8317399 -0.75787079
0.27242923 3.8585296 -0.76350355
0.29542315 3.8479826 -0.76175547
0.32008341 3.8588066 -0.7642805
0.34035558 3.8186636 -0.75670534
0.36499098 3.8291984 -0.75923043
0.38897529 3.8317664 -0.76020157
0.40943068 3.8010235 -0.75456882
0.4324123 3.7955158 -0.75398612
0.45569301 3.7927911 -0.75398612
0.47809514 3.7831113 -0.75262648
0.50091183 3.7771893 -0.75204372
0.52569866 3.7857039 -0.75437456
0.54638034 3.7649331 -0.75087833
0.5678553 3.7508409 -0.74874175
0.58841366 3.7317827 -0.74563402
0.61177677 3.7310059 -0.74621671
0.63515252 3.7300828 -0.74679941
0.65751588 3.7232175 -0.74621671
0.68617612 3.7509556 -0.75262648
0.7044335 3.7216151 -0.74757636
0.72216851 3.6912301 -0.74233204
0.74422085 3.6838448 -0.74174935
0.76620984 3.6763284 -0.74116665
0.78998959 3.6773121 -0.74233204
0.80745065 3.6494091 -0.73767042
0.83178854 3.6529939 -0.73941851
0.85552961 3.6535521 -0.7405839
0.8793087 3.6539562 -0.74174935
0.90029979 3.6427784 -0.7405839
0.9235996 3.6409888 -0.74136084
0.95012343 3.6513917 -0.74466282
0.96719891 3.6255896 -0.7405839
0.99046183 3.6233716 -0.74136084
1.015321 3.6266723 -0.74330318
1.0329593 3.6043434 -0.7400012
1.0545036 3.5960548 -0.73961276
1.0703475 3.568846 -0.73533958
1.0873359 3.5462677 -0.7320376
1.1096616 3.5414014 -0.73242611
1.1292766 3.5279865 -0.73106647
1.1585236 3.5443006 -0.73592228
1.1684481 3.5017664 -0.72854137
1.1914939 3.4991739 -0.72951257
1.2113322 3.4871638 -0.72854137
1.2418798 3.5055554 -0.73397994
1.2557003 3.4766495 -0.72951257
1.2837881 3.4872899 -0.73339725
1.2886211 3.435262 -0.72407401
1.3100252 3.4282069 -0.72426826
1.33495 3.4301596 -0.72640479
1.358502 3.4282875 -0.72776443
1.3685011 3.3925965 -0.72193742
1.407177 3.4276922 -0.73126066
1.4330986 3.4307601 -0.73378575
1.4445295 3.3993323 -0.72892988
1.4560183 3.3687949 -0.72426826
1.4813986 3.3705738 -0.72659904
1.4976493 3.3515692 -0.72446245
1.5254894 3.3583927 -0.72795868
1.5345532 3.3240323 -0.72252011
1.5470031 3.2976809 -0.71882969
1.562987 3.2792716 -0.71688735
1.5929124 3.2899258 -0.72135472
1.6204293 3.2950542 -0.7246567
1.6362334 3.2762737 -0.72271436
1.6438811 3.2416763 -0.7172758
1.6659861 3.2358892 -0.718247
1.6671782 3.1899626 -0.71028334
1.6959151 3.1970036 -0.71416807
1.7243359 3.2029481 -0.71785849
1.758067 3.2181325 -0.72368556
1.7549498 3.1661038 -0.71436226
1.7599171 3.129626 -0.70853525
1.7922122 3.1417735 -0.71377957
1.8222655 3.1493962 -0.71805274
1.8266593 3.1127756 -0.71222574
1.8467281 3.1031947 -0.71261418
1.8702961 3.0993636 -0.71436226
1.8933746 3.0945232 -0.71591616
1.9112922 3.0811803 -0.71552771
1.9453073 3.0934756 -0.72116047
1.950541 3.0599751 -0.71611041
1.954905 3.0257039 -0.71086609
1.9820329 3.0267818 -0.71397382
2.000025 3.0137458 -0.71377957
2.0026023 2.9778125 -0.70814681
2.0247035 2.9711428 -0.70950645
2.0267305 2.9352551 -0.70387363
2.0447025 2.9227641 -0.70387363
2.0614634 2.9085624 -0.70348513
2.1067364 2.9341047 -0.71280843
2.1154671 2.9084303 -0.70970064
2.1210525 2.8788116 -0.70562172
2.1421971 2.8704598 -0.70678717
2.1574032 2.8541315 -0.70601022
2.1575806 2.818253 -0.7003774
2.1652145 2.7925584 -0.69726968
2.1823087 2.7792203 -0.69726968
2.2170279 2.7880423 -0.70290244
2.2365546 2.7774425 -0.70367938
2.2560341 2.7667077 -0.70445633
2.2467337 2.7210448 -0.69629848
2.2633872 2.7072079 -0.69629848
2.2939007 2.7097394 -0.70057166
2.2849464 2.6658232 -0.69280225
2.3019037 2.6524935 -0.6929965
2.35116 2.6758997 -0.70290244
2.3884003 2.6848748 -0.70911795
2.4113948 2.677458 -0.71106029
2.41588 2.6495647 -0.70756406
2.4194491 2.6209972 -0.70387363
2.4334762 2.6039524 -0.70329094
2.4392946 2.5782838 -0.7003774
2.4489615 2.5568926 -0.69862932
2.4618723 2.5390012 -0.69785237
2.4993961 2.5462475 -0.70406789
2.5004511 2.5162525 -0.69998896
2.5102775 2.4953306 -0.69843507
2.5052416 2.4599509 -0.69280225
2.5385973 2.4622889 -0.69785237
2.5444491 2.4378443 -0.69532734
2.5622096 2.4248829 -0.69610423
2.5806234 2.4124651 -0.69707543
2.6083508 2.4085631 -0.70057166
2.6259797 2.3951571 -0.7013486
2.6479151 2.385565 -0.70329094
2.6581056 2.3653603 -0.70212555
2.672569 2.3490059 -0.70212555
2.6898954 2.3351352 -0.70290244
2.6788514 2.2968788 -0.69629848
2.6906483 2.278497 -0.69571579
2.7023208 2.2600567 -0.69513309
2.7115991 2.2396851 -0.6939677
2.7458158 2.2397444 -0.69921201
2.7602708 2.2234697 -0.69940627
2.7807713 2.2119865 -0.70115435
2.7842624 2.187006 -0.69862932
2.8022804 2.1734877 -0.69979471
2.8217945 2.1610234 -0.7013486
2.8115263 2.1259208 -0.69552153
2.8425984 2.1221254 -0.69998896
2.8318753 2.0871854 -0.69416189
2.8549409 2.0772722 -0.69668698
2.8588686 2.0534213 -0.6945504
2.8289995 2.0057738 -0.68425596
2.6708612 1.8691517 -0.64307827
2.4594996 1.6988741 -0.58946961
2.4633927 1.6793312 -0.58791572
2.467953 1.660352 -0.58655608
2.4756422 1.6435502 -0.58597338
2.486501 1.6288664 -0.58616763
2.765862 1.7876806 -0.64968222
2.9264922 1.8661273 -0.68483865
2.9329052 1.8450018 -0.68367326
2.8741522 1.7835292 -0.66735756
2.6875775 1.6450185 -0.62151825
2.6976206 1.6284968 -0.62151825
2.6974468 1.6058931 -0.61918747
2.7021737 1.5863323 -0.61802202
2.7084603 1.5677568 -0.61724514
2.7188809 1.5515946 -0.61743933
2.7232203 1.5319973 -0.61627394
2.7351429 1.5166861 -0.61685663
3.0586002 1.6715596 -0.68775219
3.1128476 1.6764798 -0.69765812
3.1222091 1.6568885 -0.69746387
3.1271009 1.634973 -0.69629848
3.1091664 1.6013837 -0.69008297
3.1101854 1.5778385 -0.68814063
3.1241958 1.5609169 -0.68911183
3.1389961 1.5443157 -0.69027722
3.1289897 1.5156196 -0.68600404
3.1134369 1.4845722 -0.68056554
3.0958459 1.4529396 -0.67473847
3.1429982 1.4515998 -0.68309057
3.1268392 1.4209259 -0.677652
3.1525149 1.4093186 -0.68134242
3.2060034 1.4096874 -0.69105417
3.2208955 1.3927141 -0.69241381
3.1851439 1.3541222 -0.68289632
3.1961081 1.3356875 -0.68347901
3.2369111 1.3294657 -0.69047147
3.2377298 1.306643 -0.68891758
3.2593653 1.292174 -0.69183111
3.256263 1.2678803 -0.68950027
3.2648976 1.2482266 -0.68969452
3.2403498 1.2161088 -0.68289632
3.2274992 1.1887461 -0.67862314
3.2089 1.1595874 -0.67318457
3.210407 1.1379102 -0.67201918
3.2460535 1.1281711 -0.67804044
3.243629 1.1050698 -0.67609811
3.230808 1.0786244 -0.67201918
3.2737286 1.0706697 -0.67959434
3.2858417 1.0523571 -0.68075973
3.268836 1.0248408 -0.67590386
3.2900679 1.0093668 -0.67901164
3.2980785 0.98972392 -0.67940009
3.312561 0.97195369 -0.68114823
3.2882874 0.94295931 -0.67493272
3.3487988 0.93810833 -0.68619829
3.3270516 0.91003942 -0.68056554
3.3458419 0.89314884 -0.68328476
3.3161342 0.86345935 -0.67609811
3.3061569 0.83923525 -0.67299038
3.2855322 0.81257635 -0.66774607
3.275197 0.78872794 -0.66463828
3.337281 0.78204101 -0.67629236
3.3726232 0.76852107 -0.68250787
3.3542886 0.74272454 -0.67784625
3.3137071 0.7124415 -0.66871721
3.2940087 0.6870898 -0.66386133
3.3202775 0.67133492 -0.66832876
3.3358862 0.65321058 -0.67065954
3.3003147 0.62524641 -0.66269594
3.3282123 0.60939932 -0.66755182
3.3183651 0.58657682 -0.66483253
3.3199675 0.56587517 -0.66444403
3.2943368 0.54072922 -0.65861702
3.3421652 0.52753735 -0.66755182
3.3201222 0.50320035 -0.66250169
3.3192642 0.48225513 -0.66172475
3.3153594 0.46093437 -0.66036516
3.3414636 0.44368005 -0.66502678
3.348989 0.42378429 -0.66599792
3.3300996 0.40065107 -0.66172475
3.3607597 0.38343295 -0.66735756
3.3464692 0.36101711 -0.66405559
2.1989741 0.22367457 -0.43524751
1.9132081 0.18278781 -0.37814263
1.9201561 0.17156814 -0.37930802
1.9231278 0.15994541 -0.37969649
1.9299413 0.14859335 -0.38086191
1.9376664 0.13723284 -0.38222155
1.9433666 0.12565677 -0.38319272
1.9529147 0.11424456 -0.38494083
1.9574974 0.10246413 -0.38571775
1.9620088 0.090631761 -0.3864947
1.9674289 0.078787006 -0.38746586
2.0600326 0.069825627 -0.4057239
3.2263331 0.089394644 -0.63666856
2.1656723 0.046795424 -0.42650697
1.9275746 0.029847838 -0.37930802
1.9081032 0.017839171 -0.37542334
1.9022912 0.0061128284 -0.37425792
1.8866465 0.0045559988 -0.41007933
1.8758934 -0.0069839363 -0.40772849
1.8738616 -0.018475464 -0.40730107
1.8668753 -0.02986584 -0.40580508
1.8578669 -0.041128602 -0.40388167
1.8595326 -0.052582048 -0.40430909
1.8679619 -0.064290397 -0.40623251
1.8675323 -0.075750783 -0.40623251
1.8797184 -0.087796591 -0.40901077
1.8742665 -0.099072486 -0.40794221
2.925885 -0.17231502 -0.63853794
3.0641761 -0.19930317 -0.66909879
3.0122242 -0.21450312 -0.65798575
3.0147474 -0.23328242 -0.6588406
3.0716705 -0.25664455 -0.67166334
3.059335 -0.27452889 -0.66931254
3.0566204 -0.29320237 -0.66909879
3.095582 -0.3161118 -0.67807472
3.0702746 -0.33257985 -0.67294562
3.0604115 -0.35052472 -0.67123592
3.0630524 -0.36988103 -0.67230451
3.0985215 -0.39346039 -0.68063927
3.0205164 -0.40241796 -0.6639697
2.9434884 -0.41056821 -0.64751387
2.9911828 -0.43593696 -0.65862691
2.9720325 -0.45178989 -0.65499377
2.9904327 -0.4733732 -0.65969545
3.0212104 -0.49725911 -0.66717541
2.99788 -0.5123359 -0.66268742
3.010071 -0.53344524 -0.66610682
3.0028977 -0.55119997 -0.66525197
2.9793036 -0.56579173 -0.66076404
2.9585202 -0.58067864 -0.65691721
2.9740512 -0.60269737 -0.66119146
2.962647 -0.6193369 -0.65948176
2.9463756 -0.63483143 -0.65670347
2.9319336 -0.65057242 -0.65435266
2.9383633 -0.67094016 -0.65670347
2.943702 -0.69118804 -0.6588406
2.919462 -0.70442957 -0.65435266
2.9378433 -0.72796398 -0.65948176
2.904917 -0.73875934 -0.65307039
2.893712 -0.75484502 -0.65157437
2.9107332 -0.77838629 -0.65648979
2.8578489 -0.78307551 -0.64559042
2.8812089 -0.8085084 -0.6520018
2.8940346 -0.83129251 -0.65606236
2.852324 -0.83829916 -0.64772755
2.8461909 -0.85550386 -0.64751387
2.8446236 -0.87409866 -0.64836872
2.8410709 -0.89212143 -0.64879614
2.8318224 -0.90834439 -0.64794129
2.8438356 -0.93147683 -0.6520018
2.78618 -0.93157256 -0.6400339
2.8127737 -0.95968455 -0.64751387
2.7477808 -0.95638645 -0.63383627
2.7234468 -0.96669692 -0.62956202
2.7229762 -0.9853828 -0.6308443
2.7141287 -1.0010586 -0.63020313
2.7253115 -1.0242192 -0.63426369
2.7317493 -1.0458091 -0.63725567
2.6706662 -1.0412712 -0.62443292
2.6469738 -1.0507939 -0.62037235
2.6712744 -1.0794531 -0.62763858
2.6302655 -1.0817118 -0.61951751
2.6280851 -1.0997149 -0.6205861
2.5916231 -1.1032 -0.61353356
2.5848053 -1.1190811 -0.61353356
2.6208103 -1.1538044 -0.62379175
2.5869291 -1.1578966 -0.61738038
2.5860004 -1.1765785 -0.6188764
2.5805061 -1.1932434 -0.61930382
2.562525 -1.2040716 -0.61673927
2.5603788 -1.2222964 -0.61802155
2.5387652 -1.2311664 -0.61460215
2.536422 -1.2493095 -0.61588442
2.5234659 -1.2622283 -0.61460215
2.5209 -1.2803413 -0.61588442
2.5060496 -1.292205 -0.61417472
2.4963424 -1.3066518 -0.6137473
2.496906 -1.3265259 -0.61588442
2.4844198 -1.3395045 -0.61481583
2.4564402 -1.3439436 -0.60990047
2.4575441 -1.3642039 -0.61225128
2.4389117 -1.3735075 -0.60968673
2.4406183 -1.3942591 -0.61225128
2.4168007 -1.4003958 -0.60840446
2.4157436 -1.4196515 -0.6103279
2.3910408 -1.4249489 -0.60626733
2.3747265 -1.4350477 -0.60434395
2.3642104 -1.4485713 -0.60391653
2.3619173 -1.467173 -0.60562623
2.3636186 -1.4884026 -0.60840446
2.343735 -1.4960468 -0.60562623
2.315644 -1.4981987 -0.60071081
2.3153951 -1.5182694 -0.60306168
2.3133593 -1.5373124 -0.60498506
2.2828121 -1.5372955 -0.59942853
2.2765646 -1.5534753 -0.60028338
2.2806523 -1.5768564 -0.60391653
2.2485273 -1.5751319 -0.59793258
2.2372265 -1.5877686 -0.59750515
2.2226822 -1.5980455 -0.59622288
2.1930902 -1.5972799 -0.59088004
2.183248 -1.6107064 -0.59088004
2.2265458 -1.6638246 -0.60541248
2.2131786 -1.6750975 -0.60455763
2.2075114 -1.6922107 -0.60583991
2.1932278 -1.7027293 -0.60477138
2.1643045 -1.7016677 -0.59964228
2.1576443 -1.7179573 -0.60071081
2.1554294 -1.7379071 -0.60306168
2.1371567 -1.7449231 -0.60092455
2.1121018 -1.7461802 -0.59686399
2.0953541 -1.7540916 -0.59515429
2.0674086 -1.7523913 -0.59023893
2.0484612 -1.7580472 -0.58788806
2.0442734 -1.7763485 -0.5898115
2.0186632 -1.7759565 -0.58553725
2.0325358 -1.8103954 -0.59280348
2.0380785 -1.8378757 -0.59771883
2.0159392 -1.8404694 -0.59451318
2.0067608 -1.854793 -0.59515429
1.993202 -1.8650694 -0.59451318
1.9859768 -1.8812943 -0.59579545
1.9412502 -1.8616725 -0.58575094
1.9368014 -1.8803519 -0.58788806
1.9238335 -1.8908314 -0.58746064
1.9121953 -1.9026 -0.58746064
1.8970431 -1.9108318 -0.5863921
1.8798094 -1.9168572 -0.5846824
1.8727715 -1.933266 -0.58617836
1.8568207 -1.9404867 -0.58489609
1.8502488 -1.9575219 -0.58660579
1.8455381 -1.9766908 -0.58895665
1.8274126 -1.9815158 -0.58703321
1.8257483 -2.0042436 -0.59045261
1.7957692 -1.9958051 -0.5846824
1.7795947 -2.0024059 -0.58340013
1.7911259 -2.0404463 -0.59130746
1.7568084 -2.0263073 -0.58404124
1.756418 -2.0511444 -0.5881018
1.7570505 -2.077544 -0.59258974
1.7104431 -2.0478065 -0.58104926
1.7034422 -2.0650442 -0.58297271
1.6944423 -2.0800009 -0.58425498
1.6816478 -2.0903585 -0.58425498
1.6779075 -2.1121092 -0.58746064
1.6691382 -2.1277442 -0.58895665
1.6339102 -2.1093757 -0.58104926
1.6209364 -2.1193614 -0.58104926
1.6061351 -2.126929 -0.58040816
1.5889657 -2.1312628 -0.57891214
1.5747 -2.1393991 -0.57848471
1.5512035 -2.1347983 -0.57463789
1.5671238 -2.1847529 -0.58553725
1.5316657 -2.1632388 -0.57720244
1.5166841 -2.1701946 -0.57656133
1.5177661 -2.2003644 -0.58211786
1.5053363 -2.2112505 -0.58254528
1.4792058 -2.2017977 -0.57762986
1.4867272 -2.2425823 -0.58596468
1.472404 -2.250845 -0.58575094
1.4469066 -2.2417827 -0.58104926
1.4457215 -2.2703919 -0.58617836
1.4317635 -2.2792199 -0.58617836
1.414663 -2.2829807 -0.58489609
1.3914546 -2.2766163 -0.58104926
1.3820001 -2.29264 -0.58297271
1.3694048 -2.3035955 -0.58361381
1.3656232 -2.3296504 -0.5881018
1.3459235 -2.3286836 -0.58575094
1.3267711 -2.3284116 -0.58361381
1.3086303 -2.3296957 -0.58190411
1.2938375 -2.336827 -0.58169043
1.2822835 -2.3498664 -0.58297271
1.2655265 -2.3533885 -0.58190411
1.2588415 -2.3757823 -0.58553725
1.2388129 -2.373071 -0.58297271
1.2273575 -2.3867078 -0.58446866
1.2215222 -2.4116216 -0.58874291
1.1940501 -2.3937232 -0.58254528
1.1758928 -2.3939908 -0.58083558
1.1628835 -2.4046783 -0.58169043
1.1447459 -2.4047127 -0.57998073
1.1216756 -2.3940012 -0.57570648
1.075453 -2.3325365 -0.55925059
1.0833296 -2.3880157 -0.57100481
1.0714449 -2.4008622 -0.57250077
1.062979 -2.4217019 -0.57592016
1.0597204 -2.4550831 -0.58233154
1.0438726 -2.4597409 -0.58190411
1.0208575 -2.4471681 -0.57741618
1.003598 -2.4479632 -0.57613391
0.98782831 -2.4522629 -0.57570648
0.97096455 -2.4537365 -0.57463789
0.94845468 -2.4405282 -0.57014996
0.94775009 -2.4837193 -0.57891214
0.93592131 -2.4986355 -0.58104926
0.9107917 -2.4777431 -0.57485163
0.89921939 -2.4933927 -0.57720244
0.88488126 -2.5016258 -0.57784361
0.86919457 -2.5060854 -0.57762986
0.85505974 -2.5150709 -0.57848471
0.8346678 -2.5054421 -0.57506531
0.81685263 -2.5030873 -0.57335562
0.80772787 -2.5275922 -0.57784361
0.7901606 -2.5259748 -0.57634759
0.78380334 -2.5606651 -0.58318639
0.76274884 -2.5476463 -0.57912588
0.74627841 -2.5494661 -0.57848471
0.73626816 -2.5737195 -0.58297271
0.71598893 -2.5621953 -0.57933956
0.71363682 -2.6155443 -0.59045261
0.70336092 -2.6415846 -0.59536803
0.68418986 -2.634505 -0.59280348
0.66033298 -2.6083508 -0.58596468
0.64291102 -2.606663 -0.5846824
0.62325144 -2.5953612 -0.58126301
0.60664737 -2.5962827 -0.58062184
0.59048879 -2.5990038 -0.58040816
0.5720008 -2.5911314 -0.57784361
0.56264967 -2.6251574 -0.5846824
0.55907393 -2.688813 -0.59814626
0.53425688 -2.6510162 -0.58895665
0.51554507 -2.6417806 -0.58617836
0.49660397 -2.6304955 -0.58297271
0.48607203 -2.6642449 -0.5898115
0.46479532 -2.6392779 -0.58361381
0.45301354 -2.6680832 -0.58938408
0.43095177 -2.6361063 -0.58169043
0.41461691 -2.6377358 -0.58147669
0.40207416 -2.6643784 -0.58681953
0.3890799 -2.6899986 -0.59194863
0.36747003 -2.6555648 -0.58382756
0.35411727 -2.6800439 -0.58874291
0.33766618 -2.6821663 -0.58874291
0.31980678 -2.6725483 -0.58617836
0.30704367 -2.7064915 -0.5932309
0.2903268 -2.7073534 -0.59301716
0.27410302 -2.7129714 -0.59387201
0.25865334 -2.7272449 -0.5966503
0.24277931 -2.7385111 -0.59878743
0.22653519 -2.7467644 -0.60028338
0.21004979 -2.7529728 -0.60135198
0.19054846 -2.7171795 -0.5932309
0.17324674 -2.7085485 -0.59109378
0.15583172 -2.6959069 -0.5881018
0.13964133 -2.7036414 -0.58959776
0.12407593 -2.7268925 -0.59451318
0.10741898 -2.7295549 -0.5949406
0.090603426 -2.72821 -0.59451318
0.074448228 -2.7501981 -0.59921485
0.057509925 -2.747673 -0.59857368
0.040297281 -2.7245312 -0.59344459
0.0237961 -2.7491488 -0.59878743
0.0068788538 -2.7316589 -0.5949406
-0.0098758023 -2.729696 -0.59451318
-0.027071251 -2.776473 -0.60477138
-0.044183344 -2.7811384 -0.60583991
