# .PCD v0.7 - Point Cloud Data file format
VERSION 0.7
FIELDS x y z
SIZE 4 4 4
TYPE F F F
COUNT 1 1 1
WIDTH 1451
HEIGHT 1
VIEWPOINT 0 0 0 1 0 0 0
POINTS 1451
DATA ascii
-7.7491984 -4.2425408 -0.61537504
-7.796154 -4.2062826 -0.61704504
-7.9046116 -4.2023916 -0.62358576
-7.9655948 -4.1723285 -0.62636906
-8.0929909 -4.1759868 -0.63437104
-8.1442509 -4.1393604 -0.63638896
-8.1463032 -4.0776987 -0.63457978
-8.0960112 -3.9905841 -0.62873489
-8.1257286 -3.9434464 -0.62915236
-8.0948668 -3.8672776 -0.62490785
-8.1464272 -3.8306973 -0.62706488
-8.1806431 -3.7856679 -0.62789989
-8.1456146 -3.7089398 -0.62344664
-8.1846056 -3.6662314 -0.62469912
-8.1649542 -3.5974376 -0.62149829
-8.1649065 -3.5377505 -0.61982834
-8.1378202 -3.4668591 -0.61614048
-8.0310431 -3.3632889 -0.6064685
-8.0247774 -3.3029351 -0.60445064
-8.0226984 -3.2446554 -0.60278064
-8.0276232 -3.1894736 -0.60166734
-8.0442543 -3.1390688 -0.60145861
-8.0475283 -3.0835817 -0.6002757
-8.0186796 -3.0162296 -0.59672701
-8.0398426 -2.9680078 -0.59693575
-8.0513372 -2.9162419 -0.59644866
-8.0822401 -2.8714612 -0.59742284
-8.1100693 -2.8254263 -0.59818822
-8.090436 -2.7630343 -0.59547448
-8.0268297 -2.6864226 -0.58956003
-8.0829735 -2.6501768 -0.59248245
-8.0829363 -2.5953448 -0.59129959
-8.1301136 -2.5555742 -0.5935958
-7.1168532 -2.189095 -0.51851642
-7.1654959 -2.1560237 -0.52109098
-7.1336112 -2.098779 -0.5178206
-7.1760745 -2.0635173 -0.51997763
-7.1741958 -2.0153987 -0.51893389
-7.3009067 -2.0027549 -0.52721423
-7.4691634 -1.999728 -0.53848654
-7.4339991 -1.9415047 -0.53507704
-7.4767065 -1.9037333 -0.53730369
-7.5502119 -1.8732002 -0.54175693
-7.5043535 -1.8130109 -0.53765154
-7.6114736 -1.7895422 -0.54454023
-7.6534295 -1.7499233 -0.54676688
-7.7906179 -1.7310699 -0.55581254
-7.884953 -1.7013365 -0.56179667
-7.9303937 -1.6602851 -0.56430161
-7.9961567 -1.6229085 -0.56826782
-8.0059633 -1.5738144 -0.56826782
-8.0664291 -1.5343585 -0.57188606
-8.135541 -1.4958438 -0.57613063
-8.1710844 -1.4506069 -0.57800937
-8.181798 -1.4007796 -0.57814848
-8.2866983 -1.3664643 -0.58496755
-8.5560179 -1.3570224 -0.60340691
-8.6105337 -1.3115618 -0.60667729
-8.7082443 -1.2718295 -0.61300927
-8.6872339 -1.2143656 -0.61099136
-8.723196 -1.1648701 -0.61300927
-8.7628365 -1.1154833 -0.61530548
-8.843791 -1.0706922 -0.62052417
-8.9165945 -1.0240382 -0.6251862
-8.9415531 -0.97135615 -0.62650824
-8.9840631 -0.92023718 -0.6290828
-9.032238 -0.86920679 -0.63207483
-9.0582657 -0.81564987 -0.63353604
-9.2012777 -0.7716518 -0.64320803
-9.2227478 -0.71649396 -0.64439094
-9.252841 -0.66174281 -0.64620006
-9.4498434 -0.61759031 -0.65969902
-9.4683924 -0.56048077 -0.66074276
-9.5802364 -0.50813985 -0.66832727
-9.6300087 -0.45154622 -0.6715976
-9.651536 -0.39322197 -0.67291969
-9.7115917 -0.3359983 -0.67695546
-9.7752953 -0.27816612 -0.68126959
-9.7897835 -0.21847101 -0.68217415
-9.7959261 -0.15847892 -0.68252206
-9.8336229 -0.098742284 -0.68509662
-9.8998833 -0.038663872 -0.68968904
-9.9258709 0.022137556 -0.69149816
-9.9883928 0.083562844 -0.69588184
-10.021606 0.14533855 -0.69824767
-10.066405 0.20777124 -0.70144844
-10.127766 0.27121201 -0.70583212
-10.147846 0.33407041 -0.70736295
-10.258245 0.40072322 -0.71522576
-10.47683 0.4736473 -0.73067302
-10.514573 0.54001838 -0.73352593
-10.511062 0.60452443 -0.73352593
-10.430496 0.66413146 -0.72816807
-10.667053 0.74492264 -0.74500698
-10.628461 0.80779201 -0.74264121
-10.642196 0.87454307 -0.7439633
-10.653522 0.94131744 -0.74514616
-10.689259 1.0106097 -0.74806863
-10.731491 1.0810752 -0.7514782
-10.805002 1.1554894 -0.75711435
-10.887912 1.2319672 -0.76344633
-10.8643 1.2968601 -0.76233304
-10.858117 1.3637463 -0.76247215
-10.916799 1.4392071 -0.76720381
-10.928514 1.5090284 -0.76866502
-11.017785 1.5903018 -0.77562326
-11.022616 1.6601033 -0.776667
-11.049673 1.7335789 -0.77931112
-11.049658 1.8031125 -0.7800765
-11.117071 1.8842095 -0.7856431
-11.064035 1.9451346 -0.78272063
-11.178497 2.0360379 -0.79169679
-11.198144 2.1106853 -0.793993
-11.290734 2.1999552 -0.80150789
-11.321033 2.2780454 -0.8046391
-11.383028 2.3632803 -0.81006652
-11.394651 2.4387162 -0.81194526
-11.390189 2.5109484 -0.81271064
-11.373595 2.5805693 -0.81264108
-11.349775 2.6484947 -0.81208438
-11.350772 2.7222724 -0.81333691
-11.371632 2.8011718 -0.81605059
-11.418062 2.8870301 -0.82064301
-11.628022 3.0161338 -0.83706445
-11.663285 3.1017799 -0.8409611
-11.70467 3.1898077 -0.84534478
-11.784807 3.2894533 -0.85258132
-11.899649 3.4003413 -0.86239243
-11.988673 3.5054827 -0.87039441
-12.004213 3.5901237 -0.87310815
-12.026796 3.6774199 -0.87637848
-12.075419 3.7734578 -0.88159716
-11.886679 3.7947004 -0.86948985
-12.058617 4.1783419 -0.88932085
-11.997009 4.2396245 -0.88667667
-11.907887 4.290504 -0.88201469
-11.929095 4.3810248 -0.88556337
-11.924414 4.4625287 -0.88723338
-11.770967 4.4876428 -0.87783974
-11.976628 4.650404 -0.89530492
-11.961783 4.7293043 -0.89634866
-11.977887 4.8208604 -0.89975816
-12.017318 4.9226213 -0.90497684
-11.952817 4.9820671 -0.90240228
-11.969781 5.075563 -0.90602058
-11.927421 5.1441722 -0.90518558
-11.86457 5.203639 -0.90281981
-11.894374 5.3039646 -0.90755141
-11.742578 5.3228993 -0.89843613
-11.904499 5.4845877 -0.9133963
-11.822735 5.8027749 -0.91777998
-11.903868 5.9335012 -0.92689532
-11.933973 6.1324735 -0.93503642
-12.012989 6.3606095 -0.94728291
-12.078058 6.6825447 -0.96196479
-12.04285 6.9556146 -0.96920139
-11.997363 7.0278649 -0.96899265
-11.960876 7.1054225 -0.9695493
-11.902526 7.16993 -0.96836638
-11.900024 7.2683043 -0.97177595
-11.914575 7.3779454 -0.97664666
-11.934138 7.4917502 -0.98200452
-11.903094 7.5744748 -0.983257
-11.86897 7.6554785 -0.98430073
-11.851833 7.7478099 -0.98680574
-11.827357 7.8358121 -0.98875403
-11.849456 7.9554973 -0.99466854
-11.846609 8.0594749 -0.99856514
-11.819933 8.1478643 -1.0005134
-11.784437 8.2305183 -1.001766
-11.753259 8.3164997 -1.0034359
-11.749036 8.4221678 -1.0074717
-11.773824 8.5497818 -1.014082
-11.770966 8.6585102 -1.0183961
-11.749615 8.7544117 -1.0211794
-11.70603 8.8341522 -1.022084
-11.679345 8.9270144 -1.0245193
-11.644072 9.0137749 -1.0262589
-11.616809 9.1072083 -1.0287639
-11.631027 9.2341385 -1.0350263
-11.599029 9.3253317 -1.0372529
-11.541592 9.396327 -1.0372529
-11.464475 9.4511051 -1.0355134
-11.396313 9.5129614 -1.0346088
-11.351441 9.5942993 -1.0358613
-11.306002 9.6754446 -1.0371138
-11.250945 9.7485542 -1.0375313
-11.192417 9.8187199 -1.0376704
-11.143894 9.89781 -1.0387838
-11.105206 9.9860106 -1.0408713
-11.057741 10.066722 -1.0421933
-10.995031 10.133706 -1.0421237
-10.930456 10.198938 -1.0419149
-10.869122 10.267184 -1.0420541
-10.813129 10.340576 -1.0427499
-10.760945 10.417831 -1.0438633
-10.706795 10.493439 -1.0448374
-10.650704 10.567368 -1.0456724
-10.590591 10.637469 -1.0461595
-10.538413 10.715764 -1.0474815
-10.487062 10.79525 -1.0489428
-10.443419 10.883147 -1.051239
-10.429977 11.003492 -1.0566664
-10.337717 11.041067 -1.0541614
-10.273841 11.108685 -1.0545789
-10.205485 11.171515 -1.0545789
-10.15145 11.250217 -1.0561098
-10.104133 11.336868 -1.058406
-10.048883 11.415126 -1.0599368
-9.9904346 11.490119 -1.0611893
-9.9197445 11.551204 -1.0611893
-9.8635225 11.62935 -1.0627897
-9.8111992 11.712593 -1.0648772
-9.7455063 11.780259 -1.065573
-9.6755657 11.842925 -1.0658513
-9.5964518 11.894307 -1.0651555
-9.5164509 11.944383 -1.0643901
-9.4398985 11.998631 -1.0640421
-9.3807878 12.075233 -1.0657121
-9.3131981 12.141272 -1.0664775
-9.2421389 12.202959 -1.066895
-9.1754532 12.270622 -1.0678692
-9.1195431 12.353174 -1.0701654
-9.0635509 12.436308 -1.0725312
-8.9899855 12.495736 -1.0728791
-8.9079456 12.543343 -1.0722529
-8.8245134 12.588779 -1.0714874
-8.7295074 12.617257 -1.0693305
-8.6530504 12.672231 -1.0694696
-8.6269817 12.802021 -1.0759407
-8.570364 12.887939 -1.078724
-8.5250578 12.991994 -1.0830381
-8.4511442 13.053269 -1.0838035
-8.3767986 13.114125 -1.084569
-8.2929831 13.160214 -1.0841514
-8.2020702 13.194755 -1.0828294
-8.1089611 13.225273 -1.081229
-2.046386 3.3848944 -0.27504775
-1.9688568 3.3022869 -0.26732409
-1.9202362 3.2661521 -0.26342747
-1.8621249 3.2122879 -0.25813922
-1.816137 3.1777542 -0.25445136
-1.7574186 3.1193147 -0.24888477
-1.7043321 3.0689971 -0.24401399
-1.6773239 3.0645223 -0.2428311
-1.6442765 3.0484192 -0.24074364
-1.6175789 3.0434773 -0.23956072
-1.5905412 3.0374396 -0.23830825
-1.5595212 3.0232067 -0.23642953
-1.5002568 2.9526844 -0.23016711
-1.478092 2.9538059 -0.22954087
-1.4427366 2.9279244 -0.22682716
-1.4142894 2.9151831 -0.22515719
-1.385193 2.9004035 -0.22334804
-1.35803 2.8889885 -0.22181723
-1.3377638 2.891835 -0.22139974
-1.3038698 2.8645823 -0.21868601
-1.2789268 2.856142 -0.21743354
-1.2529298 2.8447652 -0.2159723
-1.229501 2.8386698 -0.21492857
-1.2089317 2.8388186 -0.21437192
-1.1868653 2.8351417 -0.21353693
-1.1664088 2.834991 -0.21298027
-1.1474953 2.8383954 -0.21270193
-1.1263735 2.8361125 -0.21200612
-1.1056858 2.8346066 -0.21137987
-1.0825601 2.8264334 -0.21026656
-1.0613328 2.8227522 -0.20950115
-1.0515949 2.8497994 -0.21103196
-1.0371473 2.8646393 -0.21165821
-1.0205528 2.8737693 -0.21186695
-1.0029004 2.8799772 -0.21186695
-0.98521036 2.8860767 -0.21186695
-0.96716648 2.8911214 -0.21179737
-0.94878697 2.8951058 -0.21165821
-0.93192017 2.9037223 -0.21186695
-0.91588104 2.9150956 -0.21228445
-0.8997373 2.9263811 -0.21270193
-0.88205194 2.932802 -0.21277152
-0.86432165 2.939116 -0.21284111
-0.84599555 2.9434054 -0.21277152
-0.82899874 2.9523823 -0.21304984
-0.81139565 2.9593375 -0.21318902
-0.79399639 2.9671512 -0.21339776
-0.77678406 2.9758279 -0.2136761
-0.76638949 3.0114729 -0.21590273
-0.76688033 3.0926068 -0.22139974
-0.74929607 3.1030719 -0.22181723
-0.72613078 3.0901318 -0.22056474
-0.70737886 3.0955014 -0.22063433
-0.6894542 3.1046526 -0.22098224
-0.67018098 3.1078496 -0.22091265
-0.65621132 3.136313 -0.22265221
-0.63755041 3.143213 -0.22286096
-0.6253745 3.1832824 -0.22543551
-0.61590081 3.2399793 -0.22919296
-0.59907717 3.2603765 -0.23037586
-0.58586407 3.3022966 -0.23308957
-0.57519037 3.3618751 -0.23705576
-0.57825935 3.5090446 -0.24721479
-0.55609202 3.5085859 -0.24693646
-0.53350121 3.5050285 -0.24644938
-0.50578249 3.465791 -0.24345735
-0.48409274 3.4658654 -0.2432486
-0.45409796 3.4035103 -0.23865616
-0.2553575 2.0099335 -0.14047545
-0.22910346 1.8965834 -0.1324039
-0.21871473 1.9088551 -0.13316929
-0.2082918 1.922062 -0.13400428
-0.19384958 1.8975021 -0.13219514
-0.18153368 1.8917048 -0.13170807
-0.16777414 1.8689378 -0.1300381
-0.15663713 1.8739085 -0.13031642
-0.14444007 1.8658832 -0.12969019
-0.13313097 1.8687243 -0.12982935
-0.12192269 1.8734877 -0.13010767
-0.11142816 1.8911297 -0.13129057
-0.10013974 1.897755 -0.13170807
-0.088587031 1.9003266 -0.13184723
-0.077413291 1.9127953 -0.13268222
-0.066677369 1.9421468 -0.1347001
-0.10800152 3.8092227 -0.26495829
-0.084827445 3.8187897 -0.26558453
-0.030739274 1.9320731 -0.13393471
-0.018661916 1.9102799 -0.1324039
-0.006968034 1.9173414 -0.13289097
0.004766441 1.9033818 -0.13191682
0.016362473 1.8933414 -0.131221
0.027864276 1.8852255 -0.13066433
0.039369714 1.882027 -0.13045558
0.050783668 1.8767639 -0.13010767
0.062167279 1.8724289 -0.12982935
0.073577367 1.8700186 -0.12969019
0.08509519 1.8705285 -0.12975976
0.096059881 1.8600084 -0.12906393
0.10741365 1.8583879 -0.12899436
0.11900446 1.8606806 -0.12920311
0.13021083 1.85693 -0.12899436
0.14099796 1.8481383 -0.1284377
0.15176378 1.8402789 -0.12795062
0.39855015 4.5064311 -0.31470969
0.42910254 4.5346885 -0.31686673
0.45851764 4.5478511 -0.31798005
0.4894886 4.5737181 -0.31999794
0.52449352 4.6320863 -0.32431206
0.56117833 4.6981196 -0.3291828
0.59508944 4.7351694 -0.33203569
0.63012779 4.7769241 -0.33523649
0.66883779 4.8411546 -0.34003767
0.70294607 4.8675671 -0.34219471
0.7382946 4.8996615 -0.34476927
0.78256404 4.9857078 -0.35117084
0.83080769 5.0891142 -0.35882491
0.86651766 5.1104765 -0.36070362
0.9242779 5.2553892 -0.37134972
0.95132464 5.2211571 -0.36933184
1.0029235 5.3191357 -0.37670755
1.0363051 5.3167987 -0.37698591
1.0773685 5.3523936 -0.37997794
1.1412079 5.4951258 -0.39062405
1.1792871 5.5085058 -0.39208525
3.3637516 15.259702 -1.0890918
3.4506996 15.209588 -1.0870043
3.5364799 15.15607 -1.0847081
3.6238267 15.110804 -1.0830381
3.7105131 15.064068 -1.0812986
3.8023858 15.039083 -1.0811594
3.8850763 14.978775 -1.0785153
3.9671702 14.918019 -1.0758711
4.0544353 14.877996 -1.0747578
4.1392126 14.829778 -1.0730878
2.3546116 8.2393475 -0.59686613
2.3970053 8.1969776 -0.59484828
4.3414612 14.516914 -1.0560402
4.4103298 14.424177 -1.051239
4.4880424 14.362566 -1.0487341
4.5618281 14.290091 -1.0454637
4.6355124 14.219151 -1.0423324
4.6870804 14.08348 -1.0344696
4.7378011 13.949605 -1.026746
4.8105688 13.883511 -1.0240322
4.869411 13.779426 -1.0185353
4.9281721 13.677959 -1.013247
4.996532 13.605323 -1.0101159
5.05265 13.501533 -1.0046884
5.1165667 13.420873 -1.0010005
5.1919599 13.371555 -0.99967843
5.2445693 13.265229 -0.99411184
5.257339 13.062516 -0.9813087
5.3154602 12.976469 -0.97727293
5.3673525 12.877312 -0.97226298
5.4330258 12.812909 -0.96989721
5.4317474 12.594293 -0.95584154
5.4852853 12.506825 -0.95173621
5.5294237 12.400043 -0.94616961
5.5333371 12.206876 -0.93399268
5.4987783 11.935306 -0.91576213
5.5490704 11.852552 -0.91200465
5.5904136 11.752518 -0.90692514
5.5951519 11.57877 -0.89613992
5.6340094 11.478846 -0.89106041
5.6148953 11.2646 -0.8770743
5.6456199 11.154278 -0.87115985
5.6688204 11.031584 -0.86427116
5.6676626 10.864804 -0.85390341
5.7178845 10.798965 -0.85146803
5.7349334 10.672287 -0.84423143
5.7621064 10.56683 -0.83866489
5.8157282 10.511198 -0.83706445
5.8737664 10.464006 -0.83615988
5.8574085 10.286462 -0.82481796
5.9403701 10.284883 -0.82760125
5.9751306 10.200035 -0.82370466
5.9790173 10.064548 -0.81570268
6.0324244 10.013999 -0.81458938
6.0240831 9.8627138 -0.80526531
6.0314455 9.7399006 -0.7982375
6.033287 9.6106129 -0.79065305
6.0123496 9.4480066 -0.78028524
6.064261 9.4017162 -0.77951986
6.1021852 9.3342686 -0.77701491
6.1527333 9.2866716 -0.77617991
0.79787278 1.1873646 -0.098934777
0.80850983 1.1873955 -0.09935227
0.81464803 1.1807694 -0.099213108
0.83101654 1.1888347 -0.10032643
0.84520948 1.1934856 -0.10116141
0.85658491 1.1939527 -0.10164849
0.86506695 1.1902888 -0.10178766
0.87471843 1.1881728 -0.10206598
0.88378042 1.1851832 -0.10227473
0.8964439 1.1869048 -0.10290097
0.90310395 1.1805894 -0.10283139
0.92010069 1.1876477 -0.1039447
0.93229419 1.1882606 -0.10450137
0.9538334 1.200488 -0.10610176
0.96993184 1.2054976 -0.10707591
0.97416151 1.1956553 -0.106728
0.98401767 1.1927346 -0.10700633
1.0072985 1.2058208 -0.10874589
0.95930094 1.1340922 -0.10276181
0.95975572 1.1206051 -0.10206598
0.9640007 1.1116792 -0.10178766
0.97277713 1.1079931 -0.1019964
0.97889501 1.1012576 -0.10192682
0.98363274 1.0930051 -0.10171807
0.98964924 1.0862113 -0.10164849
0.99223924 1.0757171 -0.10123099
1.0029043 1.073985 -0.10164849
1.0115302 1.0699867 -0.10185724
1.0166975 1.062318 -0.10171807
1.0266659 1.0596434 -0.10206598
1.0324502 1.0526115 -0.1019964
1.0402946 1.047673 -0.10213557
1.0530658 1.0476049 -0.10276181
1.0424045 1.0243354 -0.10109183
7.9518418 7.7245913 -0.77242243
8.0120459 7.6880875 -0.77367496
8.0692034 7.6483903 -0.77464908
8.1094275 7.5925975 -0.77402288
8.1529331 7.5399866 -0.77374452
8.2181921 7.5073133 -0.77555364
8.2663231 7.4587517 -0.77576244
8.326828 7.4211655 -0.77715403
8.3871813 7.3831172 -0.77854568
8.436842 7.3354425 -0.77896321
8.4733686 7.2763877 -0.77819777
8.5087271 7.2165151 -0.77736282
8.5383167 7.1519995 -0.77604073
8.5920324 7.1077409 -0.77694529
8.6462975 7.0637245 -0.77791947
8.6887007 7.0099125 -0.77784985
8.7214069 6.9483857 -0.77694529
8.7615252 6.8928909 -0.77673656
8.846981 6.8726635 -0.78056359
8.9491386 6.8643966 -0.78585184
9.0555019 6.8581443 -0.79148805
9.1701117 6.8568182 -0.79782003
9.3091192 6.8721175 -0.80623949
9.4002867 6.8507113 -0.81048399
9.4850616 6.8237824 -0.81417185
9.5519667 6.7833614 -0.81632894
9.6424189 6.7589827 -0.82050389
9.623004 6.6576862 -0.81535476
9.6439028 6.5850134 -0.81368482
9.6783352 6.5218134 -0.81319773
9.7123556 6.4584384 -0.81271064
9.7126017 6.3729987 -0.80944026
9.7289143 6.2986445 -0.80756158
9.7623339 6.2356081 -0.80714405
9.7734051 6.1585703 -0.8049174
9.7398434 6.054244 -0.7990725
9.6756086 5.932312 -0.79079223
9.6520739 5.8366942 -0.78592145
9.542057 5.6904898 -0.77409244
9.4607096 5.5635595 -0.7646988
9.4075098 5.4548593 -0.757671
9.3871098 5.366334 -0.75335687
9.3694553 5.2802253 -0.7493211
9.3476124 5.1925979 -0.74500698
9.3530483 5.1207705 -0.74291956
9.315815 5.0263329 -0.73749208
9.2795401 4.9334831 -0.73220384
9.2707558 4.8560834 -0.72914225
9.2746696 4.7858396 -0.72712433
9.2878532 4.7207046 -0.72587186
9.2872076 4.6488891 -0.72357565
9.2752943 4.5719662 -0.72044444
9.2735567 4.5005927 -0.71814823
9.2550926 4.4216714 -0.71459949
9.2513561 4.3503652 -0.71223372
9.2624855 4.2863946 -0.71105081
9.2695475 4.2207975 -0.7095896
9.2306337 4.134882 -0.70464921
9.2476149 4.0745459 -0.704023
9.240406 4.0038428 -0.70158762
9.1207142 3.8856745 -0.69066316
1.055635 0.44147781 -0.078964636
1.0527892 0.43271369 -0.078547142
1.0535749 0.42549753 -0.078407981
1.0561659 0.41902494 -0.078407981
1.0633636 0.41435012 -0.078755893
1.067749 0.40853164 -0.078895055
1.0683682 0.40126979 -0.078755893
1.0689386 0.39401576 -0.078616723
1.0779016 0.38982809 -0.079103805
1.0699334 0.3795324 -0.0783384
1.0684739 0.37164721 -0.078060068
1.0716782 0.36540669 -0.078129649
1.076738 0.35977414 -0.0783384
1.0789254 0.35316062 -0.0783384
1.0858209 0.34805906 -0.078686312
1.0945977 0.34348455 -0.079173386
1.1014519 0.33822858 -0.079521298
1.0996855 0.33031377 -0.079242967
1.0921217 0.32074353 -0.078547142
1.1026975 0.31651831 -0.079173386
1.1046189 0.30974633 -0.079173386
1.1122707 0.30454659 -0.079590879
1.1362816 0.30365184 -0.081191272
1.173835 0.3060039 -0.08376582
1.1872911 0.30175039 -0.084600814
1.2433395 0.30791619 -0.088497423
1.2907796 0.31129584 -0.091767795
1.3082026 0.30702424 -0.092881113
1.3236762 0.30210555 -0.093855262
1.3294003 0.29484379 -0.094133593
1.3380102 0.28815457 -0.094620667
1.3338947 0.27871227 -0.094203174
1.3355798 0.27052242 -0.094203174
10.123167 1.9901886 -0.71877444
10.281206 1.9558233 -0.72914225
10.261619 1.8869271 -0.7269156
10.257287 1.8211362 -0.7258023
10.268269 1.7581645 -0.7258023
10.268037 1.6933403 -0.72503686
10.246706 1.6253021 -0.72281021
10.217037 1.5563871 -0.72002691
10.202704 1.4902055 -0.71835697
10.196837 1.4255023 -0.71731323
10.199459 1.3621161 -0.71689576
10.181896 1.2962307 -0.71508658
8.8635979 1.0730916 -0.62191582
8.8323545 1.0143576 -0.6192717
8.8374214 0.96003634 -0.61920208
8.8610086 0.90762383 -0.62045455
8.9091082 0.85734874 -0.62344664
8.9688463 0.80759174 -0.62727368
9.0283079 0.75713372 -0.63110065
10.136761 0.78756571 -0.70833713
10.223989 0.73126513 -0.71411246
10.22032 0.66799718 -0.71355575
10.203315 0.60403454 -0.71209455
10.199856 0.5410465 -0.71160746
10.183054 0.47751534 -0.71021581
10.15589 0.41380402 -0.70812833
10.120353 0.35016763 -0.70548421
10.095387 0.28729579 -0.70360547
10.132864 0.22614987 -0.70611048
10.13406 0.16397153 -0.70611048
10.18575 0.10230119 -0.70965916
10.190176 0.039816521 -0.70993751
7.8695765 -0.010104313 -0.68052649
7.8514338 -0.05825733 -0.67897338
7.8608909 -0.10656708 -0.67983621
7.8640728 -0.15487717 -0.68018138
7.8719373 -0.20335914 -0.68095797
7.8745251 -0.25178409 -0.68130308
7.8638716 -0.29975471 -0.68052649
7.837997 -0.34694281 -0.67845565
7.8426862 -0.39538068 -0.67905962
7.8440909 -0.44372025 -0.6794048
7.8263059 -0.49090633 -0.67811048
7.8271227 -0.53919238 -0.67845565
7.8196921 -0.58691019 -0.67811048
7.8109794 -0.63447642 -0.67767906
7.8079319 -0.68247855 -0.67776537
7.8145084 -0.73139584 -0.67871451
7.8088822 -0.77923203 -0.67862821
7.7950373 -0.82618642 -0.67785162
7.7819014 -0.87311143 -0.67716134
7.7704606 -0.92014074 -0.67664361
7.7508283 -0.96607643 -0.6754356
7.7259851 -1.0111594 -0.67379618
7.7156878 -1.0580047 -0.67345101
7.6873546 -1.1022159 -0.67155272
7.6459613 -1.1442021 -0.66853273
7.6269846 -1.1892531 -0.66749728
7.595942 -1.2321995 -0.66542637
7.5538535 -1.2729886 -0.66240638
7.5380502 -1.3179412 -0.6617161
7.5170774 -1.3618598 -0.66059434
7.4919333 -1.4048362 -0.65912747
7.4587207 -1.4460381 -0.65697032
7.4321237 -1.488255 -0.6554172
7.4140711 -1.532015 -0.65464061
7.3889408 -1.574156 -0.65325999
7.3343801 -1.6096388 -0.64929086
7.3369989 -1.6574657 -0.65041256
7.3228092 -1.7015514 -0.65006745
7.2414932 -1.7295539 -0.64376855
7.1988144 -1.7661198 -0.64092106
7.1685205 -1.8053908 -0.63919532
7.1399455 -1.8448552 -0.6376422
7.1256022 -1.8878648 -0.63738334
7.130229 -1.9359895 -0.63885021
7.1220551 -1.9807714 -0.63919532
7.0944362 -2.0200684 -0.63781476
7.0685172 -2.0596585 -0.63660675
7.0633841 -2.1052682 -0.63729703
7.0570045 -2.1506019 -0.63790107
7.0360661 -2.1914918 -0.63721079
6.9864116 -2.2231424 -0.63393188
6.9347396 -2.2536504 -0.63048041
7.0011549 -2.3228281 -0.63781476
7.1084991 -2.4069645 -0.64894569
6.9598818 -2.4043386 -0.63669306
6.9938593 -2.464216 -0.64117992
7.0601778 -2.5363905 -0.64868683
7.0360622 -2.5765798 -0.64791024
6.9230485 -2.5834756 -0.63893646
6.9387279 -2.6379442 -0.6418702
6.9104676 -2.7247219 -0.64230168
6.9315262 -2.7822895 -0.64583939
6.9226241 -2.8281593 -0.64661598
6.9327383 -2.8820565 -0.64920455
6.9387808 -2.9346316 -0.65144801
6.7916045 -2.9216363 -0.63928163
6.7507315 -2.9532704 -0.63712448
6.7042651 -2.982084 -0.6344496
6.6268368 -2.9964817 -0.62884098
6.6164727 -3.0408313 -0.62961757
6.6247697 -3.0940204 -0.63220614
6.562458 -3.1141081 -0.62806439
6.6024561 -3.1828713 -0.63375932
6.5094328 -3.1873946 -0.62668383
6.6092863 -3.2867231 -0.63824618
6.5374155 -3.301167 -0.63324159
6.4744835 -3.3193994 -0.62909985
6.517622 -3.3921824 -0.63531244
6.4438324 -3.404186 -0.6301353
6.4430175 -3.4544888 -0.63211983
1.413453 -0.76882708 -0.13830298
1.3991151 -0.77218854 -0.13735384
1.3882663 -0.77735066 -0.13674983
1.3765408 -0.78191668 -0.13605954
1.3717172 -0.79034829 -0.13605954
1.367702 -0.79925293 -0.13614582
1.361915 -0.80712181 -0.13605954
1.3603524 -0.81751645 -0.13640468
1.3638176 -0.83103341 -0.13726754
1.3680152 -0.84514713 -0.13821669
1.3695579 -0.85775673 -0.13890699
1.3642689 -0.86614406 -0.13890699
1.358091 -0.87395948 -0.13882069
1.3543717 -0.88336492 -0.13899328
1.3564051 -0.896604 -0.13976985
5.9070382 -3.9579086 -0.61477631
5.8925319 -4.0007949 -0.61581177
5.8670521 -4.0363111 -0.61572546
5.829916 -4.0636888 -0.61443114
5.7723203 -4.0763946 -0.61097968
5.7115493 -4.0862288 -0.6071831
5.6895957 -4.1235361 -0.60752827
5.6730204 -4.1648545 -0.60847741
5.6225762 -4.1811552 -0.60580254
5.5960197 -4.2149763 -0.60571623
5.5605469 -4.241982 -0.60468078
5.5162821 -4.2620111 -0.60269618
5.4711967 -4.2810426 -0.60062534
5.4510717 -4.3194828 -0.60131562
5.4330125 -4.3597074 -0.60226476
5.3790989 -4.3709712 -0.59924477
5.3460231 -4.3988299 -0.59855449
5.3204632 -4.4328256 -0.59872705
1.168282 -0.98533475 -0.13131379
1.1455488 -0.9782486 -0.12941548
1.142539 -0.98786604 -0.12976064
1.134957 -0.99354529 -0.12958805
1.1318213 -1.0031343 -0.12993321
1.1249034 -1.0093945 -0.12984692
1.1113157 -1.0095776 -0.12898405
1.1175642 -1.0278447 -0.13045092
1.1119654 -1.0353615 -0.13053721
1.1012425 -1.038064 -0.13001949
1.0962937 -1.0461774 -0.13019206
1.0977343 -1.0605 -0.13114122
1.0919186 -1.0679123 -0.13122749
1.1016263 -1.0907166 -0.13321209
1.094913 -1.0974555 -0.13321209
1.093053 -1.109121 -0.13381609
4.2678704 -4.3850999 -0.52892137
4.2325983 -4.402586 -0.52788591
4.2109928 -4.4342537 -0.5285762
4.1775713 -4.4534683 -0.52779967
4.1413646 -4.4695172 -0.52667791
4.1017551 -4.4816146 -0.52512479
4.0768514 -4.5096545 -0.5254699
4.0431323 -4.5278964 -0.52469331
4.0093431 -4.5458946 -0.52391678
3.9853008 -4.5749173 -0.52443445
3.9720986 -4.6166549 -0.52641904
3.9443414 -4.6416998 -0.52650535
3.9081011 -4.6566563 -0.5254699
3.8794549 -4.6805482 -0.5254699
3.8670692 -4.724309 -0.52771336
3.8273618 -4.7347765 -0.52624649
3.7783496 -4.7332549 -0.5234853
3.7079158 -4.7039256 -0.51770413
3.6606259 -4.703002 -0.51511556
3.6165233 -4.7056255 -0.51295841
3.5899909 -4.7309022 -0.51330352
3.5806069 -4.7791533 -0.51615101
3.5707653 -4.827466 -0.51899844
3.5216899 -4.8227329 -0.51615101
3.4966922 -4.8507166 -0.51684129
3.4714835 -4.8785748 -0.51753157
3.4323223 -4.8867388 -0.51615101
3.3920569 -4.8929691 -0.51459783
3.335531 -4.8750443 -0.51054239
3.2927332 -4.8764277 -0.5085578
3.2715888 -4.9098058 -0.50993836
3.2030892 -4.8715143 -0.50389832
3.1796441 -4.9011064 -0.50493377
3.1285667 -4.8877983 -0.50156862
3.0724537 -4.8656249 -0.49734056
3.0146251 -4.8395662 -0.49276736
3.0031266 -4.8876824 -0.49578741
2.9761775 -4.91113 -0.49630511
2.9567194 -4.947258 -0.49811712
2.887867 -4.9000745 -0.49155936
2.8247116 -4.8608489 -0.48586446
2.7997849 -4.886734 -0.48672733
2.7496612 -4.8682547 -0.48318958
2.7333069 -4.9094076 -0.4856056
2.7323654 -4.9793658 -0.49086908
2.6974964 -4.9881506 -0.49009249
2.6926053 -5.0529671 -0.49483824
2.6740534 -5.0932102 -0.49716797
2.6409209 -5.1059823 -0.49682283
2.5910006 -5.0856938 -0.49328509
2.5722561 -5.1264296 -0.4957011
2.5411937 -5.1430092 -0.49578741
2.503052 -5.1450663 -0.4944931
2.5105922 -5.2420964 -0.50234514
2.4779553 -5.2565012 -0.5022589
2.4406247 -5.2607617 -0.50122344
2.4136772 -5.2874203 -0.50234514
2.3664966 -5.2694125 -0.49923885
2.3373396 -5.2911243 -0.49992916
2.2845864 -5.2587638 -0.49552855
2.2706683 -5.3157439 -0.49958399
2.2511222 -5.3608079 -0.50251776
2.2303479 -5.4039898 -0.50527889
2.1769307 -5.3677182 -0.50061941
2.1321552 -5.3513575 -0.49785829
2.0971014 -5.3587728 -0.49734056
2.0738292 -5.3966489 -0.4996703
2.05439 -5.4456263 -0.50303543
2.0316603 -5.4870925 -0.5057103
1.9891098 -5.4751086 -0.5034669
1.9681849 -5.5228724 -0.50674576
1.9240725 -5.5056891 -0.50407088
1.8983253 -5.5409546 -0.50622803
1.8902907 -5.6299443 -0.51330352
1.8426373 -5.6016884 -0.5096795
1.8146458 -5.632803 -0.51149154
1.7794501 -5.6419315 -0.51131892
1.7536123 -5.6813025 -0.51390755
1.7227507 -5.705308 -0.51511556
1.6846081 -5.7052608 -0.51416641
1.6492933 -5.7145329 -0.51408011
1.6174427 -5.736052 -0.51511556
1.582481 -5.746829 -0.51520181
1.5505506 -5.7689381 -0.51632357
1.5189135 -5.792799 -0.51761788
1.4877822 -5.8193841 -0.519171
1.4599936 -5.8603058 -0.52201843
1.4237731 -5.8681855 -0.52193218
1.3847638 -5.8642058 -0.52081043
1.3487557 -5.8725924 -0.52081043
1.3153008 -5.892426 -0.52184588
1.2793318 -5.9013591 -0.52193218
1.2410471 -5.8993483 -0.52106929
1.204826 -5.9068522 -0.52106929
1.1648911 -5.8955636 -0.51942986
1.124953 -5.8830295 -0.51770413
1.0926368 -5.9103947 -0.51951617
1.0570509 -5.9209108 -0.51986128
1.0278004 -5.9685221 -0.5234853
0.98806179 -5.9560413 -0.52184588
0.94773024 -5.9383807 -0.51977503
0.91308641 -5.9559007 -0.52081043
0.88043654 -5.9880047 -0.52314019
0.84340054 -5.9913211 -0.52296758
0.80131131 -5.9568887 -0.51951617
0.76373172 -5.9537873 -0.51882589
0.72983998 -5.9801183 -0.52072418
0.69679964 -6.0161529 -0.5234853
0.65629131 -5.9876337 -0.52063787
0.62066627 -6.0024486 -0.52158701
0.58411324 -6.009119 -0.52184588
0.54623812 -6.0016761 -0.52089673
0.50906557 -6.0009441 -0.52055156
0.4783251 -6.0814247 -0.52728194
0.43553039 -6.0087266 -0.52072418
0.39779681 -5.9983625 -0.51960242
0.36241892 -6.0245581 -0.52167332
0.3260366 -6.037611 -0.52262247
0.28841347 -6.0275569 -0.52158701
0.25167245 -6.0351849 -0.52210474
0.21516693 -6.0515504 -0.52339906
0.17797278 -6.050765 -0.52322644
0.14037982 -6.0318232 -0.52150077
0.10351986 -6.0415359 -0.5222773
0.066644236 -6.0599895 -0.52383047
0.0294788 -6.0642691 -0.52417564
-0.007732721 -6.0653319 -0.52426189
-0.044963598 -6.067163 -0.52443445
-0.082176633 -6.0657768 -0.5243482
-0.11929575 -6.0601778 -0.52391678
-0.15609168 -6.0443926 -0.52262247
-0.19120052 -5.9815841 -0.51727271
-0.2295703 -6.0241022 -0.52106929
-0.26785177 -6.0524387 -0.52365792
-0.30498379 -6.0506821 -0.52365792
-0.33940211 -6.0009518 -0.51951617
-0.37752724 -6.0196366 -0.52132815
-0.41671637 -6.0500069 -0.52417564
-0.45554638 -6.0701852 -0.52616018
-0.49326792 -6.0732341 -0.52667791
-0.52800661 -6.0413113 -0.52417564
-0.56450826 -6.0320058 -0.52365792
-0.60061872 -6.0195065 -0.52288133
-0.64016831 -6.0404758 -0.52503848
-0.67710882 -6.0354443 -0.52495217
-0.71436322 -6.0331545 -0.52512479
-0.75272423 -6.0395327 -0.52607393
-0.79157847 -6.0486293 -0.52728194
-0.83043712 -6.0564904 -0.52840364
-0.86503774 -6.0335298 -0.52685052
-0.89924037 -6.0093875 -0.52521104
-0.93747807 -6.0126166 -0.52598763
-0.98201191 -6.0539546 -0.53012937
-1.0201333 -6.0537095 -0.5306471
-1.0610346 -6.0689268 -0.53254539
-1.0962988 -6.0515189 -0.53159624
-1.1166979 -5.9555712 -0.52374417
-1.1664951 -6.0170703 -0.5297842
-1.201241 -5.999054 -0.52883506
-1.2378263 -5.9905949 -0.52874881
-1.2760139 -5.9897075 -0.52935278
-1.3110334 -5.9739804 -0.5286625
-1.3472251 -5.9638805 -0.52848995
-1.3864996 -5.9671464 -0.5295254
-1.425402 -5.9682169 -0.53038824
-1.4631826 -5.9641962 -0.53081965
-1.5031575 -5.9686313 -0.53202766
-1.5407491 -5.9631543 -0.53237283
-1.5645502 -5.9054365 -0.52805853
-1.6153766 -5.9495664 -0.53289056
-1.6601285 -5.9692974 -0.53556544
-1.7002714 -5.9714551 -0.53668714
-1.7371583 -5.9618664 -0.53677344
-1.7745606 -5.9539595 -0.53703231
-1.8110602 -5.9429588 -0.53703231
-1.8406764 -5.9098568 -0.53504771
-1.874789 -5.8918061 -0.53444368
-1.9099815 -5.8773494 -0.53418481
-1.9648335 -5.9222536 -0.53936201
-2.0001762 -5.9072552 -0.53910315
-2.0315046 -5.8807464 -0.53780884
-2.0665567 -5.8653522 -0.53755003
-2.0937486 -5.8281841 -0.53530657
-2.126044 -5.805872 -0.53444368
-2.1602347 -5.7889843 -0.53409857
-2.1942983 -5.7718954 -0.5337534
-2.241905 -5.7899103 -0.53668714
-2.2901804 -5.8084836 -0.53970718
-2.296828 -5.7222066 -0.53297681
-2.342823 -5.7347517 -0.53547913
-2.3829386 -5.7322273 -0.53660083
-2.4254403 -5.7349319 -0.53824031
-2.4601896 -5.7190261 -0.53815401
-2.5004261 -5.7156887 -0.53927571
-2.5431433 -5.7175341 -0.54091519
-2.5732517 -5.6909289 -0.53987974
-2.5914793 -5.638823 -0.53642827
-2.6551208 -5.6850996 -0.54238206
-2.6903813 -5.6696014 -0.54246831
-2.7164655 -5.6350384 -0.54074258
-2.7737746 -5.6647911 -0.54522949
-2.8142481 -5.6592612 -0.54635119
-2.8480213 -5.6401081 -0.54617864
-2.9053025 -5.6668534 -0.55049294
-2.9570382 -5.6816182 -0.55368555
-2.993706 -5.6668906 -0.55403072
-3.0218298 -5.6361227 -0.55282271
-3.0658791 -5.6349773 -0.55454844
-3.0960631 -5.6082101 -0.55377185
-3.1089938 -5.5508623 -0.54997522
-3.1326585 -5.5134912 -0.54816324
-3.1823499 -5.5217872 -0.55092436
-3.1955566 -5.4668927 -0.54738665
-3.2137985 -5.4214725 -0.54479808
-3.25881 -5.4212899 -0.54678267
-3.3065321 -5.4250112 -0.54919869
-3.3408043 -5.4063158 -0.54937124
-3.3696826 -5.3789611 -0.54868096
-3.3379967 -5.2564225 -0.53824031
-3.4057777 -5.291131 -0.54393518
-3.4403572 -5.2734714 -0.54428035
-3.5061691 -5.3029552 -0.5495438
-3.5181217 -5.2507191 -0.54635119
-3.598963 -5.3007407 -0.5538581
-3.6043146 -5.239161 -0.54971635
-3.6603222 -5.2512732 -0.55334044
-3.7062678 -5.2482457 -0.55541128
-3.7604299 -5.2561951 -0.55869019
-3.7470059 -5.1701021 -0.55195981
-3.7939882 -5.1678934 -0.55420327
-3.8161142 -5.1317258 -0.55282271
-3.8649132 -5.1312909 -0.55532497
-3.8890738 -5.0979753 -0.55428958
-3.9129717 -5.0645561 -0.55325413
-3.9341502 -5.0278978 -0.55187356
-3.9612141 -4.9989781 -0.55135584
-3.9862003 -4.967586 -0.55057925
-4.0473933 -4.9809184 -0.55480731
-4.1019349 -4.9852233 -0.55808616
-4.1407371 -4.9699111 -0.55920786
-4.1441717 -4.9124289 -0.55558383
-4.1587057 -4.8687272 -0.55351299
-4.1937151 -4.8491468 -0.55420327
-4.2279844 -4.8285699 -0.55480731
-4.2443137 -4.7876272 -0.55308157
-4.2769375 -4.7652016 -0.55351299
-4.3000655 -4.732233 -0.5527364
-4.3431864 -4.7211566 -0.55454844
-4.3795424 -4.7024374 -0.55549759
-4.4418039 -4.7109942 -0.55972558
-4.4499888 -4.6620321 -0.55713701
-4.5435896 -4.701982 -0.56524795
-4.6030102 -4.7053485 -0.56904453
-4.6149693 -4.660028 -0.56697363
-4.6350107 -4.6231809 -0.56593823
-4.6434193 -4.5750766 -0.56352222
-4.6642647 -4.5395503 -0.56265932
-4.6618652 -4.4818468 -0.5590353
-4.7319021 -4.4936333 -0.56412619
-4.7332263 -4.4399772 -0.5610199
-4.7757273 -4.4250708 -0.56283188
-4.8637905 -4.45151 -0.56999367
-4.8895345 -4.4202466 -0.56982112
-4.9916229 -4.4571791 -0.57853603
-4.9740453 -4.386929 -0.57335883
-4.9956107 -4.3517461 -0.57275486
-5.0191975 -4.3184123 -0.57240969
-5.0698953 -4.308177 -0.57517087
-5.1504183 -4.3224578 -0.58129722
-5.1638031 -4.2799668 -0.57983035
-5.2231183 -4.2753353 -0.58354062
-5.2275586 -4.2256708 -0.5811246
-5.302443 -4.2326708 -0.58656067
-5.2586765 -4.1451678 -0.57888114
-5.2525635 -4.088347 -0.57542974
-5.3604951 -4.1197829 -0.58448976
-5.4213877 -4.1139135 -0.58837265
-5.513505 -4.1307468 -0.59562075
-5.5419502 -4.0992088 -0.59596586
-5.624126 -4.1068392 -0.60209221
-5.6750813 -4.0908947 -0.60485339
-5.7025113 -4.0577283 -0.60511225
-5.7273016 -4.0226622 -0.60511225
-5.730588 -3.9726875 -0.6028688
-5.7811685 -3.9554517 -0.60562992
-5.8639536 -3.9594862 -0.61175627
-5.8640943 -3.9074113 -0.609254
-5.8671474 -3.8576734 -0.60709679
-5.949214 -3.8595541 -0.61313689
-5.9878883 -3.8326449 -0.61469001
-5.9396882 -3.7506206 -0.60735565
-5.9888048 -3.7304327 -0.61003053
-6.0667577 -3.7275147 -0.61563915
-6.0486169 -3.6654372 -0.6114974
-6.0641518 -3.624166 -0.61080712
-6.1094503 -3.6005456 -0.61313689
-6.1770825 -3.5895193 -0.61771005
-6.21628 -3.5614541 -0.61943579
-6.1781592 -3.4894404 -0.613482
-6.2656097 -3.4882948 -0.62003976
-6.2545786 -3.4320524 -0.61684716
-6.2904177 -3.4016664 -0.61831403
-6.2891903 -3.3512928 -0.61615688
-6.3837318 -3.3515387 -0.62340492
-6.3714342 -3.2953722 -0.62021232
-6.3453727 -3.2327006 -0.61572546
-6.3989267 -3.2106822 -0.61900431
-6.389924 -3.1572373 -0.61624318
-6.3822994 -3.1048961 -0.61365455
-6.394042 -3.0622342 -0.61296427
-6.4298339 -3.0310142 -0.61460376
-6.4329467 -2.9843774 -0.61313689
-6.5399566 -2.9853904 -0.62159294
-6.5526986 -2.9427571 -0.62107521
-6.5268879 -2.8831737 -0.61693347
-6.5005941 -2.8240182 -0.61279172
-6.5599446 -2.802079 -0.61676091
-6.4447384 -2.7062359 -0.60433567
-6.4833245 -2.6757617 -0.60640651
-6.4774632 -2.626945 -0.60433567
-6.4971619 -2.5886257 -0.60468078
-6.4674621 -2.5309227 -0.60045278
-6.3387222 -2.4358051 -0.58707839
-6.4374428 -2.4285111 -0.59484416
-6.4036393 -2.3709798 -0.59035724
-6.3459635 -2.3054514 -0.58371323
-6.3102512 -2.2487466 -0.57914001
-6.2505708 -2.1843519 -0.57240969
-6.2902465 -2.1549978 -0.5748257
-6.3297963 -2.1252391 -0.57724172
-6.3455563 -2.0872941 -0.57750058
-6.4122963 -2.0657301 -0.58241892
-6.4476547 -2.0335371 -0.58448976
-6.5523515 -2.0224349 -0.59285957
-6.5627298 -1.9816165 -0.59268701
-6.6273179 -1.956826 -0.59743273
-6.7090764 -1.936289 -0.60373163
-6.7246666 -1.8961679 -0.6040768
-6.7842011 -1.8680931 -0.60839111
-6.8744307 -1.8476326 -0.61546659
-6.7622843 -1.773078 -0.60442191
-6.8212981 -1.7438886 -0.60873628
-6.8463712 -1.7056131 -0.61003053
-6.8964033 -1.673202 -0.61356831
-6.8852086 -1.6258187 -0.61167002
-6.9028225 -1.585325 -0.6123603
-6.9153371 -1.5435913 -0.61261916
-7.0512543 -1.5285652 -0.6238364
-7.1024232 -1.4940882 -0.62754667
-7.137814 -1.4558554 -0.62987643
-7.1436806 -1.4114519 -0.62961757
-7.2412548 -1.3846165 -0.63746959
-7.3446431 -1.3577228 -0.64583939
-7.3793163 -1.3173578 -0.6481691
-7.4363518 -1.2805061 -0.65248346
-7.490262 -1.2425146 -0.6565389
-7.4997129 -1.1968458 -0.65671146
-7.533504 -1.1548811 -0.65904123
-7.5818467 -1.11472 -0.66266525
-7.5678263 -1.0652621 -0.66085321
-7.6186528 -1.0247818 -0.66473609
-7.6633358 -0.98295742 -0.66810125
-7.7137256 -0.94134706 -0.67198414
-7.7421184 -0.89663422 -0.67396873
-7.7147927 -0.84553176 -0.6711213
-7.8764119 -0.81436282 -0.68475455
-7.9050593 -0.76833111 -0.68682539
-7.9135938 -0.72017318 -0.68717057
-7.9377179 -0.67328614 -0.6888963
-7.943686 -0.62472475 -0.68906885
-8.0427618 -0.58288193 -0.69735235
-8.0392284 -0.53306025 -0.69674838
-8.0721817 -0.48551601 -0.69933695
-8.1247501 -0.43866098 -0.70365125
-8.1680899 -0.39075086 -0.70718902
-8.2121401 -0.34236676 -0.71081305
-8.2369862 -0.29278487 -0.71279764
-8.290411 -0.24375926 -0.7172845
-8.2877674 -0.1927931 -0.71693939
-8.3176813 -0.14243051 -0.71944165
-8.4170237 -0.092472225 -0.72798401
-8.4433355 -0.04094949 -0.73022747
-8.6386967 0.011115285 -0.74713957
-8.5766983 0.063660927 -0.74178982
-8.5861082 0.11642071 -0.74265271
-8.4338284 0.16611548 -0.72953719
-8.5770607 0.22159639 -0.74204868
-8.5815153 0.27441129 -0.74256641
-8.6085405 0.32816267 -0.74506873
-8.7984562 0.38948619 -0.76172197
-8.7690363 0.44211 -0.75939226
-8.8198709 0.4989475 -0.76405174
-8.8956242 0.66769779 -0.77155864
-8.9012899 0.72307462 -0.77242148
-8.9443254 0.7818439 -0.77656323
-8.9304323 0.83587468 -0.77578664
-8.8567324 0.88382715 -0.76983291
-8.8174582 0.93458319 -0.76689917
-8.7650261 0.98344624 -0.76284373
-8.7113371 1.031584 -0.75870198
-8.8224888 1.0996835 -0.76897001
-8.6456661 1.131554 -0.75412881
-8.7214708 1.1959531 -0.76137686
-8.7307339 1.2518489 -0.76284373
-8.837182 1.3225037 -0.7728529
-8.8968229 1.3872956 -0.77880669
-8.9471474 1.4514328 -0.78398389
-8.9184246 1.5029924 -0.78225815
-8.9443655 1.5638647 -0.78536445
-9.0669422 1.6426972 -0.7970131
-9.0958605 1.7056458 -0.80046457
-9.2094355 1.7855103 -0.81142294
-9.2618036 1.8547018 -0.81703156
-9.2580538 1.9131093 -0.81772184
-9.2052164 1.9611596 -0.81409782
-9.2299871 2.0257215 -0.81737667
-9.2131681 2.1408646 -0.81815326
-9.3106956 2.6512034 -0.83739513
-9.3497286 2.7244496 -0.84239972
-9.3166046 2.7769289 -0.84093285
-9.3584757 2.8520508 -0.8462826
-9.3408003 2.9094193 -0.8462826
-9.3446074 2.9736276 -0.8482672
-9.3280802 3.0315249 -0.84843981
-9.3253784 3.0940378 -0.84990662
-9.3222599 3.1566312 -0.85137349
-9.3149576 3.2180016 -0.85249525
-9.3091316 3.2800632 -0.85378957
-9.3178959 3.347564 -0.85646439
-9.3205671 3.41324 -0.8586216
-9.3153172 3.4762874 -0.86008847
-9.3021917 3.5365663 -0.860865
-9.2775307 3.5924976 -0.86060613
-9.2645807 3.6530106 -0.86146903
-9.2651052 3.7190669 -0.86362618
-9.2670126 3.7860203 -0.86595589
-9.2712049 3.8542843 -0.86854452
-9.2804136 3.9250705 -0.87165082
-9.2470036 3.9780028 -0.87078798
-9.2644062 4.0530357 -0.87475711
-9.2748642 4.125597 -0.87812227
-9.3038416 4.2070594 -0.88329947
-9.2923355 4.2707243 -0.88468003
-9.2785931 4.3335633 -0.88588804
-9.2644291 4.3963938 -0.88709605
-9.2408686 4.4548874 -0.88744122
-9.2339392 4.5215821 -0.88942581
-9.2024527 4.5763807 -0.88908064
-9.1919861 4.6417418 -0.89080638
-9.1952467 4.7144194 -0.89391267
-9.2306585 4.8043303 -0.90021163
-9.1869116 4.8534317 -0.89883101
-9.1595926 4.9111228 -0.89908987
-9.1056585 4.9543757 -0.89676017
-9.0855532 5.0159321 -0.89779556
-9.0789433 5.0852184 -0.90021163
-9.0397739 5.1363997 -0.89943504
-9.0883617 5.2380385 -0.90745968
-9.015626 5.2700739 -0.90340418
-8.8717108 5.2592454 -0.892187
-9.0515022 5.5170584 -0.91703743
-8.9670773 5.6176686 -0.915398
-8.9719658 5.6976867 -0.91945344
-8.9066792 5.7332172 -0.91634715
-8.8563147 5.7779608 -0.91479403
-8.9669561 5.9289045 -0.9299804
-8.9246149 5.9799314 -0.92937642
-8.9050627 6.0463314 -0.9311884
-8.8940601 6.1189289 -0.93394959
-8.8579826 6.1745262 -0.93412215
-8.8199291 6.2287612 -0.93412215
-8.8018007 6.297255 -0.9362793
-8.766222 6.3534822 -0.93662447
-8.7326946 6.4112782 -0.93722844
-8.7123775 6.4790092 -0.93929935
-8.6859865 6.5425353 -0.94076622
-8.6702337 6.6144414 -0.94344109
-8.6523476 6.6851821 -0.94594336
-8.6260729 6.7498116 -0.94758284
-8.588398 6.805707 -0.94801426
-8.542592 6.8551579 -0.94758284
-8.4872255 6.8967643 -0.94611597
-8.4485941 6.9518762 -0.94654739
-8.4279757 7.0220799 -0.94904971
-8.3809233 7.0704484 -0.94861823
-8.3298063 7.1152687 -0.9477554
-8.2799635 7.1610317 -0.94706511
-8.2358675 7.2117019 -0.94706511
-8.1974268 7.2673879 -0.9477554
-8.1638012 7.3275318 -0.94904971
-8.1275349 7.3855262 -0.9500851
-8.0879307 7.4406533 -0.95077544
-8.0406647 7.4887815 -0.95060283
-8.0010872 7.5441284 -0.95137942
-7.9654565 7.6033988 -0.95267373
-7.9122052 7.6458998 -0.95189714
-7.8736873 7.7026653 -0.9529326
-7.8404336 7.764853 -0.95465833
-7.8060093 7.8262172 -0.95629776
-7.7599392 7.8760958 -0.95655662
-7.7024336 7.9142804 -0.95543486
-7.6544175 7.9621105 -0.95552117
-7.6218834 8.0262661 -0.95759201
-7.5833964 8.0845089 -0.95897263
-7.5343256 8.1316175 -0.95905888
-7.4869795 8.1806345 -0.95940405
-7.4186044 8.2064648 -0.95707434
-7.3601489 8.2429123 -0.95603889
-7.3153634 8.2946434 -0.95681548
-7.2702203 8.3461342 -0.95759201
-7.2396641 8.4147539 -0.9603532
-7.210474 8.48559 -0.96337324
-7.1800461 8.5556202 -0.96630698
-7.1337724 8.6071854 -0.96716982
-7.0751462 8.643857 -0.96639323
-7.0132074 8.676259 -0.96518523
-6.9598393 8.7191286 -0.96518523
-6.9074421 8.7632332 -0.96535784
-6.8566008 8.8093824 -0.96578926
-6.8103104 8.861558 -0.96691096
-6.7690573 8.920639 -0.96880925
-6.7297249 8.9827366 -0.97105271
-6.6940312 9.050292 -0.97390014
-6.6395488 9.0928049 -0.97407275
-6.5801358 9.1285238 -0.97355503
-6.5188022 9.1614218 -0.97277844
-6.4659014 9.2061396 -0.97329617
-6.4115624 9.2489147 -0.97364128
-6.356379 9.2905483 -0.97390014
-6.2998109 9.3302011 -0.97398645
-6.2407866 9.3661928 -0.97372758
-6.1782732 9.3968172 -0.97295099
-6.1139922 9.4245195 -0.9719156
-6.0485311 9.4501095 -0.9707076
-5.9803262 9.4710388 -0.96906811
-5.9189401 9.5024815 -0.96855038
-5.8626089 9.542016 -0.96889555
-2.0628438 3.4038529 -0.34366453
-1.9984789 3.3437541 -0.33633021
-1.9136873 3.2469468 -0.32537183
-1.8641974 3.2078047 -0.32028094
-1.8187271 3.1742306 -0.31579405
-1.7742305 3.1410887 -0.31139344
-1.7263329 3.1005578 -0.30630255
-1.6890647 3.0779016 -0.30302367
-1.6474016 3.0461423 -0.29888192
-1.6127514 3.0262988 -0.29594818
-1.5719241 2.9937963 -0.29180643
-1.5370493 2.9715278 -0.28870013
-1.5016031 2.9471693 -0.28542125
-1.4647272 2.9189274 -0.2817972
-1.4313442 2.8965976 -0.27877718
-1.4052639 2.8883035 -0.27713776
-1.3746061 2.8699152 -0.27454916
-1.3493248 2.8620744 -0.27299601
-1.3254495 2.8567433 -0.27170169
-1.3004495 2.8485086 -0.27014855
-1.2792739 2.8482547 -0.26937199
-1.2545277 2.8396466 -0.26781881
-1.2291416 2.8290153 -0.26609311
-1.2066728 2.8245931 -0.26497138
-1.1843048 2.8200023 -0.26384965
-1.1605185 2.8115602 -0.26238278
-1.1413733 2.8140121 -0.26195136
-1.1226104 2.8172603 -0.26160619
-1.1085702 2.8324451 -0.26238278
-1.0850952 2.8233843 -0.26091591
-1.0726734 2.8430393 -0.26212391
-1.0635102 2.8719909 -0.26419479
-1.0445073 2.8747165 -0.26384965
-1.0245079 2.8745022 -0.26324564
-1.0078369 2.8835559 -0.26350451
-0.98947901 2.8878007 -0.26333192
-0.9720583 2.894762 -0.26341823
-0.95490062 2.9025648 -0.26359078
-0.93798918 2.9112141 -0.26384965
-0.92190641 2.9226155 -0.26436737
-0.90571904 2.9339292 -0.26488507
-0.88769966 2.9394312 -0.26488507
-0.86569768 2.9314456 -0.26367706
-0.84631324 2.9319165 -0.26324564
-0.81776398 2.8996575 -0.25988048
-0.8163529 2.9641733 -0.26523024
-0.80875057 3.008574 -0.26876798
-0.78825384 3.0057702 -0.26807767
-0.76831561 3.0047588 -0.26755995
-0.75227231 3.019084 -0.26842281
-0.73561233 3.0313883 -0.26911312
-0.72111887 3.053298 -0.27066627
-0.70415431 3.0654333 -0.27135655
-0.68815303 3.0823367 -0.27247828
-0.67154855 3.0972114 -0.27342743
-0.6554026 3.1149228 -0.27463543
-0.63906449 3.1325521 -0.27584344
-0.62427229 3.1588941 -0.27782804
-0.60899359 3.1841934 -0.27972633
-0.59578174 3.2221589 -0.28274637
-0.58020103 3.2492924 -0.28481722
-0.560929 3.2567184 -0.28516239
-0.54631472 3.2925327 -0.28800982
-0.52500308 3.2889361 -0.28740582
-0.50934064 3.3216386 -0.28999442
-0.51416034 3.4962094 -0.30500823
-0.49214295 3.495352 -0.30466309
-0.46696874 3.4706597 -0.30224708
-0.44439718 3.4635775 -0.30138421
-0.24505094 2.0065677 -0.17402554
-0.22047377 1.9021399 -0.1647929
-0.21129401 1.9262347 -0.16677748
-0.20029032 1.9354229 -0.16746777
-0.18330456 1.8840606 -0.16289459
-0.17011602 1.8672909 -0.16134144
-0.16008627 1.8851756 -0.16280831
-0.14820372 1.8821496 -0.16246316
-0.13722815 1.8909729 -0.16315345
-0.12601809 1.8977437 -0.16367118
-0.11526816 1.9133984 -0.16496547
-0.10406241 1.9240178 -0.16582833
-0.092492782 1.9295958 -0.16625977
-0.08098302 1.9380902 -0.16695006
-0.069620021 1.9534853 -0.16824435
-0.11297607 3.8380067 -0.33149815
-0.09021116 3.8724918 -0.33443189
-0.033991523 1.9743583 -0.16997008
-0.021145057 1.9077837 -0.16418889
-0.009765354 1.975623 -0.17005636
0.0023111911 1.9407763 -0.16703634
0.013818711 1.8869286 -0.16237688
0.025464103 1.8917892 -0.16280831
0.036992833 1.8876129 -0.16246316
0.048445519 1.8823706 -0.16203174
0.059994612 1.8820381 -0.16203174
0.071541451 1.8816345 -0.16203174
0.082997426 1.8791695 -0.16185915
0.09462662 1.880615 -0.16203174
0.1056574 1.8710467 -0.16125515
0.11707354 1.8693689 -0.16116887
0.12847306 1.8676215 -0.16108258
0.13858743 1.8489153 -0.15952943
0.14920333 1.8390933 -0.15875284
0.39384171 4.5069318 -0.3907769
0.42585319 4.5510507 -0.39483234
0.45782706 4.5889974 -0.39837009
0.48954719 4.6197863 -0.40130383
0.52332896 4.6652083 -0.40553185
0.55686611 4.7034621 -0.40915588
0.59237117 4.7533422 -0.41381535
0.62579346 4.7822161 -0.41666281
0.66257054 4.8325734 -0.42140856
0.69970596 4.8806844 -0.42598173
0.73966867 4.9432993 -0.43184921
0.78595245 5.0410423 -0.44082299
0.81511378 5.0253072 -0.43987384
0.86712861 5.1459599 -0.4509185
0.91275966 5.2210159 -0.45799398
0.95241624 5.2574701 -0.46170428
0.98961598 5.2779655 -0.46403402
1.0280511 5.3030915 -0.46679518
1.07544 5.3709259 -0.47335294
1.1021245 5.333981 -0.47067806
1.1873602 5.5736403 -0.49250853
1.733951 7.9007268 -0.6995095
1.787007 7.9103465 -0.70132154
1.8348339 7.8963213 -0.70106268
1.8730655 7.842278 -0.69726604
1.9156891 7.808383 -0.69528151
1.9552907 7.7636347 -0.69234776
1.9941664 7.717731 -0.68932772
2.0261731 7.6475673 -0.68415052
2.026325 7.4628916 -0.66870528
2.0432446 7.3466558 -0.65938634
2.0740955 7.2841549 -0.65489948
2.1048143 7.2234674 -0.65058511
2.1345823 7.1617241 -0.64618456
2.1584442 7.0827351 -0.64023077
2.1663067 6.955215 -0.62987643
2.1711762 6.823123 -0.61909062
2.2006836 6.7717729 -0.61563915
2.252233 6.7884007 -0.61840034
2.304069 6.8046494 -0.62116152
2.3522851 6.809217 -0.62288719
2.398988 6.8087502 -0.62418151
2.4373519 6.7845263 -0.62331867
2.4823613 6.7787981 -0.62418151
2.5535178 6.8427773 -0.63151586
2.62626 6.9079971 -0.63902277
2.7553029 7.1156516 -0.65981776
2.8149924 7.1393914 -0.66361439
2.9726884 7.4058232 -0.69010431
3.1435525 7.6945567 -0.71883768
3.1880291 7.6686835 -0.71823364
3.2253208 7.626039 -0.71607649
3.2503974 7.5557709 -0.71133077
3.3641851 7.6899366 -0.72591317
3.4663765 7.7929463 -0.73764807
3.5108438 7.7642684 -0.73695779
3.4897673 7.5932169 -0.72272056
3.5434599 7.5870061 -0.72418743
3.6130121 7.6137247 -0.72884691
3.7089841 7.693718 -0.73868352
3.8555839 7.8739228 -0.7582705
3.981905 8.0071163 -0.77345693
4.0668888 8.0536776 -0.78035986
4.1175923 8.0312319 -0.78061873
4.1796732 8.0305595 -0.78303474
4.2176995 7.9836211 -0.78096384
4.2256479 7.8812046 -0.77345693
4.2586889 7.8271246 -0.77069575
4.2820768 7.7563658 -0.76629514
4.2989154 7.6751862 -0.76085913
4.3257484 7.6131496 -0.75732136
4.3589478 7.563159 -0.75499165
4.3896861 7.5096078 -0.75231677
4.416883 7.4508228 -0.74912417
4.4383922 7.38345 -0.74506873
4.4499078 7.3007827 -0.73946011
4.4768128 7.2445264 -0.73652637
4.5037255 7.1890602 -0.73367894
4.5354676 7.1419473 -0.73169434
4.5759683 7.1089578 -0.73117661
4.6102476 7.0665617 -0.72970974
4.6441789 7.024013 -0.72824287
0.81340313 1.2143176 -0.1255326
0.82419664 1.214249 -0.12605032
0.83332574 1.2116313 -0.12630917
0.83732611 1.2015916 -0.12579146
0.84123474 1.1915486 -0.12527373
0.8496896 1.1879849 -0.12544632
0.84994686 1.1730689 -0.12441088
0.85771823 1.1686347 -0.12449716
0.86903447 1.1689459 -0.12510116
0.87619054 1.1635915 -0.12510116
0.88996094 1.1669064 -0.12605032
0.89344943 1.1566936 -0.1255326
0.90605563 1.158251 -0.12630917
0.94965303 1.198738 -0.13140008
0.98255599 1.2247459 -0.13493781
0.98125613 1.2078696 -0.1337298
0.95699704 1.1633611 -0.12941548
1.0323563 1.2393647 -0.13864812
