# .PCD v0.7 - Point Cloud Data file format
VERSION 0.7
FIELDS x y z
SIZE 4 4 4
TYPE F F F
COUNT 1 1 1
WIDTH 1459
HEIGHT 1
VIEWPOINT 0 0 0 1 0 0 0
POINTS 1459
DATA ascii
-6.8772612 15.010971 -0.23038767
-6.6597085 14.774854 -0.2261292
-6.5101614 14.682896 -0.22410469
-6.3679905 14.603414 -0.22228961
-6.2207375 14.508039 -0.22025113
-6.076839 14.416019 -0.21828246
-5.9454045 14.349573 -0.21671869
-5.7799511 14.195935 -0.21385644
-5.6485462 14.120655 -0.21219495
-5.5676475 14.169938 -0.21241835
-5.4755583 14.190774 -0.21222287
-5.3805895 14.203532 -0.2119157
-5.301003 14.256899 -0.21222287
-5.198689 14.248766 -0.21162249
-5.0997062 14.248387 -0.21114779
-5.0250983 14.316206 -0.2116923
-4.9371614 14.346769 -0.2116923
-4.8560686 14.397638 -0.21199948
-4.7814388 14.468937 -0.21261381
-4.722127 14.58933 -0.21395418
-4.6515493 14.67808 -0.2148338
-4.5637684 14.713985 -0.2149455
-4.4646893 14.713006 -0.21452662
-4.3629494 14.70178 -0.21396814
-4.2556658 14.669696 -0.21311645
-4.148396 14.634925 -0.21223684
-4.0254407 14.54061 -0.21050552
-3.9324937 14.551522 -0.21031006
-3.8329365 14.536703 -0.20975156
-3.7337093 14.521212 -0.20919308
-3.6372473 14.51475 -0.20877421
-3.5604463 14.587307 -0.20950024
-3.4680998 14.597205 -0.2093327
-3.4009819 14.715632 -0.21072891
-3.3325405 14.833782 -0.21212514
-3.2619238 14.947735 -0.21346551
-3.1836109 15.031053 -0.21437305
-2.9508419 19.880234 -0.28047001
-2.5983627 22.169069 -0.31150794
-2.4934998 22.465841 -0.31545922
-2.0339615 19.410824 -0.27235797
-1.7513065 17.764141 -0.24908303
-1.6345483 17.690916 -0.2479102
-1.5291454 17.737473 -0.24842681
-1.4245086 17.799345 -0.2491668
-1.4703127 21.72117 -0.30382875
-1.3322175 21.651937 -0.30273968
-1.186792 21.433073 -0.29957026
-1.0724102 21.788498 -0.30444306
-0.77400428 20.961668 -0.29272881
-0.51023889 20.706694 -0.28905675
-0.37997717 20.536482 -0.2866413
-0.25953135 20.989349 -0.29293823
0.43225834 23.596739 -0.32937953
0.56769449 23.211796 -0.32404599
0.87324399 23.767645 -0.3319346
0.91969299 18.756636 -0.26205391
1.3949738 22.740032 -0.31795847
1.694111 25.09543 -0.35104883
1.8413752 24.993816 -0.34977826
2.0080714 25.149498 -0.35212392
1.967278 22.869301 -0.320346
2.3629117 25.625782 -0.35917482
2.5276444 25.687422 -0.36024991
2.6800103 25.621706 -0.35955179
2.1883149 18.700563 -0.26273805
2.2997155 18.659988 -0.26236105
2.8664083 22.138025 -0.31153587
2.9986942 22.094259 -0.31117284
3.0605502 21.556696 -0.30385667
3.1863101 21.493992 -0.30324233
3.3262281 21.526411 -0.30398232
3.7046473 23.03776 -0.32565162
3.6768329 22.002726 -0.31132641
3.8086946 21.962019 -0.31107512
3.6465392 19.595652 -0.27815229
3.6962214 19.206667 -0.27294439
3.3374434 16.786781 -0.23882082
3.6659098 17.864975 -0.25448638
3.7818756 17.872471 -0.25491923
3.893172 17.856745 -0.25503093
4.0017896 17.828619 -0.25497508
4.2449732 18.383415 -0.26328257
5.5099311 23.21064 -0.33293989
4.5619345 18.705881 -0.26868594
5.601016 22.369192 -0.32182598
4.8744969 18.972921 -0.27336326
4.9979544 18.969727 -0.27375421
5.1546636 19.088327 -0.27591833
5.2868862 19.111273 -0.27671418
5.3713498 18.963026 -0.27503872
7.0115862 22.620953 -0.33052441
7.1629333 22.61754 -0.33111084
7.3289666 22.657835 -0.33235347
7.4390054 22.525089 -0.33106896
7.6313739 22.640099 -0.33344251
7.5444574 21.936642 -0.32375276
7.7007618 21.952208 -0.32467428
7.7103677 21.555256 -0.31949431
7.511579 20.600084 -0.30600685
7.7315326 20.805733 -0.30976266
7.8597565 20.759771 -0.30979058
8.5953817 22.288742 -0.33340064
8.7297888 22.229998 -0.33331686
9.4971075 22.933935 -0.3464413
9.4070387 22.327885 -0.33814779
8.8191271 20.57868 -0.31245735
9.6435738 22.126436 -0.33686325
8.8712673 20.01823 -0.305574
10.053199 22.314568 -0.34158248
10.174525 22.218824 -0.34106588
10.508108 22.580236 -0.34760016
11.623443 22.075476 -0.34820056
11.794494 22.070763 -0.34926167
12.227505 21.901434 -0.35008544
11.967353 20.830711 -0.33528554
12.04158 20.665312 -0.33380553
10.614535 17.229883 -0.28241074
11.44884 18.083384 -0.29869065
14.370002 22.392048 -0.37134984
14.47823 22.259029 -0.37060985
11.505689 17.45384 -0.2917375
11.397609 17.06115 -0.28633413
13.604101 20.095932 -0.33869231
11.66098 16.999979 -0.28768846
11.735397 16.885414 -0.28696242
14.99584 21.296545 -0.36353102
12.058442 16.903746 -0.28976882
11.87964 16.438814 -0.28303906
11.989141 16.377714 -0.28324848
11.940015 15.89756 -0.27745417
12.070026 15.866971 -0.27820814
12.24527 15.893999 -0.27999529
12.698095 16.274212 -0.28806543
12.811972 16.214037 -0.28838655
12.886853 16.10467 -0.28784204
12.867707 15.880021 -0.28523111
17.151073 20.902481 -0.3773815
15.375427 18.50576 -0.33578816
15.451587 18.139854 -0.33256289
15.593292 18.080292 -0.33321914
15.68618 17.963938 -0.33284214
15.667624 17.722021 -0.3301335
14.734413 16.461802 -0.30832455
14.858254 16.195753 -0.30673286
16.197857 17.439878 -0.33218592
15.144243 16.106169 -0.308534
15.389628 16.167204 -0.31150794
15.498947 16.083269 -0.31171736
15.598038 15.988584 -0.31173134
15.530731 15.72539 -0.30845022
17.158018 16.139193 -0.32875124
17.653753 16.402493 -0.33631873
18.001873 16.31893 -0.33911118
14.900697 13.342083 -0.27911568
14.969549 13.239142 -0.27887833
15.067069 13.161513 -0.2791855
19.036627 16.221436 -0.3490662
26.161194 21.743845 -0.47483754
19.213047 15.574328 -0.34518471
19.286392 15.43865 -0.34479377
19.380758 15.320021 -0.34479377
19.879541 15.517045 -0.35197034
19.90785 15.343502 -0.3507975
19.970589 15.197446 -0.35025299
19.403151 14.578506 -0.33872023
23.967804 17.779051 -0.41653147
24.937834 17.33857 -0.42394537
25.111355 17.231617 -0.42509028
25.118921 17.011053 -0.42344275
25.186247 16.832161 -0.42282841
25.29406 16.680605 -0.42291218
25.360735 16.502188 -0.42232576
23.062628 14.607157 -0.38102564
23.176414 14.480737 -0.38143054
24.958702 15.17166 -0.40767944
25.03846 15.010519 -0.40747002
29.600557 16.532856 -0.47325981
34.878483 18.64686 -0.55209029
38.927265 20.505281 -0.61419404
38.898811 20.186363 -0.61177862
40.434883 20.669569 -0.63393658
36.421429 18.33699 -0.56922185
40.982811 20.006889 -0.63664526
35.390415 16.477226 -0.54494166
38.84523 17.796513 -0.59646207
39.236275 16.823265 -0.59594548
39.486187 16.644341 -0.59817946
35.447521 14.179358 -0.53293419
43.120365 16.334394 -0.64369613
43.233841 16.074732 -0.64390558
43.01833 15.39641 -0.63783205
38.942444 12.340648 -0.57025504
39.325905 12.197143 -0.57476485
40.373093 12.250884 -0.5889644
41.088799 12.193232 -0.59830511
1.8864307 0.53492695 -0.027210014
1.9118418 0.52947754 -0.027531145
1.8909225 0.51121557 -0.027182089
1.8891895 0.49832883 -0.027112279
1.8922116 0.4867276 -0.027112279
1.8864332 0.47292072 -0.026986619
1.885414 0.46038857 -0.02693077
1.8882033 0.4488112 -0.02693077
1.8977412 0.43879294 -0.027028507
1.9062514 0.42845532 -0.027112279
1.9215444 0.41952196 -0.027293788
1.9270171 0.40834519 -0.027335674
1.9578906 0.40234733 -0.027740577
1.9936653 0.39696151 -0.028215291
1.999009 0.38528851 -0.028257178
2.0327914 0.37887487 -0.028703967
2.0399983 0.36728007 -0.028773779
2.0441837 0.35509804 -0.028801704
2.0492828 0.34304342 -0.028843589
2.0375283 0.32823789 -0.028648119
2.0335751 0.31481248 -0.028564345
2.0315123 0.30174157 -0.028508497
2.0254059 0.28814495 -0.0283968
2.0301082 0.27611583 -0.028438685
2.034739 0.26403981 -0.028480573
2.0392978 0.25191736 -0.02852246
2.0437844 0.23974888 -0.028564345
2.0481985 0.22753483 -0.028606232
2.0505507 0.21506722 -0.028620195
2.0448661 0.20179461 -0.02852246
2.040092 0.18869187 -0.028438685
18.191744 1.5683023 -0.25479355
18.445217 1.4761907 -0.25821429
18.841835 1.3916306 -0.26364559
19.086456 1.2919952 -0.26695463
19.280651 1.1863396 -0.26956555
19.829685 1.0980259 -0.27714702
20.01182 0.98498201 -0.27960435
20.458036 0.88114321 -0.28576168
23.629591 0.87248826 -0.33000782
23.580532 0.72582269 -0.32925388
23.676504 0.58338672 -0.33053839
23.740622 0.4392271 -0.33139008
23.889845 0.29536489 -0.33344251
23.976196 0.14930247 -0.3346293
20.634483 -0.038126361 -0.68771785
20.875719 -0.16665979 -0.69578362
20.84832 -0.29438159 -0.69491708
20.824137 -0.42185426 -0.69418383
20.827154 -0.54977888 -0.6943838
20.78443 -0.67629516 -0.69308394
20.736946 -0.80215341 -0.69165075
20.641773 -0.92535233 -0.68865108
20.420107 -1.0410062 -0.68145192
20.239714 -1.1563679 -0.67565256
20.10257 -1.2723318 -0.67131966
20.035559 -1.3915713 -0.66935325
19.979801 -1.5109402 -0.66778678
2.6157482 -0.21452735 -0.087118186
2.5964618 -0.2289972 -0.08651825
2.6009781 -0.24548647 -0.086718224
2.6053896 -0.26203978 -0.086918205
2.6096954 -0.27865642 -0.087118186
2.6099231 -0.2948879 -0.087184839
2.6100495 -0.31113264 -0.087251499
2.6130497 -0.32776245 -0.087418146
2.614953 -0.34431055 -0.087551467
2.6187317 -0.36116698 -0.087751448
2.6214128 -0.37794027 -0.087918095
2.6101491 -0.39268187 -0.087618127
2.6175649 -0.41023511 -0.087951422
2.6031609 -0.42436174 -0.087551467
2.5689735 -0.43499488 -0.086484917
2.5731468 -0.45195818 -0.086718224
2.5634418 -0.46648735 -0.086484917
2.5575845 -0.48165339 -0.08638493
2.555562 -0.49752811 -0.086418264
2.5583405 -0.51437998 -0.086618237
2.5580723 -0.53067625 -0.086718224
2.5567226 -0.54677987 -0.086784884
2.5523434 -0.56224257 -0.086751558
2.5079057 -0.56862134 -0.085351713
17.805054 -4.1479225 -0.60925996
17.745247 -4.24895 -0.60809338
17.643141 -4.3391376 -0.60549372
17.588081 -4.4402189 -0.60452712
17.520838 -4.5377812 -0.60316062
17.462719 -4.6372509 -0.60212743
17.403076 -4.7359161 -0.60106087
17.339994 -4.8332186 -0.59989434
17.298477 -4.9362335 -0.59949434
17.214138 -5.0265961 -0.59762788
17.170523 -5.1284075 -0.59719461
17.087114 -5.217907 -0.59539485
17.008026 -5.3080654 -0.59376168
16.9161 -5.3935027 -0.59169525
16.813311 -5.4746099 -0.58926219
16.754744 -5.5694757 -0.5883956
16.703218 -5.6663971 -0.58779567
16.479237 -5.7034106 -0.58112973
16.449587 -5.8064137 -0.5813297
16.354403 -5.8859172 -0.57922995
16.242916 -5.958621 -0.5765636
16.133026 -6.0308795 -0.57396388
16.064894 -6.1180191 -0.572864
15.970212 -6.1944318 -0.57083088
15.893789 -6.2772555 -0.56946439
15.816955 -6.3593755 -0.56809789
15.755436 -6.4472232 -0.56729794
15.671291 -6.5253363 -0.56569815
15.518682 -6.5738149 -0.56163192
15.419309 -6.6436038 -0.55949885
15.364522 -6.7320733 -0.55899888
15.315623 -6.8229685 -0.55873227
15.208827 -6.8875437 -0.55636585
15.081844 -6.941874 -0.55326617
14.99732 -7.0148067 -0.55173302
14.92872 -7.0946856 -0.55079979
14.843504 -7.1661668 -0.54926664
14.729259 -7.2227893 -0.54666692
14.64351 -7.2925372 -0.54513377
14.561918 -7.3637609 -0.54376727
14.349306 -7.3671608 -0.53750128
14.303832 -7.4550676 -0.53750128
14.226014 -7.5258703 -0.53630143
14.139942 -7.5917449 -0.5348016
14.052723 -7.6563687 -0.53326839
13.959995 -7.7173085 -0.53153527
13.823463 -7.7529559 -0.52813566
13.634902 -7.7575684 -0.52273625
13.529046 -7.8076167 -0.52050316
13.430856 -7.8612018 -0.51857007
13.339394 -7.9179592 -0.51690358
13.211779 -7.9522448 -0.51383728
13.037323 -7.9566302 -0.50893778
12.932162 -8.00177 -0.50673807
12.834559 -8.0507002 -0.50483823
12.71829 -8.086937 -0.50220519
12.647429 -8.151288 -0.50137198
12.584622 -8.22054 -0.50087202
12.461439 -8.249608 -0.49797237
12.347507 -8.2835999 -0.49543929
12.253466 -8.3299904 -0.49370617
12.118167 -8.3471947 -0.49030656
11.992137 -8.3693457 -0.48727354
11.899754 -8.4139214 -0.48560706
11.796714 -8.4501152 -0.48350731
11.720374 -8.5047302 -0.48250741
11.644615 -8.5593204 -0.48154086
11.565421 -8.6109142 -0.48044097
11.46369 -8.6450109 -0.47840786
11.312731 -8.6405735 -0.47430834
11.229459 -8.6865883 -0.4730418
11.157852 -8.7411518 -0.47227523
11.085999 -8.7951641 -0.47150865
11.001436 -8.8386106 -0.47020879
10.915983 -8.8807192 -0.46887559
10.838144 -8.9284678 -0.46787572
10.737873 -8.9570322 -0.46590927
10.643005 -8.9892168 -0.46417612
10.56714 -9.0368147 -0.46327624
10.500914 -9.0923243 -0.46280962
10.41336 -9.1289158 -0.46140978
10.323512 -9.1627855 -0.45990995
10.245536 -9.2065859 -0.45894337
10.162237 -9.2450666 -0.4577435
10.076647 -9.2808428 -0.45644367
10.002698 -9.3268213 -0.45567706
9.9263849 -9.3701839 -0.4548105
9.8412447 -9.4046764 -0.45354399
9.7546196 -9.437089 -0.45221078
9.6765375 -9.4771843 -0.45127755
9.6118164 -9.5300474 -0.45097759
9.5298805 -9.5654812 -0.44987771
9.4520807 -9.6045427 -0.44897783
9.3407183 -9.608614 -0.4464781
9.2628937 -9.6462831 -0.44557819
9.1849585 -9.6833601 -0.44467831
9.0679665 -9.6782742 -0.44187862
8.99687 -9.7212629 -0.44131202
8.9053555 -9.7416153 -0.43974552
8.8259888 -9.7745628 -0.43877897
8.7033119 -9.7584238 -0.43564597
8.5996656 -9.7621479 -0.43344623
8.5074568 -9.7777863 -0.43181306
8.4368782 -9.8176756 -0.43127981
8.3525496 -9.8410664 -0.43004659
8.2618303 -9.8561335 -0.42848012
8.1584949 -9.8550625 -0.42624703
8.0738316 -9.875535 -0.42498049
7.9867134 -9.89223 -0.42358065
7.9009418 -9.9097919 -0.42224747
7.8115463 -9.9219637 -0.42071432
7.7223005 -9.9334126 -0.41918114
7.635643 -9.9473114 -0.41778129
7.540051 -9.948576 -0.41588151
7.4447331 -9.9490433 -0.41398174
7.3692927 -9.9752436 -0.41318181
7.2867441 -9.9912043 -0.41198194
7.2001901 -10.000851 -0.41054878
7.1010551 -9.9918909 -0.40838236
7.0063195 -9.9878197 -0.40644923
6.9227138 -9.9985762 -0.40514937
6.8465719 -10.019411 -0.40428281
6.7749052 -10.046317 -0.40368286
6.6660662 -10.016976 -0.40084985
6.5764971 -10.015085 -0.39915004
6.5018778 -10.035119 -0.39835012
6.4164944 -10.037774 -0.39688364
6.3297238 -10.037225 -0.39531714
6.2310596 -10.016471 -0.39298406
6.151186 -10.024702 -0.39181754
6.0802445 -10.046865 -0.39121759
6.0041409 -10.059956 -0.39028436
5.9291196 -10.074212 -0.3894178
5.8320751 -10.049895 -0.38708472
5.7484593 -10.047321 -0.38561821
5.6488919 -10.015376 -0.38305184
5.5829616 -10.041987 -0.38275188
5.5197988 -10.073425 -0.3826519
5.4479117 -10.088637 -0.38195196
5.391541 -10.132463 -0.38235191
5.3325162 -10.17155 -0.38258523
5.2681699 -10.200526 -0.38245192
5.1384058 -10.100823 -0.37751913
5.0539446 -10.087485 -0.37585264
5.007875 -10.150572 -0.37705252
4.9586 -10.208077 -0.37805238
4.8885403 -10.222983 -0.37748578
4.8048635 -10.208477 -0.37585264
4.7135668 -10.176101 -0.37358624
4.6431623 -10.187552 -0.37295297
4.580565 -10.21585 -0.37295297
4.5097284 -10.225475 -0.37228638
4.4115028 -10.17135 -0.36932003
4.3274436 -10.147665 -0.36748692
4.2457743 -10.127941 -0.36582044
4.1686997 -10.117764 -0.36452058
4.0862837 -10.093127 -0.36272079
4.0131936 -10.090151 -0.36172089
3.9395671 -10.084796 -0.36065432
3.8998098 -10.166633 -0.36272079
3.8102305 -10.118351 -0.36015439
3.7411432 -10.122791 -0.3594878
3.6660113 -10.109853 -0.35822126
3.5935247 -10.102965 -0.35718805
3.5202734 -10.092741 -0.35605484
3.4336998 -10.04228 -0.35352179
3.3589952 -10.024306 -0.3521553
3.283082 -10.001047 -0.35062212
3.2118645 -9.9905567 -0.34955558
3.144501 -9.9910107 -0.34888899
3.0837266 -10.012027 -0.34895563
3.0239663 -10.036501 -0.34915563
2.9691067 -10.077876 -0.34995553
2.9124699 -10.114152 -0.3505888
2.8452122 -10.113552 -0.34995553
2.7759531 -10.104799 -0.34905562
2.7118275 -10.113919 -0.34878901
2.6459243 -10.115865 -0.34828904
2.5684886 -10.071867 -0.34622261
2.5032654 -10.073857 -0.34575599
2.4374089 -10.072515 -0.34518939
2.3679969 -10.055178 -0.34408951
2.2823737 -9.9652777 -0.34052324
2.2170579 -9.9605589 -0.33988997
2.1533647 -9.9622526 -0.33949003
2.1030736 -10.02712 -0.3412565
2.0440986 -10.052567 -0.3416898
1.9928116 -10.117873 -0.34348959
1.9331253 -10.142673 -0.34392288
1.8541884 -10.063917 -0.34085655
1.7997576 -10.116432 -0.3422564
1.7376504 -10.127285 -0.3422564
1.6714021 -10.113104 -0.34142315
1.6066492 -10.10639 -0.34085655
1.5443054 -10.114082 -0.34078988
1.4864184 -10.152046 -0.34175643
1.4304825 -10.206503 -0.34328961
1.3702184 -10.23292 -0.34388953
1.3214601 -10.351179 -0.34758914
1.2579216 -10.359092 -0.34758914
1.1849508 -10.2852 -0.34485611
1.1203027 -10.278368 -0.3443895
1.0576237 -10.289025 -0.3445228
0.99610621 -10.312232 -0.34508941
0.93299288 -10.320142 -0.34515607
0.85638952 -10.168318 -0.33988997
0.79701704 -10.21224 -0.34118983
0.73469943 -10.221923 -0.34135649
0.67032522 -10.201307 -0.34052324
0.60432845 -10.14836 -0.33862346
0.54044741 -10.121937 -0.33762357
0.47875521 -10.134048 -0.33792353
0.41779789 -10.166753 -0.33892342
0.35530308 -10.166127 -0.33882344
0.29326433 -10.180104 -0.33922338
0.23065858 -10.175717 -0.33902341
0.16800167 -10.163951 -0.33859015
0.10546647 -10.1488 -0.33805686
0.043089006 -10.125269 -0.33725694
-0.019024765 -10.117348 -0.3369903
-0.081071496 -10.113043 -0.33685699
-0.14333363 -10.127345 -0.33735693
-0.20571367 -10.138265 -0.3377569
-0.26804876 -10.141809 -0.33792353
-0.33007783 -10.133979 -0.33772355
-0.39232975 -10.13376 -0.33779022
-0.45360741 -10.111194 -0.33712363
-0.51518232 -10.099236 -0.33682367
-0.577995 -10.110852 -0.33732361
-0.64380902 -10.166964 -0.33932337
-0.71746266 -10.325339 -0.34475613
-0.78539962 -10.381536 -0.34678921
-0.84411639 -10.315757 -0.34475613
-0.90091753 -10.236709 -0.34228972
-0.96174484 -10.210093 -0.34158981
-1.0268689 -10.228861 -0.34242305
-1.0832605 -10.162737 -0.34042326
-1.1398875 -10.105249 -0.33872345
-1.2071831 -10.142725 -0.34022328
-1.2753539 -10.182729 -0.3418231
-1.3473164 -10.247048 -0.34425616
-1.4113926 -10.247499 -0.34455612
-1.4709687 -10.215894 -0.34378955
-1.5270932 -10.163189 -0.34232306
-1.5857164 -10.129929 -0.34152314
-1.6452737 -10.104225 -0.34098986
-1.7052417 -10.082114 -0.34058991
-1.7636192 -10.051773 -0.33992332
-1.8224034 -10.025028 -0.33939004
-1.8859135 -10.024462 -0.33975667
-1.9496758 -10.024474 -0.34015661
-2.0121319 -10.017222 -0.34032327
-2.0676782 -9.9763069 -0.33935672
-2.1063054 -9.857873 -0.33575711
-2.1575177 -9.8027906 -0.33432394
-2.2138731 -9.7727976 -0.33375734
-2.2681279 -9.7346945 -0.3329241
-2.2784848 -9.514535 -0.32585821
-2.3361061 -9.4974642 -0.32575822
-2.3962944 -9.4907026 -0.32602486
-2.456738 -9.4845285 -0.32632482
-2.5156572 -9.4721737 -0.32642484
-2.5676949 -9.4343786 -0.32565823
-2.6217782 -9.4049683 -0.32519162
-2.6813562 -9.3954315 -0.32542494
-2.7473583 -9.4075842 -0.32642484
-2.8144679 -9.4221516 -0.32752469
-2.8792329 -9.4276466 -0.32832462
-2.9405985 -9.4212513 -0.32872456
-2.9995649 -9.4068394 -0.3288579
-3.05599 -9.3844566 -0.32872456
-3.1062641 -9.3437147 -0.32795799
-3.1635375 -9.3244781 -0.32795799
-3.210233 -9.2746687 -0.32689145
-3.268744 -9.2595081 -0.32705808
-3.3244827 -9.2364559 -0.32695809
-3.3859122 -9.2290201 -0.32742471
-3.4424767 -9.2080708 -0.32742471
-3.4857519 -9.152216 -0.32619151
-3.5393136 -9.1241331 -0.32595822
-3.5970671 -9.1068916 -0.32612485
-3.657352 -9.0957775 -0.32652482
-3.7217987 -9.0944405 -0.3272914
-3.7863665 -9.0926542 -0.32805797
-3.843256 -9.072011 -0.32815796
-3.8968713 -9.0436687 -0.32799131
-3.9458716 -9.004941 -0.32745805
-4.0108109 -9.0024719 -0.32825795
-4.0869989 -9.0241251 -0.32995775
-4.1493969 -9.0143118 -0.33052436
-4.2126741 -9.0058832 -0.33115762
-4.2862992 -9.0186815 -0.33259079
-4.3558941 -9.0219135 -0.33369067
-4.4234896 -9.0201435 -0.3346239
-4.4872174 -9.0098305 -0.33525717
-4.5460243 -8.9892626 -0.33552381
-4.5947056 -8.9487514 -0.3350572
-4.6439848 -8.9097548 -0.33465725
-4.6938934 -8.8722572 -0.33432394
-4.7543898 -8.8547373 -0.33475724
-4.8311038 -8.8666477 -0.33632371
-4.906692 -8.8753252 -0.33779022
-4.969368 -8.85987 -0.33835682
-5.0216613 -8.825737 -0.33822352
-5.078218 -8.7990866 -0.33839014
-5.1432185 -8.7867393 -0.3391234
-5.1975465 -8.7558746 -0.33915675
-5.2455044 -8.7143993 -0.33879012
-5.2910671 -8.6692514 -0.33829015
-5.3299632 -8.6136751 -0.33739027
-5.3667836 -8.5554085 -0.33639038
-5.4164963 -8.5181007 -0.33622372
-5.4572911 -8.467063 -0.33552381
-5.4927454 -8.4083147 -0.33452392
-5.5409245 -8.3694534 -0.33432394
-5.5888333 -8.3303175 -0.33412397
-5.6330996 -8.2859497 -0.33372402
-5.6861033 -8.2545223 -0.33385733
-5.7435083 -8.2293119 -0.33425727
-5.799087 -8.2012606 -0.33455724
-5.8452263 -8.1598358 -0.33432394
-5.9069228 -8.1399956 -0.33499053
-5.967412 -8.1180944 -0.33559048
-6.027257 -8.0949545 -0.33615708
-6.0930605 -8.0793657 -0.33705696
-6.1758833 -8.0855131 -0.33889011
-6.2620678 -8.0949001 -0.34088987
-6.3116188 -8.056324 -0.34088987
-6.3814301 -8.0432844 -0.34198976
-6.4544487 -8.0335855 -0.34325626
-6.5206485 -8.0147638 -0.34415618
-6.6078305 -8.0208893 -0.34615594
-6.682528 -8.0108938 -0.34748915
-6.7438083 -7.9842472 -0.34812242
-6.8050132 -7.95715 -0.34875566
-6.9086604 -7.9787164 -0.35155535
-7.0108504 -7.9970527 -0.35425505
-7.0982647 -7.9972405 -0.35618818
-7.20398 -8.0167274 -0.35902119
-7.2725372 -7.9938135 -0.35998774
-7.3559794 -7.9865336 -0.36168757
-7.4893579 -8.0318937 -0.36582044
-7.5714288 -8.0206757 -0.36742026
-7.6481185 -8.0029707 -0.36875343
-7.7589254 -8.019824 -0.37171978
-7.8275681 -7.9920597 -0.37265301
-7.9517498 -8.019825 -0.37621927
-8.0383329 -8.0082703 -0.37798575
-8.1207981 -7.9917479 -0.37955225
-8.2004957 -7.9717269 -0.38098541
-8.2766476 -7.9475656 -0.38225192
-8.4224195 -7.988802 -0.38671809
-8.495347 -7.9595246 -0.38781798
-8.5762978 -7.9371195 -0.38928449
-8.6587696 -7.9153681 -0.39081764
-8.7286854 -7.881515 -0.39178419
-8.7917976 -7.841114 -0.39245078
-8.849493 -7.7956104 -0.39288408
-8.9129934 -7.7549415 -0.39358401
-9.0127087 -7.7450552 -0.39588374
-9.1050167 -7.7277684 -0.39785019
-9.1714096 -7.6878071 -0.39868343
-9.2368851 -7.6466846 -0.39948335
-9.2975578 -7.6012521 -0.40008327
-9.3650179 -7.5610123 -0.40098318
-9.4260826 -7.5152469 -0.40161642
-9.5042133 -7.4826174 -0.40298295
-9.6146469 -7.4744635 -0.40571597
-9.7039299 -7.4488015 -0.40754911
-9.7844982 -7.4156833 -0.40901563
-9.8594227 -7.3776641 -0.41024882
-9.9350519 -7.3395972 -0.41151533
-10.046112 -7.3267937 -0.41424835
-10.131433 -7.2942142 -0.41591483
-10.241984 -7.2788119 -0.41861454
-10.337998 -7.2519927 -0.42071432
-10.415168 -7.2111831 -0.4220475
-10.519456 -7.1883073 -0.42448056
-10.585736 -7.1387138 -0.42538044
-10.636827 -7.0786109 -0.42568043
-10.684238 -7.0159545 -0.42584705
-10.717859 -6.9442863 -0.42548046
-10.745952 -6.8692408 -0.42491382
-10.787054 -6.8026419 -0.4248805
-10.845563 -6.7468853 -0.42554709
-10.891868 -6.6833472 -0.42574707
-10.914716 -6.6055226 -0.42504716
-10.967055 -6.545599 -0.42551377
-11.034574 -6.4944067 -0.42658031
-11.070758 -6.4245706 -0.426447
-11.095222 -6.3480821 -0.4258804
-11.130483 -6.2779198 -0.42574707
-11.174909 -6.2129059 -0.42598039
-11.183897 -6.1283703 -0.4248805
-11.201942 -6.0491829 -0.42414725
-11.22385 -5.9723535 -0.42358065
-11.250547 -5.8982673 -0.42321402
-11.297182 -5.8346281 -0.423614
-11.341679 -5.7697325 -0.42394727
-11.350061 -5.6866002 -0.42294738
-11.381155 -5.6150818 -0.42281407
-11.409101 -5.5420852 -0.42258078
-11.4474 -5.4741321 -0.4227474
-11.481677 -5.4042153 -0.42278075
-11.511901 -5.3324027 -0.42268077
-11.552588 -5.2653975 -0.42298073
-11.608389 -5.2050462 -0.42384729
-11.657482 -5.1413841 -0.42448056
-11.699812 -5.0745311 -0.4248805
-11.732567 -5.0034308 -0.42494717
-11.769498 -4.9340525 -0.42518046
-11.829122 -4.8739285 -0.42624703
-11.888449 -4.8132582 -0.42731357
-11.936332 -4.7476101 -0.42798015
-11.982925 -4.6811914 -0.42861342
-12.017955 -4.6100836 -0.42884675
-12.088104 -4.5521083 -0.43034658
-12.110184 -4.4757719 -0.43014657
-12.132721 -4.3996773 -0.42997995
-12.140656 -4.3184495 -0.42931336
-12.188629 -4.2514467 -0.43007994
-12.22678 -4.1807828 -0.4305132
-12.258836 -4.1079049 -0.43074653
-12.290457 -4.0347915 -0.43097982
-14.500495 -4.6620722 -0.50753796
-14.526921 -4.5724111 -0.50747132
-14.569031 -4.4876032 -0.50797123
-14.577153 -4.3923573 -0.50730467
-14.650805 -4.3166733 -0.50893778
-14.693343 -4.2313991 -0.50950438
-14.791185 -4.1614676 -0.51200414
-14.8627 -4.083343 -0.51360393
-14.969528 -4.0140762 -0.51643693
-15.041255 -3.934545 -0.5180701
-15.103851 -3.8520608 -0.51940328
-15.16309 -3.7682331 -0.5206365
-15.243238 -3.6889954 -0.52260292
-15.303527 -3.6043327 -0.52390277
-15.389651 -3.5250947 -0.52610254
-15.451964 -3.4397218 -0.52750242
-15.500132 -3.3507597 -0.52843565
-15.558548 -3.2635934 -0.52973551
-15.644878 -3.181613 -0.53200191
-15.742554 -3.1010141 -0.53466827
-15.795646 -3.0109124 -0.53583479
-15.861002 -2.9226308 -0.53743464
-15.921931 -2.8329599 -0.53890115
-15.976446 -2.7416363 -0.54016763
-16.003813 -2.6453485 -0.54053426
-16.017771 -2.546787 -0.54046762
-16.038036 -2.4492106 -0.54063427
-16.077484 -2.3543785 -0.54146749
-16.113401 -2.2587376 -0.54220074
-16.12993 -2.1602232 -0.54230076
-16.134951 -2.0601981 -0.54203409
-16.143318 -1.960675 -0.54190081
-16.175896 -1.863988 -0.54260069
-16.244656 -1.7709842 -0.54453385
-16.265158 -1.6722982 -0.5448671
-16.284065 -1.5733309 -0.54516709
-16.288437 -1.4729339 -0.54500043
-16.259323 -1.3697726 -0.54373389
-16.228561 -1.266946 -0.54243404
-16.237026 -1.1674173 -0.54246742
-14.861641 -0.97685176 -0.49627253
-14.76659 -0.87963712 -0.49290624
-14.416413 -0.7700212 -0.48104092
-14.468787 -0.68381613 -0.48264074
-14.511657 -0.59662741 -0.4839406
-13.391356 -0.46823001 -0.44644478
-13.27909 -0.38273636 -0.44261187
-13.248216 -0.30050069 -0.44151199
-13.216833 -0.21865831 -0.4404121
-13.19394 -0.13730645 -0.43961221
-13.088594 -0.055889729 -0.43607926
-13.174643 0.024577534 -0.43894559
-13.185238 0.10550259 -0.43931222
-13.188339 0.18646 -0.43944556
-13.209929 0.26784348 -0.44021213
-13.213034 0.34902477 -0.44037879
-13.25959 0.43168297 -0.44201192
-13.35057 0.5166626 -0.44514492
-13.364121 0.59933084 -0.44571152
-13.341228 0.68035406 -0.44507825
-13.357756 0.76339799 -0.44577819
-13.278011 0.84061283 -0.44327846
-13.389258 0.93016785 -0.44717801
-13.465019 1.0184827 -0.44991106
-13.600961 1.1127303 -0.45467719
-15.355097 1.3510534 -0.5136373
-15.128604 1.4247323 -0.50633806
-15.086761 1.5142406 -0.50523823
-15.13085 1.6124995 -0.507038
-15.126632 1.7059822 -0.50723797
-14.90945 1.7742095 -0.50030541
-14.884398 1.8639207 -0.4998388
-14.794398 1.9449266 -0.49720576
-14.754462 2.0318503 -0.49627253
-14.76645 2.1259031 -0.49710578
-14.761034 2.2176559 -0.49737242
-14.76591 2.3111217 -0.49800569
-14.765263 2.4039283 -0.4984723
-16.046114 2.7135751 -0.54230076
-16.032114 2.812499 -0.54240072
-16.032253 2.9140337 -0.54300064
-16.490452 3.1019413 -0.55916554
-16.691851 3.2459843 -0.5666647
-17.149803 3.4443624 -0.58292955
-17.169449 3.558043 -0.58432937
-17.177593 3.6697977 -0.58536261
-17.336306 3.8150747 -0.59156191
-17.36326 3.9328554 -0.59329504
-17.372869 4.047256 -0.59446162
-17.386587 4.1630855 -0.5957948
-17.40439 4.2804284 -0.59729463
-17.421406 4.3981466 -0.59879446
-17.647583 4.5706029 -0.60752678
-17.62114 4.6793137 -0.60759348
-17.767612 4.8351035 -0.61365944
-17.868546 4.9805231 -0.61819226
-17.990463 5.1336689 -0.6234917
-18.007555 5.2582455 -0.62519151
-18.025705 5.3837957 -0.62695795
-18.075495 5.5196905 -0.62985766
-18.243549 5.6936121 -0.63692355
-18.387289 5.8625154 -0.64318949
-18.856556 6.1398311 -0.66092086
-20.906969 6.9495549 -0.73431265
-20.668013 7.0112505 -0.72741342
-20.529211 7.1049242 -0.72404712
-20.526697 7.2453909 -0.72551364
-20.426369 7.3512383 -0.72354722
-20.907272 7.6695151 -0.74224514
-20.90663 7.8151522 -0.74391156
-20.869492 7.9475536 -0.74431157
-20.869719 8.0946102 -0.74607801
-20.830812 8.2269173 -0.74647796
-20.781797 8.3553238 -0.7465446
-20.717188 8.4773827 -0.74607801
-20.54299 8.5536337 -0.74167848
-20.451466 8.6631498 -0.74027866
-20.240967 8.7208548 -0.73457932
-20.079052 8.7975607 -0.73064643
-20.033825 8.9246645 -0.73097968
-20.021477 9.0667982 -0.73254621
-20.046272 9.2266665 -0.73551255
-20.156765 9.427825 -0.74167848
-20.127424 9.565053 -0.74274504
-38.16407 18.423767 -1.412837
-26.519901 13.00399 -0.98458475
-26.436033 13.164686 -0.98445141
-26.356543 13.327549 -0.98451811
-30.366409 15.825961 -1.1415339
-30.343824 16.05171 -1.144367
-19.3503 10.388918 -0.73201293
-19.278292 10.50315 -0.73171294
-31.866722 18.65085 -1.2309239
-31.743948 18.84144 -1.230624
-21.56728 13.527928 -0.84859991
-19.421726 12.348917 -0.76710898
-29.005123 18.69285 -1.1503329
-29.099907 19.007652 -1.1586987
-19.11446 12.653563 -0.76404268
-23.410547 15.704786 -0.93968976
-23.331102 15.859934 -0.94038969
-22.810274 15.7114 -0.92325824
-22.749502 15.876231 -0.92472476
-22.850349 16.367208 -0.93692338
-22.414591 16.264112 -0.92312491
-25.650837 18.853561 -1.0612096
-19.059513 14.190038 -0.79200625
-19.004805 14.331389 -0.79337275
-19.011826 14.520524 -0.79737228
-18.981663 14.682767 -0.79987204
-20.812555 16.304012 -0.88126296
-20.863243 16.551287 -0.88769555
-20.89348 16.997166 -0.89779443
-20.732449 17.293253 -0.8999275
-10.324859 8.9398994 -0.45504382
-10.212689 8.9530144 -0.45251077
-10.135138 8.9956074 -0.45151088
-10.065625 9.0449343 -0.45087761
-9.9197397 9.024477 -0.44681141
-9.8237457 9.0479355 -0.44497827
-9.6956739 9.0405693 -0.44167864
-9.6138544 9.0751934 -0.44047877
-9.5413685 9.1181316 -0.4397122
-9.3961668 9.0903378 -0.4355793
-9.3159351 9.1240444 -0.4344461
-9.2320948 9.1535921 -0.43314624
-9.1482439 9.1824551 -0.43184641
-9.0468607 9.1928272 -0.42971331
-8.933156 9.1894026 -0.42698029
-8.8385277 9.2043953 -0.42514715
-8.7557459 9.2309008 -0.42388061
-8.6702394 9.2538204 -0.42248076
-8.5610209 9.2503672 -0.41991439
-8.4575682 9.2518263 -0.41761464
-8.3658094 9.2649755 -0.41588151
-8.297493 9.3034534 -0.41531491
-8.208539 9.3181944 -0.41371509
-8.1275911 9.3412428 -0.41251522
-8.0473204 9.3644075 -0.41134867
-7.9677205 9.3877029 -0.41021547
-7.8695168 9.3881626 -0.40811571
-7.7747965 9.3916216 -0.40618259
-7.6714745 9.3834419 -0.40378287
-7.5773373 9.3852358 -0.40184975
-7.5663404 9.4901609 -0.40434948
-7.4461384 9.4578838 -0.4010165
-7.3640413 9.4726229 -0.39971665
-7.2978673 9.5073223 -0.39928335
-7.2001519 9.5001507 -0.39711693
-7.1423235 9.5449514 -0.39715028
-7.0503635 9.543581 -0.39528382
-6.9846048 9.576972 -0.39488384
-6.8906698 9.5709839 -0.39288408
-6.835288 9.6179724 -0.39308405
-6.7640901 9.6425505 -0.39238414
-6.6962628 9.6715469 -0.39188418
-6.6351018 9.7099771 -0.39178419
-6.5686913 9.7405634 -0.39138424
-6.5093546 9.781517 -0.39141756
-6.4256225 9.7853508 -0.3899844
-6.3948083 9.8698854 -0.39178419
-6.3567381 9.9443045 -0.39318404
-6.3329225 10.042296 -0.39551711
-6.3503804 10.208257 -0.40051657
-6.3571501 10.360324 -0.4049494
-6.3814383 10.54449 -0.41061544
-6.4713211 10.842619 -0.42068097
-7.7218146 13.119807 -0.50727129
-7.6491947 13.180772 -0.50780457
-7.560729 13.214445 -0.50730467
-7.5256629 13.342415 -0.51043761
-7.4431682 13.387467 -0.51040429
-7.3700099 13.449538 -0.51103759
-7.2882962 13.496265 -0.51110423
-7.1964264 13.523969 -0.51047099
-7.1156297 13.572296 -0.51063758
-7.0450606 13.640564 -0.51157081
-6.9566989 13.674627 -0.51123756
-6.8623638 13.696505 -0.51047099
-6.7613893 13.704295 -0.50920445
-6.6566472 13.703272 -0.50763792
-6.5400987 13.676236 -0.50513822
-6.4492493 13.701639 -0.50460494
-6.3327069 13.671126 -0.5020386
-6.2333651 13.676077 -0.50080538
-6.1256132 13.661174 -0.49887225
-6.0223136 13.65461 -0.49727243
-5.8938704 13.588613 -0.49353951
-5.7598 13.50593 -0.48923999
-5.6702509 13.525347 -0.48867339
-5.5761113 13.533087 -0.48770684
-5.4858413 13.549445 -0.48707357
-5.3833904 13.53456 -0.48534042
-5.2940593 13.551512 -0.48477381
-5.1814528 13.507224 -0.48204079
-5.0385909 13.379761 -0.47637478
-4.9265985 13.329804 -0.47350842
-4.8024607 13.243278 -0.46937555
-4.7030215 13.221647 -0.46757576
-4.6023831 13.19458 -0.46560931
-4.5116339 13.194201 -0.46460941
-4.4156632 13.177096 -0.46304291
-4.3163319 13.147918 -0.46107647
-4.2095704 13.09328 -0.45824346
-4.1204495 13.091217 -0.45727688
-4.0341606 13.09715 -0.45661029
-3.9514153 13.114001 -0.45634365
-3.8745472 13.150463 -0.45677695
-3.7954443 13.179751 -0.45697692
-3.7117965 13.193171 -0.45664364
-3.6228304 13.186786 -0.45564374
-3.5356359 13.185598 -0.45484382
-3.4521344 13.197375 -0.45451054
-3.3698566 13.213468 -0.45434389
-3.4244473 13.779967 -0.47310847
-3.3816831 13.973628 -0.47904113
-3.2825875 13.937692 -0.477108
-3.1851766 13.905937 -0.47534156
-3.1082625 13.963266 -0.47664139
-3.0360448 14.044595 -0.47877449
-3.0230753 14.412158 -0.49067315
-2.9555047 14.533272 -0.49417278
-2.8674338 14.557017 -0.49437276
-2.7834878 14.602807 -0.4953393
-2.7552452 14.952811 -0.50663805
-2.7259622 15.320718 -0.51853675
-2.6329191 15.343066 -0.51873672
-2.5372591 15.350058 -0.51843673
-2.4516587 15.419625 -0.52026987
-2.3634892 15.476861 -0.52170306
-2.2654386 15.470305 -0.52100313
-2.1663082 15.45422 -0.52000326
-2.0662668 15.428589 -0.5187034
-1.9716862 15.441969 -0.51873672
-1.8758142 15.444846 -0.51843673
-1.7812401 15.458051 -0.51850343
-1.6866827 15.47167 -0.51860338
-1.5897757 15.462839 -0.51797014
-1.4901559 15.423555 -0.51633698
-1.3929693 15.40454 -0.51540375
-1.2921271 15.338102 -0.51290405
-1.1920749 15.270015 -0.51037097
-1.0990745 15.28701 -0.51070428
-1.0045329 15.282497 -0.51033765
-0.91014767 15.278397 -0.51000434
-0.81633073 15.282695 -0.50997102
-0.71994501 15.232509 -0.50813788
-0.63172746 15.36446 -0.51240408
-0.53478307 15.292134 -0.50987101
-0.43941352 15.24218 -0.50810456
-0.34526774 15.217611 -0.50720465
-0.25150639 15.196461 -0.50643808
-0.15791309 15.164737 -0.50533819
-0.065016448 15.2014 -0.50653809
0.028632741 15.407398 -0.51340395
0.12312254 15.400936 -0.51320398
0.21823809 15.443861 -0.51467049
0.31360206 15.472208 -0.51567036
0.40969092 15.513954 -0.51713687
0.50695324 15.575079 -0.51927
0.60586882 15.658562 -0.52216965
0.70699084 15.767374 -0.52593589
0.80438542 15.775715 -0.52636921
0.90401709 15.820373 -0.52803564
1.0037221 15.856421 -0.52943552
1.1034191 15.884861 -0.53060204
1.84934 24.456533 -0.81750339
1.9532775 22.202845 -0.74287838
1.9367068 20.567524 -0.68851775
2.3914096 23.829985 -0.79827219
2.2242417 18.692659 -0.6273579
2.3371577 18.664776 -0.62689131
2.4533315 18.662964 -0.62732458
2.9279156 21.26342 -0.71538144
3.0910769 21.472584 -0.72304726
3.216686 21.412691 -0.72168076
3.3480113 21.39255 -0.72168076
3.5016892 21.509708 -0.72634691
3.2524695 16.725206 -0.5677979
3.7127571 17.916166 -0.60975987
3.8155205 17.859816 -0.60862666
3.9265378 17.842901 -0.60886002
4.0443344 17.855513 -0.6101265
5.1745434 22.212553 -0.76017642
5.3179526 22.210516 -0.76120967
5.7018948 22.586439 -0.77644128
5.1004519 19.20727 -0.66232067
5.2777743 19.394527 -0.66988653
5.408483 19.40414 -0.67135304
5.5162005 19.331184 -0.66998649
6.6367149 22.221184 -0.77297503
7.6774173 22.631954 -0.79657239
7.7975097 22.530584 -0.79467261
7.9485807 22.519072 -0.79597247
8.0160999 21.852156 -0.77580804
8.7924957 23.521393 -0.8370012
8.9192266 23.421232 -0.83536804
8.8880625 22.504995 -0.80650461
8.9849758 22.348032 -0.80283833
8.6072006 21.034466 -0.75751007
8.7520247 20.661293 -0.74787784
8.8007336 20.42638 -0.74131191
9.3321342 19.952162 -0.734146
9.2968988 19.257401 -0.71271509
9.4707651 19.313961 -0.71694791
11.115828 22.321489 -0.83116853
11.22507 22.198456 -0.82913542
11.97258 22.300222 -0.84366715
12.427467 22.158884 -0.84683347
12.613606 22.17082 -0.85023308
12.103522 20.973711 -0.80713785
12.038638 20.568684 -0.79437262
12.245727 20.631083 -0.79967201
13.603771 22.291323 -0.87046415
13.192837 21.03302 -0.82756895
13.312977 20.656994 -0.81913656
13.440022 20.575754 -0.81916988
13.760207 20.786257 -0.83090186
11.801398 17.133333 -0.69338387
11.793057 16.898315 -0.68678463
14.592787 20.372952 -0.8353014
11.874368 16.364511 -0.67385274
11.969229 16.284096 -0.67355275
12.077898 16.016289 -0.66855335
12.154106 15.913283 -0.66735345
12.264361 15.855009 -0.66805339
12.705936 16.219275 -0.68668467
12.805217 16.141006 -0.68668467
13.877335 17.273739 -0.73851222
13.972341 17.175081 -0.73794562
9.7284908 11.809373 -0.50983769
9.8142128 11.765575 -0.51053762
9.9216871 11.74713 -0.51237077
10.044893 11.74604 -0.5150038
10.196587 11.776368 -0.51907003
10.318722 11.7707 -0.52160305
10.478321 11.805837 -0.52600259
10.64074 11.841684 -0.53050208
10.777762 11.847145 -0.53370172
10.896969 11.831518 -0.53600144
11.04365 11.844113 -0.53963435
11.176486 11.840088 -0.54256737
11.375281 11.903522 -0.54866672
11.48424 11.870853 -0.55039984
11.619798 11.86443 -0.5533995
11.790186 11.891566 -0.55803233
11.916029 11.871905 -0.56053203
12.049908 11.85886 -0.56339836
12.282964 11.940758 -0.5708642
12.412227 11.919164 -0.57346392
12.517756 11.873732 -0.57496375
12.667684 11.869139 -0.57849669
12.835625 11.879445 -0.58282954
12.973924 11.860482 -0.58579588
13.177745 11.899214 -0.59169525
13.324348 11.883995 -0.59499484
13.501256 11.89385 -0.59962767
13.647115 11.874423 -0.60286063
13.878135 11.926612 -0.60982656
14.054679 11.929194 -0.61435938
14.213392 11.914645 -0.6180923
14.359366 11.887759 -0.62125862
14.493937 11.850039 -0.62392497
14.784101 11.936688 -0.63325727
15.005539 11.964139 -0.63958991
15.170541 11.94418 -0.64348948
15.372944 11.951478 -0.64895552
15.57283 11.954303 -0.65428823
15.758193 11.94365 -0.6589877
15.974414 11.953926 -0.66495371
16.189741 11.960806 -0.67085308
16.447737 11.996116 -0.67848557
16.640261 11.980816 -0.68338501
16.77293 11.920756 -0.68581808
17.044575 11.957097 -0.69391716
17.330437 11.999653 -0.70254952
17.529987 11.97937 -0.70764899
17.786282 11.995087 -0.71501482
18.113312 12.054621 -0.72518033
18.357359 12.055174 -0.73197961
18.511501 11.994484 -0.73517925
18.86179 12.057789 -0.74614465
23.103016 14.570335 -0.9104597
23.180948 14.42144 -0.91002637
19.606119 12.0311 -0.76670903
24.892656 15.065864 -0.96991974
25.00952 14.927698 -0.97088629
25.204861 14.835306 -0.97491914
27.632622 15.810996 -1.0612762
27.777864 15.668648 -1.0631427
29.587278 16.450842 -1.1285354
29.686785 16.268507 -1.128502
22.980305 12.228883 -0.86769778
39.00219 20.145157 -1.463498
40.239426 20.472437 -1.5051934
36.463974 18.270763 -1.3597096
42.890533 21.162762 -1.59455
40.711025 19.777643 -1.5089595
42.781845 20.460194 -1.5810516
35.397594 16.397928 -1.3005495
27.062698 12.335499 -0.99141729
38.763191 17.097664 -1.412437
38.921467 16.882961 -1.4144034
46.740154 19.934755 -1.6941389
39.227104 16.446573 -1.4180697
39.382725 16.228418 -1.4200695
35.504616 14.376092 -1.2769854
30.97299 12.32045 -1.1112039
43.129379 16.850525 -1.5437557
43.058399 16.518984 -1.5375564
43.137432 16.246368 -1.5367898
32.133068 11.209278 -1.1345013
27.482603 9.0230131 -0.96422035
27.502245 8.8428926 -0.96298712
27.493069 8.6541691 -0.96078742
27.573351 8.493845 -0.96175396
27.501503 8.2872963 -0.95745444
26.539465 7.820065 -0.92225838
1.8134065 0.52163374 -0.062520929
1.8945014 0.5324257 -0.065220624
1.9112248 0.52449864 -0.065687239
1.9008925 0.50913709 -0.065220624
1.8972124 0.49569312 -0.064987317
1.8779442 0.47836098 -0.064220734
1.8750244 0.46538264 -0.06402076
1.8720163 0.45245817 -0.063820779
1.8747574 0.44096318 -0.063820779
1.8891182 0.43212986 -0.064220734
1.9024652 0.4229196 -0.064587362
1.9226081 0.41504025 -0.065187298
1.9485942 0.40816084 -0.065987207
1.9628145 0.39858738 -0.066387162
1.9730681 0.38808188 -0.066653796
1.9803208 0.37690395 -0.06682045
1.993408 0.3667385 -0.067187071
2.0399001 0.36238065 -0.068686903
2.0401151 0.34951907 -0.06862025
2.0382769 0.33634245 -0.068486929
2.025497 0.32147485 -0.06798698
2.0244672 0.30858782 -0.067886993
2.023356 0.29572555 -0.067787006
2.0201836 0.28261098 -0.067620359
2.0317855 0.27153713 -0.067953654
2.0284567 0.25843209 -0.067787006
2.0309961 0.24610138 -0.067820333
2.0414038 0.23466486 -0.068120301
2.036844 0.22148448 -0.067920327
2.0461183 0.20980054 -0.068186961
2.0503514 0.1975303 -0.068286948
2.0813863 0.18764737 -0.069286838
17.568949 1.4801549 -0.58756238
17.607592 1.3746607 -0.58856225
17.667532 1.2703258 -0.59029537
17.734833 1.1658317 -0.59229517
17.766594 1.0584778 -0.59312838
17.848602 0.95349884 -0.59566146
18.036812 0.85260648 -0.6017608
18.190495 0.7480427 -0.60672688
18.62324 0.65141708 -0.62102532
18.750767 0.54071134 -0.62515819
18.90361 0.42905557 -0.63015759
19.344584 0.32033643 -0.64478934
19.429132 0.20250158 -0.64755565
19.704855 0.084470101 -0.65672129
14.276082 -0.0085672513 -0.71509165
14.240806 -0.095927455 -0.71333921
14.207992 -0.18289369 -0.71173698
14.176644 -0.26949885 -0.71023482
14.111823 -0.35489711 -0.70708042
14.073442 -0.44035393 -0.70527792
14.024566 -0.52497935 -0.70297468
13.971189 -0.60884762 -0.70047122
13.91532 -0.69198143 -0.69786757
13.861952 -0.77461994 -0.69541413
13.819057 -0.85731006 -0.69351149
13.778662 -0.93970704 -0.69175899
13.749728 -1.0225296 -0.69060743
13.727267 -1.105594 -0.68980628
2.6387992 -0.22864605 -0.13217665
2.6383414 -0.24492553 -0.13222672
2.6188989 -0.25933635 -0.13132545
2.6162653 -0.27529615 -0.13127539
2.6135342 -0.29123336 -0.13122532
2.6236007 -0.30866563 -0.13182616
2.63256 -0.3261095 -0.13237692
2.6384327 -0.343288 -0.1327775
2.6402347 -0.36001074 -0.13297777
2.6409426 -0.37662742 -0.13312799
2.6188247 -0.38988173 -0.13212658
12.96724 -2.0128498 -0.65726078
2.6246889 -0.42374134 -0.13267735
2.6161296 -0.43884629 -0.13237692
2.605516 -0.45351943 -0.13197637
2.5879414 -0.4668372 -0.13122532
2.5752106 -0.48087358 -0.13072462
2.5692697 -0.49609745 -0.13057441
2.5573623 -0.51009381 -0.13012378
2.5629883 -0.52758896 -0.13057441
2.5626338 -0.54392761 -0.13072462
2.5563209 -0.55900103 -0.13057441
2.5392022 -0.57160383 -0.12987342
12.439595 -2.8815331 -0.63953602
12.433339 -2.9605832 -0.64013684
12.420761 -3.0382411 -0.64043725
12.400916 -3.1141529 -0.64038718
12.372869 -3.187942 -0.63993657
12.298037 -3.2492573 -0.63708258
12.231595 -3.3121247 -0.6346792
12.208155 -3.386313 -0.63452899
12.152559 -3.4513335 -0.63272649
12.122522 -3.5233266 -0.63227588
12.046108 -3.581418 -0.62942189
12.016262 -3.6529403 -0.62902129
11.966917 -3.7183034 -0.62761933
11.933405 -3.7883368 -0.62706858
11.890935 -3.8553267 -0.62606716
11.853781 -3.923821 -0.62536621
11.759462 -3.9728241 -0.62166101
11.71598 -4.038394 -0.62065959
11.68627 -4.1085496 -0.62040925
11.645797 -4.1747851 -0.61960816
11.593696 -4.2365651 -0.6182062
11.542212 -4.2982121 -0.61685431
11.483872 -4.3569069 -0.61515194
11.447607 -4.4236884 -0.6146512
11.35891 -4.469708 -0.6113466
11.299747 -4.5266924 -0.60964423
11.228293 -4.5782175 -0.60729092
11.158479 -4.6298022 -0.60503775
11.060852 -4.6690502 -0.60128254
10.991616 -4.7194915 -0.59907943
10.94506 -4.7792516 -0.59812814
10.897273 -4.8382139 -0.59712672
10.842803 -4.8938932 -0.59577483
10.782614 -4.9465876 -0.59412253
10.725808 -5.0004168 -0.5926705
10.631743 -5.0362043 -0.58916557
10.551145 -5.0775242 -0.58641171
10.476721 -5.1211152 -0.5840084
10.398583 -5.162209 -0.58140475
10.310528 -5.1975918 -0.57825035
10.243769 -5.2430105 -0.57629758
10.194567 -5.2970166 -0.57534623
10.148623 -5.3524809 -0.57459521
10.092695 -5.4023957 -0.57329339
9.9891481 -5.4260821 -0.56928778
9.9276762 -5.4718447 -0.56768554
9.8616619 -5.5146203 -0.56583297
9.8111334 -5.5656629 -0.56488162
9.7369795 -5.6028433 -0.56257838
9.6584263 -5.6368079 -0.56002486
9.5789642 -5.6695113 -0.55742121
9.4934731 -5.697855 -0.55446708
9.4259129 -5.7362676 -0.55256438
9.3633394 -5.7772131 -0.55096215
9.3090858 -5.8229046 -0.54986066
9.2504091 -5.8654733 -0.54850876
9.1966019 -5.9107823 -0.54745728
9.1283607 -5.946384 -0.54555458
9.0566959 -5.9791708 -0.54345167
8.9882946 -6.0135245 -0.54154903
8.9132013 -6.0427814 -0.53924578
8.8578453 -6.0849161 -0.53814423
8.8039484 -6.1277409 -0.53714287
8.7425137 -6.1649537 -0.53569084
8.6712017 -6.1946764 -0.53363794
8.6087561 -6.2301984 -0.53213584
8.5647287 -6.27877 -0.53178537
8.5108061 -6.3198905 -0.53083402
8.4479237 -6.353982 -0.52933192
8.3920927 -6.3929882 -0.52828044
8.3266144 -6.4242268 -0.52662814
8.2610683 -6.4549041 -0.52497584
8.1970282 -6.486259 -0.52342367
8.1469421 -6.5283136 -0.52277273
8.0950994 -6.5687394 -0.52202171
8.022233 -6.5916553 -0.51991874
7.9639778 -6.6260624 -0.51876718
7.9109502 -6.6645079 -0.51796603
7.8706684 -6.7135715 -0.5180161
7.8142095 -6.7486815 -0.51701468
7.7553611 -6.7813807 -0.51586312
7.7001452 -6.8169222 -0.51496184
7.6321421 -6.8407092 -0.5132094
7.5678368 -6.8672752 -0.51170731
7.5211449 -6.9095273 -0.51140684
7.4647117 -6.9426227 -0.51045555
7.3965225 -6.9643312 -0.50870311
7.3442531 -7.0006251 -0.50805217
7.3025975 -7.0469441 -0.50815231
7.2356453 -7.0685873 -0.50650001
7.1793551 -7.1002092 -0.50559872
7.1370654 -7.1455407 -0.50569886
7.0601196 -7.1557827 -0.50334561
7.0042291 -7.1868091 -0.50249439
6.9572301 -7.2267723 -0.50229412
6.9051857 -7.261364 -0.50174338
6.8365688 -7.2781177 -0.49999091
6.7666478 -7.2928395 -0.49813831
6.7103009 -7.3217039 -0.49728712
6.6498337 -7.3457098 -0.4961355
6.5879931 -7.3677607 -0.49488378
6.5360508 -7.4005594 -0.49438307
6.4800143 -7.4284821 -0.49358195
6.425837 -7.4582663 -0.49293104
6.3495336 -7.4618034 -0.49057773
6.2843523 -7.477685 -0.48907563
6.2383523 -7.5161047 -0.48907563
6.1674252 -7.5241156 -0.48712292
6.1016622 -7.5377517 -0.48557073
6.0372124 -7.5524244 -0.4841187
5.9703379 -7.5634556 -0.4824664
5.9182911 -7.5928569 -0.48201576
5.8935194 -7.6575217 -0.48381829
5.8319206 -7.6744542 -0.4826166
5.7709355 -7.6917191 -0.48146501
5.7069869 -7.7045121 -0.48006305
5.642509 -7.7160048 -0.47861102
5.5553079 -7.695415 -0.47520626
5.5085649 -7.7301702 -0.47525632
5.46103 -7.7638245 -0.47525632
5.4110107 -7.7939053 -0.47505605
5.3484092 -7.8055382 -0.47375423
5.2830715 -7.8125606 -0.47220206
5.2200675 -7.8223991 -0.47085017
5.1664791 -7.8459396 -0.47034946
5.103549 -7.8548803 -0.46899757
5.0401645 -7.862504 -0.46759561
4.9816842 -7.8772435 -0.46664429
4.9274416 -7.8983412 -0.46609351
4.8715577 -7.9165177 -0.46539253
4.8114915 -7.9274764 -0.46429098
4.7391644 -7.9174294 -0.46198776
4.6849098 -7.9368982 -0.46143699
4.6200461 -7.9378724 -0.45983475
4.5603175 -7.9470134 -0.45873323
4.5040936 -7.9618058 -0.45798218
4.4580746 -7.9945269 -0.45828259
4.4046078 -8.0138531 -0.45783195
4.3429856 -8.0178947 -0.45653012
4.2819505 -8.0223646 -0.4552784
4.2298565 -8.0431833 -0.45497796
4.1776681 -8.0636644 -0.45467755
4.1281118 -8.0891466 -0.45467755
4.080194 -8.1178932 -0.45487782
4.0227757 -8.1275597 -0.45402664
3.9535797 -8.1125851 -0.45182356
3.8860154 -8.0997715 -0.44977069
3.8370962 -8.1252699 -0.44987082
3.7842216 -8.1423206 -0.44952035
3.7296212 -8.1553955 -0.44896957
3.6791005 -8.1772156 -0.4489195
3.624007 -8.1886768 -0.44831866
3.5641286 -8.1887808 -0.44711697
3.503207 -8.1857042 -0.44576508
3.4451685 -8.188633 -0.44476369
3.3971491 -8.2151556 -0.4450641
3.3417902 -8.2238169 -0.44441319
3.2823803 -8.2219057 -0.44321153
3.2267656 -8.2288733 -0.44251055
3.1632943 -8.2149639 -0.44070801
3.1047063 -8.2127323 -0.43955642
3.0490444 -8.2175817 -0.43880537
3.0060811 -8.2567825 -0.4399069
2.9617438 -8.292943 -0.44085822
2.9035411 -8.2902222 -0.43975669
2.8474295 -8.2927675 -0.43895558
2.7891665 -8.288312 -0.43780395
2.7385705 -8.3062181 -0.43785402
2.6823361 -8.3067083 -0.43700284
2.6213822 -8.291584 -0.43535054
2.5713425 -8.3103752 -0.43550074
2.5179877 -8.3183489 -0.43510017
2.4640653 -8.3240652 -0.43459949
2.4157193 -8.3486223 -0.43510017
2.3663495 -8.3700151 -0.43545067
2.3096316 -8.3651228 -0.43444926
2.2530632 -8.3598499 -0.43344787
2.1963928 -8.3532324 -0.43239638
2.1438568 -8.3617153 -0.43214604
2.0893631 -8.3621159 -0.43149513
2.0344727 -8.3602219 -0.43074408
1.9824467 -8.3696318 -0.43059388
1.9301574 -8.3777456 -0.43039361
1.873697 -8.3670149 -0.42924199
1.821686 -8.3754263 -0.42909178
1.7675798 -8.3737421 -0.42844087
1.718369 -8.3951941 -0.42899165
1.6635226 -8.3889246 -0.42814043
1.6084416 -8.3803387 -0.42718911
1.5568082 -8.3890676 -0.42713904
1.5068902 -8.4073095 -0.42758968
1.4540845 -8.4095078 -0.42723918
1.3963858 -8.3818216 -0.42538661
1.3390816 -8.3537436 -0.42353401
1.2894708 -8.3726606 -0.42408478
1.2389485 -8.386343 -0.42438519
1.1838307 -8.3680754 -0.42308336
1.131794 -8.3702335 -0.42283303
1.0795197 -8.3700867 -0.42248255
1.0254654 -8.354744 -0.421381
0.97268003 -8.3479824 -0.42073008
0.9204542 -8.3448582 -0.42027944
0.86861354 -8.3443899 -0.41997904
0.82196921 -8.3962803 -0.42233232
0.77189398 -8.417079 -0.42313343
0.71895713 -8.4067297 -0.42238238
0.66822946 -8.4219351 -0.42293316
0.61617661 -8.4208956 -0.42268282
0.56396145 -8.4165459 -0.42228225
0.51127714 -8.4029007 -0.42143106
0.45965376 -8.4048824 -0.421381
0.40889639 -8.4245033 -0.42223218
0.35715464 -8.4258556 -0.42218211
0.30530328 -8.4238958 -0.42198184
0.2535494 -8.4236145 -0.42188171
0.20161937 -8.4150276 -0.421381
