# .PCD v0.7 - Point Cloud Data file format
VERSION 0.7
FIELDS x y z
SIZE 4 4 4
TYPE F F F
COUNT 1 1 1
WIDTH 1557
HEIGHT 1
VIEWPOINT 0 0 0 1 0 0 0
POINTS 1557
DATA ascii
-35.464485 33.311581 5.4390721
-35.286068 33.553898 5.4431834
-35.147537 33.835251 5.4537401
-34.964176 34.074554 5.4576297
-34.844292 34.377087 5.4717422
-79.76046 81.640961 12.76068
-44.173901 48.678009 7.3485932
-43.845203 48.915577 7.3437037
-43.356117 49.58086 7.3631501
-43.140774 51.84919 7.5405006
-10.68475 13.167723 1.8947237
-10.963588 13.682056 1.9590633
-10.852294 13.714781 1.9541739
-10.975988 14.047358 1.9919555
-11.128784 14.424448 2.0357375
-11.314697 14.852943 2.0864091
-11.183921 14.869672 2.0790751
-11.087139 14.930834 2.0780749
-10.46001 14.268433 1.9768429
-10.481805 14.483699 1.9977338
-10.054191 14.073882 1.9326164
-11.372606 16.127542 2.2051985
-10.379217 14.912354 2.0301814
-10.319036 15.02163 2.0364044
-9.5373459 14.067971 1.8990574
-9.3248434 13.937903 1.8737216
-10.560431 15.996078 2.1418591
-9.1552715 14.054615 1.8741661
-8.989871 13.987633 1.8578311
-9.8325834 15.507088 2.0517392
-9.6840162 15.482031 2.0405159
-9.5403042 15.462504 2.0301814
-9.8436031 16.175285 2.1158564
-9.8372526 16.390463 2.1360807
-9.6595526 16.32052 2.1191902
-9.6544113 16.542562 2.1403034
-8.8790941 15.430893 1.9892886
-8.6645908 15.274172 1.9621748
-8.5483932 15.287149 1.9570632
-9.5616798 17.348066 2.2135327
-8.6874847 15.993457 2.0337374
-8.5891867 16.046461 2.0337374
-8.0436153 15.25148 1.9266157
-7.9599633 15.319948 1.9290603
-7.8694348 15.375578 1.9299494
-7.82863 15.530065 1.943284
-7.8158326 15.744264 1.9640639
-7.7675276 15.891029 1.9763983
-8.6731815 18.023108 2.2350905
-7.6140571 16.074066 1.9873995
-8.2384424 17.67152 2.1787517
-7.8790879 17.456972 2.1401923
-6.9648199 15.68749 1.917837
-7.8082457 17.88204 2.1804185
-7.2133183 16.800014 2.0429604
-7.3145661 17.328293 2.1017439
-7.1216416 17.16448 2.0765193
-7.1130033 17.445276 2.1051888
-6.4907866 16.495502 1.9807321
-6.960855 18.013569 2.1579719
-6.6562905 17.544895 2.0968547
-6.7226276 18.052929 2.152638
-10.185688 27.873354 3.3168635
-6.3308768 17.660702 2.0964103
-6.3786449 18.14361 2.1490819
-9.7149534 28.183897 3.3319762
-6.3778763 18.878641 2.2267563
-6.1070032 18.449467 2.1716397
-6.6110477 20.390528 2.3954396
-4.2832651 13.493317 1.5815818
-4.2015705 13.52314 1.5820262
-4.1208277 13.556273 1.5829153
-4.0324721 13.564156 1.5809151
-3.9633152 13.637313 1.5865823
-5.7745795 20.818388 2.4143302
-6.0844617 22.469769 2.6015708
-5.268589 19.941267 2.3048751
-5.1027346 19.804804 2.2854288
-5.4047585 21.522516 2.4798923
-5.1079931 20.882433 2.4024403
-5.4119129 22.72801 2.6110163
-4.9659643 21.438276 2.4592235
-4.7880378 21.262806 2.4356658
-4.6608796 21.307316 2.4374437
-4.5329428 21.349123 2.4389994
-6.8029189 34.092297 3.8858082
-4.1970801 21.728504 2.4731138
-4.1160603 22.034218 2.5050058
-3.9993181 22.161749 2.5166738
-3.8849165 22.310213 2.5307863
-3.752063 22.358133 2.5335643
-3.5978472 22.275757 2.5216742
-3.2327027 20.826315 2.3552134
-3.0893316 20.741568 2.3434343
-3.0696955 21.514736 2.4286652
-2.9682841 22.801371 2.569679
-2.6759717 21.590279 2.4312208
-2.5527432 21.685251 2.4401107
-2.9840922 26.761391 3.0095
-2.8160837 26.743616 3.0054996
-2.678401 30.883947 3.4648781
-1.8336875 22.76799 2.5526772
-1.6278887 21.890816 2.4531119
-1.5518512 22.755068 2.5488992
-1.357162 21.877403 2.4495561
-1.5095427 27.01231 3.0237236
-1.3385348 26.915854 3.0119445
-1.1753488 26.969229 3.0170562
-0.98719037 26.371132 2.949383
-0.82312173 26.305172 2.9413822
-0.72188061 28.700069 3.2087417
-0.52849644 27.796778 3.1072874
-0.35759535 27.773661 3.1043983
-0.18773723 27.858809 3.1137323
0.4767313 26.770954 2.9924982
0.64034414 26.7407 2.9894979
0.90525311 30.090836 3.3647571
1.1627535 32.097843 3.5900013
1.3585869 32.064289 3.5871122
1.5580001 32.110935 3.5933352
0.59038895 10.790571 1.2069894
1.9917437 32.744106 3.6666756
2.0171802 30.111496 3.3730912
2.3929069 32.710258 3.6658978
1.0108334 11.816992 1.3247788
1.078514 11.758115 1.3188893
1.1495754 11.740396 1.317667
1.2059572 11.582873 1.3007764
1.2130206 10.408309 1.1703192
3.7540624 30.589504 3.4446537
1.3775096 10.678477 1.2025446
1.4463339 10.694445 1.2053226
1.5120656 10.686353 1.2054337
1.5702019 10.626734 1.1997665
1.6077008 10.437151 1.1794312
1.6975021 10.588021 1.1976552
1.7152501 10.294098 1.1655409
1.8025894 10.423417 1.1814313
1.8402182 10.265427 1.1647631
1.8582103 10.011614 1.1372048
1.9364612 10.087863 1.1472057
2.004894 10.108935 1.1509839
2.0706692 10.114943 1.1530952
2.1452127 10.161363 1.1598737
2.0829241 9.5750542 1.0943117
2.0460966 9.1353827 1.045418
2.3874342 10.361298 1.187543
2.4635611 10.399641 1.1936548
2.5031259 10.284869 1.1822093
2.5943673 10.382126 1.1952105
2.5430217 9.9174032 1.1434276
2.5429287 9.6699762 1.1166472
2.6037664 9.6599483 1.117314
2.726989 9.8756199 1.1442055
2.7764497 9.8194914 1.1396495
15.387272 53.182781 6.1891456
2.8851769 9.7456102 1.1350935
16.00305 52.872005 6.1753669
3.409595 11.018708 1.2883308
16.611425 52.547508 6.1608095
16.920408 52.403927 6.1560316
17.224522 52.247208 6.1499195
17.532736 52.104744 6.1456971
17.821457 51.906887 6.1351404
18.105455 51.699013 6.1235838
18.405958 51.541084 6.1181388
18.707584 51.387959 6.1134715
19.001455 51.215366 6.1066933
19.300943 51.059696 6.1021371
19.589951 50.87817 6.0946922
19.904305 50.763485 6.09547
20.198092 50.597019 6.0902472
20.48984 50.427017 6.0848022
20.76545 50.219528 6.0750237
21.060484 50.060936 6.0713563
21.345753 49.88052 6.0652447
21.636738 49.71489 6.0611334
21.928104 49.551205 6.057466
22.221947 49.393967 6.0547991
22.518404 49.243134 6.0531325
22.800026 49.060776 6.0477986
23.099781 48.918156 6.0475764
23.395203 48.766537 6.0464649
23.670916 48.574718 6.0405755
23.95265 48.396496 6.0365753
24.238443 48.227303 6.0339084
24.529839 48.069706 6.0329084
24.817471 47.905052 6.0312414
26.727516 50.826103 6.4196129
27.04262 50.668163 6.4205017
27.345905 50.488171 6.4188352
27.639864 50.291557 6.4152789
27.929535 50.088032 6.4110565
28.222643 49.891499 6.4079452
28.501036 49.669979 6.4018335
28.775278 49.442627 6.3951659
29.04376 49.206936 6.38761
29.300739 48.953613 6.3779421
29.560343 48.706638 6.3692746
29.822706 48.465942 6.3616071
30.080605 48.219643 6.353384
28.203476 44.598751 5.8988953
28.328579 44.193935 5.8682256
28.557524 43.955112 5.8596687
28.751814 43.665344 5.8444452
28.956316 43.39386 5.8317771
29.146877 43.104233 5.8167758
29.276564 42.728642 5.7902179
29.490585 42.479622 5.7808833
29.665493 42.176754 5.7643261
29.828566 41.86039 5.7459912
29.985973 41.539589 5.7271004
30.185738 41.280212 5.7167659
30.414801 41.062275 5.7123213
30.880932 40.639259 5.7057648
31.032732 40.323002 5.6879854
31.274067 40.124775 5.6869855
31.346045 39.712139 5.6556487
31.743628 39.712353 5.6833181
31.564028 38.99464 5.6081996
31.688046 38.660347 5.5879755
31.906258 38.443008 5.584753
32.30138 38.436718 5.6125336
32.476719 38.167404 5.6021991
32.472244 37.69109 5.5614176
32.661747 37.443951 5.5544167
32.821808 37.164619 5.5427489
32.977688 36.882519 5.5307479
33.170029 36.642639 5.5251918
33.133717 36.154144 5.4820762
33.340061 35.934132 5.4796314
33.690556 35.867962 5.500967
33.887405 35.636803 5.4973001
33.954487 35.271404 5.4729643
34.192467 35.085171 5.4765201
34.265415 34.731098 5.4539623
34.395008 34.437222 5.4408498
34.542046 33.745861 5.3981791
34.719849 33.505672 5.3937345
34.924782 33.292007 5.3937345
35.301323 33.239914 5.4202924
35.399826 32.92522 5.4042907
35.496532 32.61124 5.3884006
35.680511 32.378799 5.3860669
35.794147 32.083637 5.3733988
36.013405 31.883827 5.3768439
36.185165 31.641975 5.3733988
36.070271 31.153015 5.3278389
36.237309 30.911112 5.3243942
36.420212 30.68306 5.3235049
36.621544 30.470451 5.3255053
36.792461 30.232553 5.3232827
36.981903 30.009987 5.3239498
2.5658634 2.0553486 0.36624011
2.5706332 2.0333989 0.36512887
2.57758 2.0133042 0.36435103
2.5678539 1.9804517 0.36123961
2.5902343 1.9724877 0.36268419
2.6221437 1.9714922 0.36546224
2.5360541 1.8824871 0.35179424
2.5355351 1.8580767 0.35012743
2.5259564 1.8273343 0.34723824
2.5266087 1.8042905 0.34579366
2.5270741 1.7813079 0.34434906
2.5257215 1.7572521 0.34268224
2.5266268 1.7349687 0.34134877
2.5322893 1.7160865 0.34068203
2.5419452 1.6999638 0.34057093
2.553987 1.6854298 0.34079316
2.5742729 1.6762369 0.34212664
2.5928695 1.6657834 0.34323785
2.618149 1.6594223 0.34523806
2.633337 1.6464887 0.34590477
2.6459274 1.6318655 0.34623814
2.6609843 1.6186997 0.34690487
2.6785352 1.6069448 0.34790498
2.6874895 1.5899732 0.34779385
2.6929033 1.5709482 0.34723824
2.7024918 1.5543953 0.34723824
2.7145715 1.5392551 0.34757161
2.7317715 1.5269355 0.34857172
2.7349968 1.5067867 0.34779385
2.6952877 1.4634106 0.34157103
2.6893213 1.4388716 0.33968195
41.700516 21.994141 5.2701664
41.839092 21.740147 5.2707224
41.970814 21.482567 5.2706113
42.095627 21.221502 5.2698331
42.201015 20.950876 5.2668328
42.299309 20.677137 5.263166
42.404789 20.407293 5.2606101
42.669315 20.213091 5.277945
42.842976 19.974415 5.2841678
42.986408 19.721104 5.2868347
49.353027 22.27652 6.0531325
43.346889 19.246153 5.3017254
43.417721 18.959534 5.2960582
43.579807 18.71277 5.3017254
43.724022 18.457773 5.3053923
43.745579 18.15143 5.2943912
43.865334 17.886425 5.2955022
44.072964 17.656481 5.3073926
44.284973 17.426847 5.3199492
44.401268 17.158731 5.3211718
44.596771 16.920517 5.3320618
44.727695 16.656963 5.3353953
44.880394 16.400969 5.341507
45.015736 16.138023 5.3457294
45.164536 15.87931 5.3517303
45.254543 15.599619 5.3509521
45.385189 15.333736 5.355175
45.622768 15.102757 5.3721766
45.827076 14.859014 5.3854003
46.0481 14.619045 5.4007349
46.218552 14.361587 5.4102917
46.385674 14.102007 5.4196258
46.485615 13.821374 5.4212923
46.653526 13.560294 5.4310713
46.788429 13.288713 5.4371829
46.822166 12.988357 5.4317379
46.893303 12.698738 5.4308491
47.328728 12.505467 5.4722977
47.600891 12.265418 5.4949665
47.609711 11.956653 5.4874101
47.828911 11.700196 5.5043006
47.936543 11.415253 5.5085235
48.098625 11.142437 5.5191913
48.248497 10.86566 5.5286365
48.288044 10.563673 5.5256362
48.353897 10.267597 5.5258584
48.524033 9.9929619 5.5381927
48.94796 9.7675819 5.5796413
49.033318 9.4721498 5.5826416
49.420704 9.2327995 5.6202011
49.62606 8.9563932 5.6372027
49.496017 8.619668 5.6163116
49.811943 8.0461779 5.6405363
49.892784 7.7454176 5.6442032
49.98164 7.4454317 5.6489816
50.604877 7.2211676 5.7143211
50.675804 6.914288 5.717433
50.798088 6.61374 5.7265449
50.985649 6.3202643 5.7432132
51.09552 6.0157871 5.7513251
51.175919 5.7071147 5.7563252
51.324619 5.4050732 5.7692156
51.414177 5.0957351 5.7756605
51.479111 4.7833867 5.7795501
51.775806 4.4907022 5.8096642
15.29616 0.94869071 1.7122613
15.434654 0.86225116 1.7271516
15.493255 0.77019656 1.7331523
15.496695 0.67507392 1.7330412
15.556161 0.58205861 1.739264
15.526659 0.48557025 1.7355969
15.610813 0.39234236 1.7447089
11.787464 0.22372235 1.316889
11.771721 0.1511737 1.3150001
14.967443 0.10054965 1.6722574
11.58041 0.021360731 1.0935233
11.598243 -0.049772941 1.0952172
11.821709 -0.12327707 1.1163915
11.845615 -0.19622405 1.1187443
11.973577 -0.27184346 1.1309783
11.774645 -0.33962017 1.1123449
12.112613 -0.42377216 1.1445299
12.057065 -0.49591646 1.1395422
14.110929 -0.75398451 1.3346287
13.962932 -0.8320238 1.3210771
14.631099 -0.96197659 1.3848826
14.623928 -1.0516617 1.3847885
11.955209 -0.93347633 1.13239
12.1308 -1.022114 1.1496118
36.253777 -3.2792134 3.4398317
13.319359 -1.2870717 1.2637652
15.333482 -1.5767517 1.4559344
12.30594 -1.3417435 1.1689981
13.15396 -1.5159461 1.2504959
15.631952 -1.8988246 1.4873666
13.098816 -1.6727108 1.247108
14.31286 -1.9170884 1.3638965
14.924915 -2.092376 1.423467
14.841855 -2.1736703 1.4167854
14.34207 -2.1904385 1.3702958
15.708782 -2.4979236 1.5024239
14.794419 -2.4456799 1.4163147
15.602375 -2.6777074 1.4952717
15.282781 -2.7194929 1.4661921
33.052635 -6.0912495 3.1758578
14.900107 -2.8404579 1.4326897
15.016218 -2.958194 1.4455825
15.064124 -3.0637691 1.4519818
33.713356 -7.2888799 3.2593319
68.309616 -15.208179 6.6141052
14.538974 -3.3304973 1.4087861
14.526017 -3.4214702 1.409539
14.518296 -3.5138147 1.4108565
14.415305 -3.5826595 1.4029514
67.112541 -17.118258 6.5459704
14.451159 -3.7804537 1.4108565
14.559427 -3.9043827 1.4237493
14.609115 -4.0139551 1.4309957
14.600503 -4.1081033 1.4325955
68.530426 -19.737574 6.7402101
14.628253 -4.3103209 1.4404064
69.110451 -20.826397 6.8218961
69.635002 -21.451418 6.8865485
69.649261 -21.924622 6.9011354
70.297234 -22.6036 6.9789629
70.470299 -23.137304 7.0101128
70.841469 -23.741684 7.0614018
71.275673 -24.374676 7.1194668
71.793106 -25.044706 7.1863775
71.923233 -25.586189 7.2149868
72.370422 -26.246632 7.2758746
72.61702 -26.841375 7.3170943
73.268036 -27.594172 7.3996272
27.838924 -11.873191 2.8597481
77.15786 -33.468941 7.9490314
76.471916 -33.730404 7.8995304
76.177216 -34.160294 7.8905902
28.496683 -12.989281 2.9592206
75.528252 -34.98875 7.8672514
75.087852 -35.345943 7.8438182
74.788727 -35.767353 7.8353486
74.47831 -36.182072 7.8259377
74.207581 -36.615032 7.82095
73.90052 -37.029087 7.812386
27.13892 -13.80724 2.8771582
26.916584 -13.902685 2.8625712
26.836063 -14.070354 2.8631361
72.385956 -38.520992 7.7498984
24.568668 -13.268418 2.6383111
71.872002 -39.386761 7.7460399
24.899084 -13.844195 2.6918588
26.050184 -14.694209 2.8260572
1.6004645 -0.91555107 0.17314395
1.6413136 -0.95233953 0.1782258
1.6328652 -0.96087748 0.17794348
1.6192451 -0.96628618 0.1770965
1.6124338 -0.97568798 0.1770024
1.6038711 -0.98400116 0.17672007
1.5910406 -0.98961663 0.1759672
1.5798861 -0.99617392 0.17540255
1.5729052 -1.0053128 0.17530845
1.556681 -1.0084486 0.17417915
1.5438068 -1.0136093 0.17342629
1.530928 -1.0186501 0.17267342
1.5287759 -1.0308079 0.17314395
1.5092709 -1.0311812 0.17163822
1.5061892 -1.0426896 0.17201465
1.494873 -1.0484811 0.17145
1.5427806 -1.0962764 0.17775527
1.481894 -1.0667466 0.17145
1.4777337 -1.0775793 0.17173234
1.4734962 -1.088401 0.17201465
1.4739639 -1.1027901 0.17286164
1.4782771 -1.1202327 0.17417915
1.4745345 -1.1317071 0.17455558
1.4801382 -1.1505104 0.17606132
1.4785264 -1.1638819 0.17672007
1.471357 -1.1729319 0.17672007
1.4672307 -1.1844398 0.1770965
1.4645599 -1.1972011 0.17766115
1.4617876 -1.2099744 0.1782258
1.4589134 -1.2227584 0.17879045
1.4566963 -1.2361969 0.17944922
1.4649394 -1.2587385 0.18142548
1.4631966 -1.2729317 0.18217835
1.4598407 -1.2858344 0.182743
1.4548953 -1.2974182 0.18311943
1.4483849 -1.3076555 0.18330765
1.4035952 -1.2829304 0.17860223
21.180685 -19.6036 2.7269611
21.387642 -20.040197 2.7694042
21.350948 -20.253271 2.7806971
21.280849 -20.436306 2.7878494
19.895153 -19.341635 2.6217482
21.01498 -20.682646 2.7860613
20.914476 -20.837904 2.7896373
20.684591 -20.863327 2.7759917
38.59058 -39.404964 5.2124557
36.639107 -38.342438 5.0120053
20.717142 -21.9482 2.8518429
51.731243 -55.483772 7.1696262
36.32708 -39.444611 5.0678115
19.535204 -21.474491 2.7430537
19.492901 -21.693926 2.7557583
19.722221 -22.221912 2.8074238
18.859678 -21.514505 2.7033401
19.370493 -22.372694 2.7962251
18.743057 -21.918348 2.7249849
19.17992 -22.709875 2.8087413
19.302303 -23.141352 2.84742
18.130718 -22.009895 2.6943998
19.065874 -23.43672 2.8547604
33.61462 -41.842873 5.0724225
18.40778 -23.498411 2.8205049
19.578327 -25.311087 3.0236847
19.404524 -25.407003 3.0208614
17.858845 -23.683023 2.8027184
18.636475 -25.032318 2.9488688
18.251993 -24.832541 2.9120722
17.382473 -23.956163 2.7966955
17.309357 -24.165966 2.8087413
17.069368 -24.142469 2.7937782
16.950537 -24.289204 2.7986717
44.401875 -64.465332 7.3982158
43.759411 -65.231888 7.4240012
43.386909 -65.542336 7.428895
43.017681 -65.858994 7.4347296
42.69313 -66.246391 7.4487519
42.384663 -66.662529 7.4661617
42.001808 -66.964355 7.4709611
41.642513 -67.305473 7.480372
41.289944 -67.660004 7.491477
16.541319 -27.48313 3.0310252
16.259569 -27.394051 3.0101333
16.171133 -27.629917 3.0250964
16.019207 -27.759665 3.0284843
15.816085 -27.800322 3.0222731
15.168334 -27.841946 2.9959228
15.655543 -29.160746 3.1274862
14.639022 -28.08906 2.9930055
14.459575 -28.16507 2.9915938
14.274356 -28.229275 2.9890528
14.088892 -28.292265 2.9865119
14.176258 -28.910938 3.0426006
13.896887 -28.786686 3.0204852
13.566626 -29.006458 3.0258493
13.303893 -28.905567 3.0067453
13.115604 -28.963074 3.0042984
13.222837 -29.683231 3.0705507
13.186679 -30.097557 3.1049943
12.275376 -28.491901 2.9314587
27.324615 -66.779335 6.8193555
22.032484 -54.802666 5.5822072
26.726871 -67.676315 6.8769498
20.760317 -54.516953 5.513226
12.177043 -32.576527 3.286341
11.952242 -32.583336 3.2795653
25.029045 -69.550003 6.986021
24.600496 -69.698517 6.9856448
11.393116 -32.921062 3.2918935
11.038195 -33.208611 3.3068566
10.784601 -33.123302 3.2917051
10.571177 -33.157551 3.2885997
10.208268 -32.711449 3.2380636
9.8884115 -33.109943 3.2652607
9.6613503 -33.08876 3.2572615
9.2087431 -32.273354 3.1713407
9.8123894 -35.206287 3.4536657
8.9779902 -32.993931 3.2310994
8.7687311 -33.02338 3.2286527
9.0958052 -35.122646 3.4284446
8.6919279 -35.344734 3.4394553
8.4725742 -35.387718 3.4385142
8.2679281 -35.493336 3.4437842
8.0691214 -35.627872 3.4519718
7.8577857 -36.784458 3.5544555
7.3527775 -35.48473 3.4243979
7.3007317 -36.354939 3.5040135
14.902741 -76.644585 7.3795819
6.6840205 -35.537743 3.4170575
13.904822 -76.512169 7.349844
13.492537 -76.923561 7.3812761
11.827668 -78.742752 7.5257325
11.376486 -79.037529 7.5470948
8.709094 -63.255684 6.0346804
7.9338017 -63.370644 6.0359035
7.2162175 -60.656002 5.772965
6.6915503 -62.807026 5.9694633
4.2519078 -42.37442 4.0245266
4.0005946 -42.492886 4.0333729
3.7271397 -42.372826 4.0197272
3.1929948 -42.23172 4.002317
2.809541 -40.460823 3.8327339
2.6596074 -42.032246 3.9800134
3.4744248 -60.831295 5.7584724
2.8827558 -64.330437 6.0859694
2.4830928 -64.220566 6.0740175
2.0768621 -63.861454 6.0387268
1.6815376 -63.742626 6.0263987
0.88497585 -43.719162 4.1323748
0.88603932 -62.82571 5.9382191
0.49808961 -62.523342 5.909234
0.082522027 -45.054134 4.2577271
-0.26632285 -61.855736 5.845993
-0.64201015 -61.4846 5.811173
-1.0158107 -61.271461 5.7915044
-1.3861153 -61.016243 5.7680712
-1.7494491 -60.624451 5.7319336
-2.1163163 -60.467312 5.718194
-2.4820988 -60.326859 5.7062421
-2.8402643 -60.057907 5.6823387
-3.1977205 -59.833557 5.6628585
-3.552057 -59.599148 5.6426249
-4.2490935 -59.077408 5.5977354
-4.5904217 -58.780254 5.5721378
-4.8931499 -58.064487 5.5070148
-5.2390203 -57.919346 5.4961925
-5.591722 -57.859348 5.4936514
-5.9260616 -57.623901 5.4746418
-6.2494125 -57.310333 5.4483852
-6.5499887 -56.828815 5.4063191
-6.882112 -56.652161 5.3934259
-7.204999 -56.416294 5.3750749
-7.5198326 -56.138153 5.3528657
-7.8464551 -55.96476 5.3408198
-8.1589689 -55.705742 5.3207746
-8.4929533 -55.604439 5.3159752
-8.7174892 -54.81879 5.2458644
-9.0280304 -54.609077 5.2309952
-9.3622618 -54.548733 5.230619
-9.6557989 -54.259926 5.2085032
-10.015797 -54.347488 5.2227135
-10.236839 -53.696289 5.1660604
-10.55823 -53.592419 5.1622019
-10.840436 -53.29834 5.1401806
-11.14478 -53.123638 5.1298289
-11.420669 -52.823635 5.1075253
-11.745007 -52.754513 5.1077132
-12.022906 -52.482513 5.0884213
-12.320511 -52.305035 5.0784454
-12.51662 -51.71368 5.0283799
-12.81136 -51.546055 5.019628
-13.115097 -51.418243 5.0149226
-13.420016 -51.29731 5.0110641
-13.684489 -51.027454 4.9928069
-13.941409 -50.73901 4.972856
-14.234408 -50.588303 4.9665508
-14.514787 -50.39669 4.956387
-14.814456 -50.275169 4.9532814
-14.961796 -49.649517 4.9005809
-15.237141 -49.462585 4.8912644
-15.500294 -49.240913 4.8786535
-15.781112 -49.079483 4.8721604
-16.036617 -48.843628 4.8584204
-16.286663 -48.597054 4.8437395
-16.538477 -48.3615 4.8302822
-16.79785 -48.152885 4.8196478
-17.065966 -47.972935 4.8120251
-17.307728 -47.723186 4.7975326
-17.563639 -47.517109 4.7875566
-17.822235 -47.3218 4.7788048
-18.081949 -47.132545 4.7708054
-18.345449 -46.955799 4.7642179
-18.600468 -46.760017 4.7558422
-19.543159 -48.265415 4.9210963
-19.123577 -46.408577 4.7436085
-19.881067 -45.833168 4.7213988
-22.849823 -51.804157 5.3509831
-20.350765 -45.382263 4.7003183
-20.526848 -45.03278 4.6770735
-20.775997 -44.848167 4.6710505
-21.026619 -44.668503 4.6656866
-21.27668 -44.48925 4.6605105
-21.506191 -44.269207 4.6511941
-21.750546 -44.081955 4.6454535
-22.000103 -43.906723 4.6411242
-22.245621 -43.724766 4.6362305
-22.498415 -43.558254 4.6331253
-23.025167 -43.26746 4.6319017
-23.235813 -43.024628 4.6210794
-23.449133 -42.789574 4.6111979
-26.187801 -47.098957 5.0929384
-23.913279 -42.393677 4.5998106
-26.772213 -46.788734 5.0945382
-24.336262 -41.932568 4.5818362
-24.577948 -41.756714 4.5790129
-24.837782 -41.611961 4.5797658
-25.163263 -41.575459 4.5926585
-25.323122 -41.265846 4.575531
-25.641588 -41.215351 4.5872946
-25.777689 -40.872829 4.5666847
-26.004936 -40.677822 4.5626378
-29.023737 -44.791885 5.044096
-26.472101 -40.309868 4.5574622
-26.704046 -40.124306 4.5549212
-26.933041 -39.934937 4.5520978
-27.120836 -39.685909 4.542593
-27.450548 -39.643978 4.5569916
-27.681273 -39.457687 4.5550151
-27.913633 -39.274109 4.5535097
-28.154089 -39.102097 4.5535097
-28.216312 -38.685699 4.5250888
-28.418245 -38.464596 4.5195365
-28.856533 -38.560509 4.5515332
-32.123528 -42.381481 5.0258393
-35.938519 -46.81517 5.5777845
-36.1646 -46.515965 5.5684676
-36.480743 -46.333076 5.573267
-36.758766 -46.101357 5.5724201
-27.713541 -31.849501 3.9897065
-27.827497 -31.586971 3.9781313
-27.977049 -31.366594 3.97192
-28.174992 -31.200991 3.9727671
-28.219463 -30.867344 3.9522514
-28.438763 -30.726492 3.9564862
-28.07538 -29.962971 3.8802586
-29.469381 -31.066418 4.0465479
-28.360968 -29.532888 3.8693421
-29.668657 -30.517563 4.0221739
-30.736656 -31.230398 4.1409388
-28.847065 -28.952959 3.8622839
-30.641071 -30.378437 4.0775094
-32.385315 -31.716055 4.2837009
-31.850172 -30.811394 4.1878047
-31.93498 -30.516342 4.174253
-30.054848 -28.022278 3.8831758
-39.328743 -35.776871 5.0246158
-31.460978 -27.921894 3.9751198
-33.302689 -29.19309 4.1851697
-31.184072 -26.999365 3.8979509
-31.617001 -27.036558 3.9312654
-32.916584 -27.455757 4.0506887
-32.914608 -27.113377 4.029891
-36.764969 -29.908318 4.4788814
-32.783054 -26.336439 3.9738963
-32.758408 -25.987532 3.9514985
-37.658012 -29.499729 4.5207596
-37.769012 -29.214506 4.5124784
-38.035381 -29.049284 4.5229244
-38.320221 -28.896276 4.5356288
-37.890697 -28.209366 4.4642005
-41.621593 -30.591829 4.8816652
-88.648132 -63.495335 10.306351
-70.102142 -48.284328 8.0452099
-70.350159 -47.821381 8.0398464
-70.62159 -47.374954 8.0374937
-71.028831 -47.018768 8.0508566
-44.878471 -28.149038 5.006547
-45.44487 -28.117233 5.0504012
-45.243469 -27.610191 5.009088
-45.568977 -27.426527 5.0264039
-45.613125 -27.073235 5.0128522
-26.138309 -15.298143 2.8617244
-26.344646 -15.202658 2.8740525
-26.324938 -14.976726 2.8618186
-27.064114 -15.1782 2.9320233
-26.4048 -14.596199 2.8508077
-26.536701 -14.457246 2.8554192
-27.035416 -14.514533 2.8994617
-26.451632 -13.992718 2.827563
-26.520216 -13.821408 2.8257749
-26.622236 -13.667517 2.8276572
-26.765123 -13.534008 2.8339624
-26.201555 -13.047784 2.765734
-27.25993 -13.366712 2.8687825
-28.03537 -13.534192 2.9416223
-26.322187 -12.508595 2.7536881
-26.444435 -12.36836 2.7584875
-26.514402 -12.203369 2.7579229
-26.556131 -12.025666 2.754535
-26.643061 -11.868571 2.7559466
-27.835176 -12.195476 2.8715117
-27.745819 -11.953942 2.8546662
-27.65822 -11.71552 2.8381972
-28.107327 -11.702868 2.8768759
-27.939959 -11.432536 2.8525016
-28.488987 -11.453619 2.9013438
-28.412424 -11.22082 2.8864748
-34.738636 -13.473356 3.5209532
-34.897629 -13.044651 3.5205767
-35.069546 -12.864219 3.5298934
-35.484112 -12.769815 3.5636783
-35.516735 -12.535944 3.5591609
-19.392384 -6.5783229 1.9345692
-69.803192 -23.201616 6.9521422
-35.743633 -11.637736 3.552197
-19.736881 -6.292531 1.9570612
-19.8521 -6.1953321 1.9646839
-19.595522 -5.9835677 1.9356045
-20.113602 -6.0070877 1.9831291
-20.378485 -5.9502482 2.005621
-19.849771 -5.6639314 1.9500971
-19.630972 -5.4714665 1.9252526
-19.7929 -5.3859363 1.937863
-72.994957 -19.38217 7.1380062
-20.18615 -5.2277493 1.969954
-20.1329 -5.0823488 1.9616724
-20.456635 -5.030755 1.9901873
-20.326397 -4.8666611 1.9745653
-20.820316 -4.8500347 2.0196431
-21.328373 -4.830605 2.0660386
-19.947773 -4.38943 1.9295815
-19.859444 -4.2424102 1.9184767
-31.700344 -6.5686383 3.0590694
-31.681486 -6.3622441 3.0534229
-31.496136 -6.1242166 3.0318723
-19.880281 -3.7392197 1.9110422
-19.920483 -3.6203704 1.9127361
-30.966143 -5.4316416 2.9707017
-31.114719 -5.2611198 2.9818065
-78.231979 -12.242263 7.4839482
-77.530846 -11.15962 7.4032035
-32.056385 -4.4136496 3.057658
-52.734337 -5.9458885 5.0152988
-28.579174 -3.0449765 2.7156682
-29.37295 -2.9473846 2.789355
-28.271442 -2.6617508 2.6831067
-28.879305 -2.5403059 2.7392895
-27.869356 -2.2792385 2.6420755
-29.029417 -2.1948774 2.7507706
-29.138676 -2.0234041 2.7598991
-27.995014 -1.7714634 2.6504512
-27.841358 -1.5902895 2.6349232
-28.398434 -1.4473455 2.6867769
-28.648834 -1.107821 2.7089865
-56.627544 -1.8416282 5.3545594
-28.784676 -0.75945359 2.7207501
-56.182041 -1.1371955 5.3107052
-29.127296 -0.4108943 2.7524645
-55.77066 -0.44431642 5.2708969
-55.695679 -0.10196566 5.2636509
-55.626564 0.23948252 5.2571573
-55.467136 0.91956252 5.2427588
-27.576977 0.62635982 2.6063144
-54.803833 1.5814633 5.1814942
-54.438892 1.9053055 5.1479917
-54.300846 2.2341433 5.1361341
-54.21352 2.5638514 5.1292644
-54.068523 2.8895967 5.1171241
-53.96431 3.2162066 5.1090307
-53.352055 4.1664896 5.0574594
-52.892952 4.4573216 5.0164285
-52.744633 4.7709303 5.0050411
-52.550858 5.0786734 4.9895134
-52.473152 5.3963389 4.9851842
-52.332169 5.7065506 4.9750204
-52.151768 6.0109038 4.9612808
-25.321205 3.075911 2.4100044
-51.762016 6.6105781 4.9315424
-25.368387 3.3980412 2.4182861
-25.199173 3.5329001 2.4041698
-51.111462 7.4860487 4.8818536
-25.121441 3.836906 2.4010642
-24.932247 3.9647079 2.3852539
-50.596672 8.3646803 4.8465629
-50.432541 8.6557798 4.8358345
-50.365738 8.9627962 4.8346109
-50.193279 9.2501945 4.8234119
-50.063213 9.5442038 4.8164482
-49.928497 9.8363876 4.8092017
-49.814518 10.131843 4.8041201
-49.66177 10.418503 4.7954621
-49.462624 10.693993 4.782475
-49.251286 10.965052 4.7684526
-48.950176 11.21369 4.7458668
-48.727337 11.477766 4.7309976
-48.624065 11.768806 4.7278924
-48.519054 12.059011 4.7247868
-48.412315 12.348372 4.7216811
-48.318295 12.640656 4.7199869
-48.19463 12.924774 4.7155638
-48.052021 13.203102 4.7094469
-47.765976 13.440257 4.6894021
-47.416653 13.656491 4.66324
-47.237427 13.919319 4.653923
-47.092026 14.19109 4.6480885
-46.907021 14.449878 4.6384892
-46.783287 14.726661 4.6351013
-46.617172 14.989366 4.627667
-46.485542 15.262387 4.6238084
-46.364586 15.538472 4.6211734
-46.188301 15.795285 4.613174
-46.03223 16.058064 4.6073394
-45.886875 16.323858 4.6027279
-45.689449 16.570147 4.5930347
-45.532757 16.83016 4.5875769
-45.351303 17.080103 4.5797658
-45.213116 17.345572 4.5764718
-45.052052 17.601654 4.5710135
-44.909901 17.86451 4.5676255
-44.733921 18.113205 4.5609441
-44.642189 18.395693 4.5630145
-44.524803 18.667725 4.5626378
-44.402096 18.937449 4.5618849
-44.282322 19.208349 4.5616026
-44.13448 19.466843 4.5585914
-43.984226 19.723837 4.5554857
-43.80983 19.969397 4.5500274
-43.556396 20.177574 4.5364757
-43.3498 20.405865 4.5279121
-43.196835 20.658585 4.5250888
-43.058514 20.918026 4.5239596
-42.969532 21.201658 4.5281944
-43.001514 21.54653 4.5454164
-42.814373 21.78244 4.5396757
-45.724483 23.617311 4.8635964
-42.348984 22.204029 4.5188775
-42.163605 22.437737 4.5137014
-41.984844 22.674263 4.5093727
-41.830956 22.923796 4.5078669
-41.661671 23.164553 4.5048556
-41.503143 23.410944 4.5031614
-41.337975 23.653296 4.5009031
-41.202393 23.912491 4.5020323
-41.060043 24.167883 4.5025969
-40.916111 24.42243 4.5031614
-40.76889 24.675089 4.5035381
-40.618416 24.925817 4.503726
-40.473164 25.17984 4.5046673
-40.31369 25.425049 4.5041966
-40.147701 25.666031 4.5031614
-39.988625 25.911348 4.5030675
-39.840534 26.163877 4.504385
-39.679245 26.407843 4.504385
-39.528019 26.658606 4.5057025
-39.393291 26.920864 4.5090904
-39.256832 27.182472 4.5124784
-39.12598 27.448565 4.5167131
-39.024986 27.73657 4.5246181
-38.887188 27.99935 4.5284767
-38.818413 28.313112 4.5406165
-38.677589 28.575609 4.544569
-38.47522 28.792709 4.5414634
-38.295444 29.026443 4.5411811
-38.029755 29.194187 4.5308294
-18.417696 14.318985 2.2040954
-18.453859 14.529649 2.2190588
-18.063894 14.403028 2.1827328
-37.604702 30.363235 4.5676255
-17.849564 14.593999 2.1783097
-37.278347 30.863049 4.5736485
-37.104294 31.104633 4.5756249
-17.931604 15.220299 2.2221642
-17.880159 15.366377 2.2274344
-17.530184 15.253603 2.1954374
-36.331268 32.007168 4.5758133
-17.644808 15.737951 2.2338338
-17.729673 16.010061 2.2569842
-17.330582 15.8438 2.2184939
-35.653194 32.998692 4.5910587
-35.489277 33.253593 4.5961404
-29.925928 28.38751 3.8979509
-17.772367 17.067015 2.3280361
-35.002514 34.028893 4.6134562
-34.812927 34.262577 4.6160917
-34.992752 34.864826 4.6682277
-44.763599 45.150738 6.0088944
-44.093544 45.024101 5.9559116
-43.600594 46.763287 6.0425854
-42.446869 46.089642 5.9217501
-43.600788 48.524311 6.1653967
-43.609062 51.635452 6.3876805
-43.243584 51.844723 6.3806224
-41.948841 51.565983 6.2824674
-41.748249 51.967545 6.3000655
-11.032792 13.907125 1.6769006
-10.951549 13.980044 1.6775595
-10.873482 14.057216 1.6787828
-10.867996 14.229691 1.6913934
-10.895565 14.448728 1.7094622
-11.009434 14.787618 1.7415531
-10.143751 13.800814 1.6178948
-14.891188 20.522676 2.3957
-10.506389 14.66806 1.7043803
-9.8742113 13.965678 1.6156362
-9.7592764 13.984365 1.6108366
-14.589739 21.182028 2.4301436
-9.7688274 14.370662 1.6414218
-10.236747 15.25958 1.7358125
-10.669925 16.118223 1.8260623
-10.119493 15.492408 1.7480465
-10.177405 15.791869 1.7747734
-10.198365 16.039688 1.7955712
-10.366369 16.527031 1.8430018
-9.5440044 15.425376 1.7135088
-9.8054571 16.067472 1.7781612
-9.7167969 16.370657 1.7983946
-9.61516 16.428251 1.7982063
-9.4738712 16.417095 1.7905835
-9.2351179 16.232624 1.7642332
-9.0545044 16.14484 1.7486112
-9.030407 16.336018 1.7632921
-8.3860874 15.392735 1.6558204
-8.2142525 15.300049 1.6403867
-8.0955458 15.303521 1.6353989
-7.978488 15.308764 1.6306936
-7.8966813 15.381343 1.6332344
-7.7985606 15.4224 1.6324816
-24.71299 49.627129 5.2394648
-24.228313 49.411339 5.2008805
-23.588816 48.863338 5.1278524
-23.077892 48.563854 5.0814571
-22.639868 48.406048 5.0503073
-8.343626 18.128141 1.8852565
-21.603077 47.706203 4.949235
-21.059191 47.274933 4.8909817
-20.68642 47.215412 4.8715954
-7.6496358 17.755081 1.8263447
-6.7787099 16.003088 1.6417042
-7.5566916 18.149076 1.8572122
-7.2634664 17.750982 1.811852
-6.9913855 17.389708 1.7705384
-7.1909947 18.208241 1.8494012
-19.044268 49.10247 4.9772792
-18.822693 49.428665 4.9985476
-18.577612 49.699894 5.014358
-6.6343222 18.085747 1.8198512
-18.196226 50.562992 5.0785398
-17.977419 50.933743 5.1046076
-17.704277 51.157867 5.1160889
-17.428743 51.379616 5.1274762
-17.280525 51.989136 5.1776357
-17.009899 52.243759 5.1925049
-4.3069777 13.508871 1.3391459
-4.2275667 13.546449 1.3402753
-4.1417513 13.563564 1.3394283
-4.0687046 13.623064 1.3428161
-6.6530476 23.316351 2.2908633
-6.1613207 22.106182 2.1681461
-5.931201 21.796782 2.1341729
-5.8369479 21.981909 2.1487598
-4.979641 20.248781 1.969954
-5.0701833 21.176476 2.0571923
-5.017169 21.537823 2.0892832
-4.7639742 21.034168 2.0375237
-4.6658425 21.203987 2.0511694
-4.5618544 21.354889 2.0630271
-4.4050841 21.258673 2.0510752
-4.4942856 22.379482 2.1565707
-4.4689918 22.983221 2.2120945
-4.4152927 23.474953 2.2567961
-3.6003346 22.117035 2.1170452
-3.465483 22.144611 2.11761
-3.3329422 22.188103 2.1197743
-3.1936154 22.186457 2.1177039
-3.0620387 22.239168 2.1209037
-2.9163132 22.187456 2.114222
-4.6390409 37.053314 3.528764
-2.645731 23.4641 2.2309163
-2.3441384 22.000893 2.0903184
-2.2140687 22.064392 2.0950239
-2.0794823 22.086483 2.095871
-1.9413062 22.069073 2.0930476
-1.8085341 22.113316 2.0961533
-1.6716895 22.109104 2.0947416
-1.3790658 21.793118 2.0630271
-1.5367587 26.90407 2.5461791
-1.3752468 26.983585 2.552861
-1.1789474 26.306261 2.4880202
-1.0943594 28.300648 2.6760488
-0.9843998 30.266056 2.8613479
-0.817599 30.989079 2.9291999
-0.62058938 30.655087 2.8972032
-0.38021171 26.951214 2.5467439
-0.21436729 26.894304 2.5411913
-0.057244767 31.219828 2.9499979
0.1337256 31.082205 2.937011
0.46067128 27.793322 2.6264536
0.6324203 27.843718 2.6315353
0.82801127 28.69713 2.7126567
1.0415856 29.763073 2.8140113
1.3102242 31.847025 3.011827
1.5189195 32.119816 3.0384598
1.6336168 30.568968 2.892592
1.9043167 31.953663 3.02472
2.1622772 32.883133 3.1139345
2.361861 32.839458 3.1111114
2.8888533 29.892908 2.8377268
3.3624916 32.697086 3.1059353
3.7881851 34.740341 3.3022454
3.9891932 34.611607 3.2922699
4.1798797 34.408585 3.2753303
1.3682483 10.714892 1.0199306
1.4313242 10.686561 1.0180484
1.4960396 10.671662 1.0174837
1.557163 10.63273 1.0146605
1.6276362 10.657419 1.0179542
1.6812714 10.573492 1.0108962
1.7146145 10.372424 0.99263912
1.8011292 10.122225 0.97071189
1.8540018 10.061049 0.9659124
1.92987 10.123809 0.9730646
1.9906051 10.104939 0.97240585
2.050189 10.080828 0.97127658
1.9294653 9.1979628 0.88723785
2.0717044 9.5829668 0.92563403
2.1077483 9.4680386 0.91575265
2.1582448 9.4219332 0.91255295
2.2434075 9.5247984 0.92384595
2.2964218 9.4885979 0.92168146
9.6033716 38.639034 3.762435
2.4567332 9.6323805 0.93852687
2.5236015 9.6469822 0.94144422
2.5597954 9.5457344 0.93306857
2.7182896 9.8936815 0.96873564
2.9623847 10.286256 1.010708
15.619825 53.008278 5.2226195
15.934442 52.877117 5.2192316
16.251554 52.755516 5.2169733
16.574951 52.654808 5.2169733
16.900162 52.559696 5.2177258
3.6333983 11.066946 1.0999227
17.53059 52.308701 5.2137733
17.827383 52.130444 5.2068095
18.04001 51.713631 5.1761303
18.345301 51.569138 5.1728363
18.645084 51.410679 5.1683192
18.941544 51.244881 5.1632371
19.238779 51.082973 5.15872
19.551855 50.963966 5.15872
19.867096 50.850456 5.1594729
20.166958 50.697994 5.1564612
20.48737 50.59729 5.1589084
20.75041 50.356491 5.1472387
20.996639 50.079483 5.1319933
21.292591 49.924065 5.1293583
21.580294 49.750465 5.1250291
21.869482 49.581589 5.1213589
22.159447 49.415585 5.1181593
22.457695 49.268719 5.1171241
24.018362 51.847233 5.4002018
23.068663 49.006535 5.1189122
24.613281 51.465961 5.3915439
23.630465 48.64185 5.1107249
23.896763 48.43166 5.1039491
24.178766 48.254745 5.1008434
24.461756 48.080635 5.0982084
24.741236 47.900444 5.0951028
26.699417 50.922794 5.4339867
28.220694 52.254795 5.6126986
27.644178 50.444542 5.4363394
27.935278 50.241779 5.4328575
28.252325 50.085903 5.4346457
28.468138 49.752609 5.4173298
28.788868 49.604549 5.420341
29.328072 49.134693 5.4079189
29.879871 48.69133 5.3990726
30.003475 48.226425 5.3678288
30.291918 48.030476 5.3666053
28.332764 44.319061 4.9711623
28.467741 43.933834 4.9474468
28.687593 43.683437 4.9389772
28.873455 43.38393 4.9250493
29.05394 43.079666 4.9106507
29.244139 42.792908 4.8983221
29.429649 42.502167 4.8856177
29.601259 42.194466 4.8710308
29.799044 41.926834 4.8611493
29.928925 41.567074 4.8406339
30.110081 41.282108 4.8288703
30.313711 41.030117 4.8210592
30.575037 40.856895 4.822659
30.786669 40.617741 4.8166361
30.908611 40.263027 4.7969675
31.066475 39.958652 4.7833219
31.255642 39.69688 4.7748523
31.367668 39.340111 4.7549953
31.460239 38.963326 4.7326918
31.642635 38.700962 4.7243161
31.84903 38.469269 4.719799
32.055691 38.238789 4.7155638
32.166019 37.895649 4.697495
32.290871 37.572987 4.6819673
32.452187 37.295288 4.6720858
32.610001 37.015533 4.6620164
32.781502 36.753078 4.6542053
32.910988 36.445583 4.640748
33.051369 36.15258 4.6291723
33.223881 35.896496 4.6223969
33.406757 35.652733 4.6173148
33.539242 35.356796 4.6055512
33.705219 35.097919 4.5986814
33.879688 34.849045 4.5932231
34 34.546135 4.5807066
34.174793 34.300194 4.5758133
34.335121 34.040791 4.5692258
34.502094 33.78907 4.5637674
34.678001 33.54697 4.5597205
34.814091 33.267529 4.5506864
34.946609 32.986317 4.5414634
35.140343 32.763798 4.5404286
35.260159 32.473377 4.5300765
35.410145 32.2122 4.5238652
35.570843 31.961718 4.5192542
35.731289 31.711798 4.5148311
35.865307 31.439455 4.5073023
36.024422 31.190128 4.5031614
36.194691 30.951027 4.5006204
36.364147 30.711657 4.4981737
36.491508 30.437576 4.4907393
36.619183 30.164988 4.4835868
36.756474 29.901405 4.4778466
36.908985 29.650993 4.4741759
37.059029 29.399218 4.4704118
37.195614 29.137508 4.4652357
37.33905 28.881929 4.4610953
37.490242 28.632942 4.4580836
37.654892 28.394575 4.4568601
2.5289545 1.8830241 0.2968964
2.5163953 1.8497831 0.29407313
2.5156109 1.8255378 0.29266152
2.5146244 1.8013722 0.2912499
2.5191269 1.781311 0.29049703
2.5193958 1.7584137 0.28927362
2.5252185 1.7395335 0.28870896
2.5341978 1.722887 0.28852075
2.5438948 1.7067505 0.28842664
2.552659 1.6900103 0.28823844
2.5638142 1.67486 0.28833252
2.5631638 1.6520864 0.28710914
2.62114 1.6667749 0.29247329
2.6405952 1.6564795 0.2935085
2.6202309 1.6213888 0.2901206
2.6275809 1.603725 0.28983825
2.6365185 1.5870589 0.28974417
2.6479194 1.5718679 0.28993237
2.6600919 1.5570997 0.29021469
2.6764944 1.544729 0.29096755
2.6980369 1.5351694 0.29228508
2.7117472 1.5210205 0.29275563
2.7358413 1.5125408 0.29435545
2.7057295 1.4742929 0.2901206
41.293461 22.169144 4.4291925
41.449833 21.926527 4.4314508
41.588886 21.674543 4.4320154
41.752979 21.43532 4.4354033
41.88372 21.178724 4.4354033
42.027142 20.928432 4.4369092
42.16996 20.677616 4.438509
42.333698 20.436655 4.4424615
42.474483 20.184208 4.4441557
42.636311 19.941345 4.4482021
42.775047 19.687267 4.4499903
42.922249 19.436754 4.4528136
43.07708 19.189226 4.4565778
43.234135 18.942127 4.4607186
43.387947 18.693035 4.4646711
43.544914 18.44471 4.4690943
43.688519 18.190187 4.4722939
43.82695 17.933086 4.4751172
43.955559 17.671631 4.4770937
44.101128 17.416586 4.4809518
44.241508 17.158978 4.4844341
44.371078 16.896761 4.4869747
44.601681 16.671942 4.4998679
44.752674 16.416126 4.5048556
44.883472 16.152346 4.5079613
45.032433 15.894535 4.5130429
45.19685 15.641364 4.5198188
45.317429 15.372382 4.5223598
45.443962 15.105021 4.5256534
45.607735 14.849322 4.5328054
45.78241 14.596111 4.5411811
45.931934 14.333902 4.547204
46.068531 14.066917 4.5520978
46.232201 13.807342 4.5598149
46.406834 13.549915 4.5687551
46.541759 13.279937 4.5739307
46.692375 13.013623 4.580801
46.837627 12.744915 4.5872946
47.022717 12.485901 4.5978346
47.163017 12.213861 4.6041398
47.303677 11.941058 4.6106334
47.453396 11.669602 4.6181617
47.65094 11.40858 4.6304903
47.819912 11.139248 4.6401834
47.977665 10.866072 4.6489353
48.1465 10.594159 4.6589108
48.274853 10.312265 4.665122
48.490273 10.047575 4.6798968
48.632023 9.7661238 4.6877079
48.742825 9.4776096 4.6926956
48.920403 9.200985 4.7042708
49.132664 8.9291239 4.7193284
49.250267 8.6386633 4.7254453
49.437813 8.359211 4.7384324
49.659149 8.083539 4.754807
49.82584 7.7971544 4.7660999
49.951511 7.5031128 4.7736287
50.125698 7.215055 4.7859569
50.371204 6.9351897 4.8052492
50.49474 6.6367555 4.8130603
50.73307 6.3516583 4.8319759
50.862034 6.0510664 4.8406339
51.105957 5.7622924 4.8603969
51.269047 5.4623151 4.8726306
51.323391 5.1498175 4.874701
51.4809 4.8467503 4.8867469
51.592968 4.538105 4.8946519
15.456837 0.88297945 1.4623337
15.506705 0.79040146 1.4665686
15.502313 0.69483811 1.4657216
15.588854 0.60289699 1.4735327
15.61614 0.50801075 1.4757912
91.275276 2.4077649 8.6299047
11.216927 0.15835947 1.0592679
14.972828 0.11943378 1.4142444
11.939079 -0.074775241 0.89680833
14.826024 -0.18367372 1.1139468
11.752815 -0.21787174 0.88293731
11.89082 -0.29341754 0.89343429
11.910725 -0.36704722 0.89508384
12.305853 -0.45479611 0.92500037
12.189258 -0.52540559 0.91645277
12.018479 -0.59195554 0.90385634
11.577526 -0.64149493 0.87094069
13.92229 -0.85699737 1.0478905
14.599277 -0.98859143 1.0993259
12.386189 -0.91521561 0.93294811
11.993671 -0.960262 0.90378135
12.815142 -1.1051624 0.96623868
12.686978 -1.1725838 0.95709127
12.5942 -1.2419958 0.95064306
12.578407 -1.3184178 0.95004326
12.805964 -1.4217484 0.96788818
12.8485 -1.5063328 0.9717871
12.169993 -1.5025772 0.92110145
16.134972 -2.0924845 1.222441
16.117876 -2.1909106 1.222141
34.523464 -4.9079466 2.6210191
33.88509 -5.0295115 2.5748322
14.601546 -2.2593234 1.1100478
15.850538 -2.5522051 1.2062455
15.043828 -2.5171411 1.1459627
15.057575 -2.6145175 1.1482121
15.184538 -2.7326398 1.1591589
15.24199 -2.8396361 1.1648573
15.364303 -2.9600763 1.1755793
15.392796 -3.0636356 1.1791782
15.3151 -3.1459899 1.1746795
15.370818 -3.3545256 1.1820275
14.724345 -3.3082461 1.1338161
15.23911 -3.5222406 1.1751294
67.033813 -15.9252 5.1796684
14.389706 -3.5125136 1.1128221
66.777237 -16.732552 5.1753197
67.078941 -17.246256 5.2068105
67.28331 -17.739634 5.2310286
67.452362 -18.227579 5.2527728
15.461117 -4.2805433 1.2053459
68.38063 -19.381887 5.3431969
68.557312 -19.887218 5.3664403
68.890953 -20.4431 5.4022803
69.072433 -20.958944 5.4264984
12.273803 -3.8072689 0.96533889
12.341469 -3.9114254 0.97253686
70.191025 -22.717457 5.5463142
70.505737 -23.298203 5.5823789
11.497292 -3.8782132 0.91142923
11.280922 -3.8824956 0.89613354
11.075292 -3.8879046 0.88166267
10.983628 -3.9315956 0.87626415
10.939625 -3.9917388 0.87468964
10.926143 -4.0629578 0.87558937
10.899142 -4.1292167 0.87543941
10.862435 -4.1917076 0.87453967
73.76683 -28.982985 5.9583974
74.381081 -29.752443 6.0226541
74.694008 -30.410572 6.0629926
75.315788 -31.203802 6.1288991
75.501488 -31.824919 6.15979
75.982086 -32.577976 6.2151995
76.373077 -33.301849 6.2637858
76.321365 -33.838142 6.2764573
26.191217 -11.805549 2.1592252
75.781609 -34.717766 6.2666349
74.734268 -35.916725 6.2336445
74.373581 -36.306805 6.2220225
74.108307 -36.742096 6.2185736
73.827141 -37.16877 6.2139997
27.021477 -13.813094 2.2809157
26.945948 -13.983687 2.2817404
26.901987 -14.171068 2.2853394
72.351898 -38.680252 6.1678882
72.099182 -39.11586 6.1666884
71.841209 -39.548378 6.1652637
1.5371715 -0.85929203 0.13150047
1.53187 -0.86870772 0.13150047
1.5697393 -0.90293515 0.13524941
1.6296439 -0.9507156 0.14094779
1.6186293 -0.95765227 0.14049792
1.6067359 -0.96397698 0.13997306
1.5956781 -0.97070986 0.13952319
1.5837494 -0.97682035 0.13899834
1.5684234 -0.98070747 0.13817358
1.5606915 -0.98924559 0.13802361
1.5495572 -0.9955709 0.13757375
1.5392402 -1.0023409 0.13719885
1.5322285 -1.0112176 0.13712387
1.5235077 -1.0189379 0.13689893
1.5188783 -1.0293851 0.1370489
1.514178 -1.0398139 0.13719885
1.5004005 -1.043962 0.13652404
1.4939667 -1.0531486 0.13652404
1.513451 -1.0808312 0.13892336
1.4760816 -1.0678973 0.13607417
1.4703058 -1.0775235 0.13614915
1.4668702 -1.088901 0.13644907
1.4673364 -1.103272 0.13712387
1.4668876 -1.1170856 0.1377237
1.463165 -1.1285 0.13802361
1.4562131 -1.1374567 0.13802361
1.4484242 -1.145752 0.13794863
1.4553797 -1.1658347 0.13929826
1.4497482 -1.1759986 0.13944821
1.4532962 -1.1937292 0.14049792
1.4497786 -1.2058108 0.14087281
1.4591379 -1.2288095 0.14252234
1.4614378 -1.2461472 0.14349706
1.4598044 -1.2603019 0.1440969
1.4557989 -1.2725154 0.14447179
1.4509513 -1.2840666 0.14477171
1.4445311 -1.2942755 0.14492166
1.4365623 -1.3031147 0.14492166
1.4351517 -1.3179729 0.14559647
21.147337 -19.648581 2.1695724
21.45784 -20.183794 2.2141097
20.737808 -19.747765 2.1522522
21.223614 -20.460129 2.2156842
20.207018 -19.720785 2.1221108
20.95817 -20.706417 2.2143345
53.398445 -53.406967 5.6776772
19.736191 -19.983675 2.1109388
20.563036 -21.077974 2.2132099
36.77343 -38.159191 3.9837575
36.612164 -38.461391 3.9917803
20.566862 -22.143976 2.2714684
36.144745 -39.39772 4.0192227
18.838497 -20.789038 2.1085396
20.667883 -23.09091 2.3292019
18.471001 -20.893141 2.0959432
18.333929 -20.996319 2.0949683
18.174793 -21.073683 2.0915194
19.410839 -22.788036 2.2498746
19.139687 -22.751047 2.2345788
19.220863 -23.134199 2.2605965
19.036171 -23.200052 2.2555728
18.949335 -23.385372 2.2622459
18.80798 -23.504318 2.2625458
17.524351 -22.459753 2.1410804
33.236206 -43.138744 4.0937514
18.935501 -24.892128 2.3507209
17.406208 -23.175583 2.1784198
17.586796 -23.71769 2.2192082
17.177599 -23.770075 2.2042124
17.123507 -24.004103 2.2161341
16.914724 -24.337708 2.2276058
30.225176 -44.062954 4.0167484
44.079681 -65.112732 5.9113107
30.024519 -44.942974 4.0630851
43.338799 -65.741997 5.9197083
42.950909 -66.031761 5.9219575
42.59341 -66.369591 5.9287057
44.629559 -70.490082 6.2722583
41.991276 -67.232353 5.9592972
41.226242 -67.846558 5.9684443
40.807629 -68.095673 5.9682198
39.940041 -67.58503 5.9018636
38.682137 -66.383095 5.7760491
15.826324 -27.547806 2.3879104
15.65159 -27.634851 2.3870857
15.41177 -28.007429 2.4027562
15.238203 -28.098837 2.4025311
15.20239 -29.307535 2.4815588
14.032898 -28.316341 2.375314
13.686148 -28.047922 2.3456974
13.357907 -27.80689 2.31863
13.54938 -28.654583 2.3823619
13.250284 -28.935652 2.3920341
23.848831 -52.934822 4.3645744
12.783092 -28.845367 2.3714149
12.548882 -28.79254 2.360693
22.209265 -53.630413 4.3636746
22.372931 -54.977482 4.4620471
21.996304 -55.016499 4.454174
26.608833 -67.755951 5.4724603
20.338865 -52.739529 4.2492571
21.288866 -56.228065 4.5197806
20.085497 -55.081692 4.4074626
11.312819 -32.248844 2.568759
11.118623 -32.328968 2.5696588
10.943618 -32.466507 2.5752072
10.766718 -32.601219 2.5806057
10.716253 -33.129673 2.6171954
10.484771 -33.106392 2.6102223
9.9929209 -32.952965 2.5882535
9.8032961 -33.056683 2.5916276
9.2354612 -32.604591 2.5470901
8.7762289 -35.049976 2.7158673
8.6203098 -35.346333 2.7346869
8.4060307 -35.410202 2.7355866
8.2090187 -35.54953 2.7424097
8.0110493 -35.689716 2.7493827
7.7702408 -35.638821 2.741735
7.297061 -34.483913 2.6493611
7.0600753 -34.404961 2.6399138
6.760788 -35.130394 2.6890249
6.5981989 -35.456497 2.7108438
13.34968 -76.972427 5.8730717
12.930886 -77.374504 5.8975897
12.578438 -78.214424 5.9556231
8.9021111 -62.696423 4.7605371
4.6996803 -42.411972 3.2075777
4.2856908 -40.971195 3.0965343
4.0465221 -41.121758 3.1059816
3.512696 -40.832512 3.0806389
3.0340729 -41.180832 3.1038823
2.575583 -41.982357 3.1616907
2.7613268 -64.371941 4.8436885
2.3636217 -64.314926 4.8382154
1.9676054 -64.284363 4.8349161
1.5687591 -64.116783 4.8214951
0.80615795 -43.995419 3.3076744
0.53742069 -44.100246 3.3152473
-0.003845108 -44.773628 3.365633
-0.27990773 -44.988148 3.3818283
-0.76092923 -61.592442 4.630599
-1.1319847 -61.215721 4.6027069
-1.5037963 -61.0541 4.5911603
-1.8786036 -61.050705 4.5916853
-2.2413638 -60.718143 4.5676169
-2.6041026 -60.476105 4.5505219
-2.958468 -60.12035 4.5250292
-3.3026695 -59.65601 4.4915137
-3.6610587 -59.511204 4.4822164
-4.0066867 -59.200089 4.4605474
-4.3592825 -59.031185 4.4497504
-4.6925402 -58.642502 4.422533
-5.0007286 -58.014519 4.3773961
-5.3507347 -57.919193 4.3725972
-5.6927171 -57.750305 4.3624001
-6.0447769 -57.693462 4.3608255
-6.3396034 -57.123066 4.3205619
-6.6730394 -56.938496 4.3096151
-7.0040836 -56.749012 4.2984433
-7.3154898 -56.422142 4.2769995
-7.6244936 -56.103477 4.2563052
-7.9587712 -55.98653 4.2510567
-8.2757988 -55.759094 4.2375607
-8.5956707 -55.564365 4.2266889
-8.825984 -54.824379 4.1744285
-9.1483936 -54.686569 4.1681304
-9.4684238 -54.540985 4.1613822
-9.7866564 -54.391571 4.1544843
-10.075478 -54.090321 4.1361146
-10.37606 -53.86591 4.1237431
-10.687114 -53.704407 4.1163201
-10.961068 -53.368229 4.0956259
-11.263945 -53.184849 4.0867782
-11.535861 -52.866299 4.0676589
-11.851065 -52.754631 4.0645847
-12.125368 -52.468143 4.0481644
-12.40905 -52.232677 4.0357928
-12.631667 -51.755459 4.0048265
-12.910459 -51.523178 3.9929049
-13.208726 -51.374424 3.9875815
-13.490402 -51.166092 3.9777594
-13.776524 -50.980312 3.9698114
-14.060875 -50.79295 3.9618638
-14.346981 -50.616493 3.9548907
-14.630342 -50.434612 3.9476178
-14.922222 -50.28558 3.9430442
-15.044028 -49.578548 3.8947577
