# .PCD v0.7 - Point Cloud Data file format
VERSION 0.7
FIELDS x y z
SIZE 4 4 4
TYPE F F F
COUNT 1 1 1
WIDTH 1438
HEIGHT 1
VIEWPOINT 0 0 0 1 0 0 0
POINTS 1438
DATA ascii
-8.962204 -17.47134 0.054800019
-9.0904818 -17.45682 0.054928478
-9.2151804 -17.434309 0.055034593
-9.3555422 -17.440004 0.05523286
-9.6473951 -17.722178 0.056313567
-9.7636909 -17.676655 0.056358248
-9.9164515 -17.695799 0.056612369
-10.045105 -17.670263 0.056726862
-10.164827 -17.62822 0.056791089
-10.285421 -17.587099 0.056860901
-10.409462 -17.55118 0.056950264
-10.529843 -17.508404 0.057020076
-10.637074 -17.443464 0.057020076
-10.773352 -17.425501 0.05717646
-10.92627 -17.432787 0.057419408
-11.172451 -17.584873 0.058145463
-5.0583315 -7.8539953 0.026053786
-4.3653026 -6.6872678 0.022267126
-3.6686563 -5.5452309 0.018533522
-3.4565122 -5.1554685 0.017299226
-3.4583013 -5.0903201 0.017151222
-3.4633904 -5.0311117 0.017022766
-3.4615927 -4.9630113 0.016863592
-3.477555 -4.9212594 0.01679378
-3.4931355 -4.8794994 0.016723966
-3.5065744 -4.8353052 0.016645776
-3.519011 -4.7903252 0.016564792
-3.5405784 -4.7582126 0.016528489
-3.5898249 -4.5274696 0.016101234
-3.6244235 -4.5139356 0.016131951
-3.6577291 -4.4985948 0.016157085
-3.8419886 -4.6085386 0.016721174
-3.8998616 -4.6200323 0.01684963
-3.946326 -4.6173029 0.01692782
-3.8836377 -4.487884 0.016539659
-3.9104428 -4.4632177 0.016536867
-3.8740578 -4.3673162 0.016268784
-3.9328506 -4.3791785 0.016402826
-3.9192884 -4.3105669 0.016235275
-3.923317 -4.2621555 0.016143121
-3.995749 -4.2877545 0.016333014
-4.0432534 -4.2857075 0.016419582
-4.1323185 -4.326632 0.016673701
-4.2630424 -4.4090419 0.01709258
-4.2935123 -4.3863754 0.017106542
-4.3456826 -4.3855224 0.017207073
-4.2273412 -4.2140317 0.016634606
-4.2324567 -4.1676641 0.016553622
-4.2536488 -4.1374321 0.016536867
-4.2803974 -4.1126399 0.016542451
-4.3128047 -4.0931835 0.016570378
-4.3400269 -4.0686955 0.016578754
-4.3803167 -4.0562592 0.016637398
-4.4582453 -4.0779061 0.016838459
-4.565537 -4.124896 0.01714843
-4.6258249 -4.1281023 0.017279679
-4.6863222 -4.1307225 0.017410927
-4.753058 -4.1380086 0.017564517
-13.189424 -11.342705 0.048544768
-13.298405 -11.295228 0.04868998
-13.401935 -11.242339 0.048815642
-13.496076 -11.180948 0.048907798
-13.591515 -11.120091 0.049005534
-13.688269 -11.059741 0.049108859
-7.7809391 -6.2078967 0.02776281
-7.7120609 -6.0758662 0.027383028
-7.6213384 -5.9289517 0.02693064
-7.5227652 -5.7785096 0.026455909
-7.4616761 -5.6591167 0.026118014
-7.3609891 -5.5119205 0.025646077
-7.3440146 -5.4291964 0.025470149
-7.3036876 -5.3303809 0.02521603
-7.2535028 -5.2258358 0.024931192
-7.0865993 -5.0398045 0.024249816
-7.0584631 -4.9548554 0.024048755
-7.0221562 -4.8653169 0.023822561
-6.9528265 -4.754396 0.023487458
-6.8906937 -4.6501055 0.02318028
-6.8566751 -4.5661616 0.02297084
-6.807682 -4.473475 0.022713929
-6.759491 -4.3826509 0.022462601
-6.6658001 -4.2640252 0.02206327
-6.6343346 -4.186749 0.021873379
-6.6055703 -4.1121354 0.021694658
-6.542057 -4.0170994 0.021404235
-6.5537524 -3.9691114 0.021362348
-6.5153141 -3.891386 0.021158494
-6.4184432 -3.7802765 0.02076754
-6.3515887 -3.688587 0.020477118
-6.3662915 -3.645072 0.020451985
-6.2683663 -3.5380971 0.020066617
-6.1702461 -3.43295 0.019684041
-6.2490611 -3.4267647 0.019868348
-6.1608863 -3.3293936 0.019522075
-6.1300077 -3.2642627 0.019360108
-6.1667457 -3.2354171 0.019413166
-6.1873698 -3.1979771 0.019415958
-6.2175694 -3.1653972 0.019449469
-6.2297235 -3.1236007 0.019427128
-6.2353234 -3.078675 0.019385241
-6.2567945 -3.0416698 0.019393619
-6.2744379 -3.0027897 0.019390825
-6.290935 -2.9633815 0.019385241
-6.2781544 -2.9104226 0.019290294
-6.3231878 -2.8842986 0.019374071
-6.3517141 -2.8503599 0.019407582
-6.3736577 -2.8133526 0.019421544
-6.4128146 -2.7837503 0.019488564
-6.4748392 -2.7635889 0.019625397
-6.5193367 -2.7354176 0.019709174
-6.5443182 -2.6987963 0.019734306
-6.5968981 -2.6732404 0.019843215
-6.637332 -2.6423311 0.019915821
-6.6757712 -2.6102974 0.019982841
-6.7178006 -2.5793252 0.020061031
-6.7634425 -2.5493462 0.020150393
-6.8024044 -2.5164747 0.020220205
-6.8468552 -2.4852684 0.020306773
-6.9335704 -2.4687083 0.020519005
-6.9995675 -2.4439232 0.020669801
-7.0588975 -2.416153 0.020801051
-7.1134076 -2.3861556 0.020918336
-7.1421647 -2.3471479 0.020960225
-7.3220592 -2.3566027 0.021446124
-25.277267 -7.9663262 0.073976278
-25.282671 -7.7978153 0.073850617
-25.327169 -7.6416693 0.073842235
-25.223 -7.44169 0.073403813
-25.199968 -7.2671103 0.073205538
-25.167082 -7.0906525 0.07298214
-25.224579 -6.9400764 0.073024027
-25.275379 -6.7875047 0.073049158
-25.321388 -6.6335573 0.07306312
-25.365488 -6.479053 0.073074296
-25.398945 -6.3218427 0.07305754
-25.428509 -6.1637583 0.073032402
-25.496996 -6.0149641 0.073121764
-25.665976 -5.8888206 0.07350155
-25.755308 -5.7431984 0.073655136
-25.837952 -5.5954309 0.073791973
-25.917795 -5.4464536 0.073923223
-25.969341 -5.2911162 0.073976278
-26.045465 -5.1403856 0.07410194
-26.048031 -4.9750357 0.074020959
-26.175423 -4.8330927 0.074297421
-26.350285 -4.6983747 0.074710712
-26.41114 -4.5421982 0.074802861
-26.429634 -4.3785858 0.07477773
-26.895452 -4.2863812 0.076020405
-26.985498 -4.1311107 0.076201916
-27.064754 -3.9734433 0.076355509
-27.191614 -3.8217795 0.076645933
-27.303751 -3.6668446 0.076897256
-27.549904 -3.5279541 0.077528365
-27.563091 -3.3578773 0.077506028
-27.786818 -3.2122364 0.078078493
-27.864653 -3.0480964 0.078243256
-27.99225 -2.8883574 0.078550428
-28.041296 -2.7196357 0.07863979
-28.135138 -2.5545812 0.078857608
-28.301741 -2.3947182 0.079282075
-28.345808 -2.2233634 0.079365849
-30.423521 -2.1986442 0.085146368
-30.374575 -2.0078368 0.084973231
-30.330421 -1.8180722 0.084816851
-30.247847 -1.2548767 0.084506884
-30.249979 -1.0690792 0.084492922
-28.161871 -0.82225752 0.078642584
-28.228369 -0.65087461 0.078815721
-28.235832 -0.47772413 0.078826889
-29.619146 -0.31938425 0.082683362
-29.611546 -0.13759656 0.082658231
-29.477835 0.043902472 0.082284033
-29.707005 0.22652294 0.082926318
-30.514973 0.4199256 0.085188255
-30.520823 0.60733294 0.085213393
-30.499525 0.7941516 0.085165918
-30.563044 0.98349595 0.085358605
-31.737562 1.2162477 0.088659361
-31.593636 1.4049239 0.088279583
-31.853079 1.6123457 0.089030772
-31.837593 1.8074788 0.08901681
-31.875805 2.0059359 0.089156434
-32.689922 2.2586086 0.091471434
-32.826023 2.4704769 0.091893107
-33.185001 2.7023573 0.092943095
-33.165806 2.9057515 0.092937507
-69.784218 18.045664 0.2012511
-69.615417 18.916399 0.20141865
-69.486481 19.339977 0.20138516
-69.381889 19.770359 0.20142983
-69.288071 20.204103 0.2015136
-69.144592 20.623436 0.20146054
-69.043533 21.055479 0.20153874
-68.920677 21.481106 0.20156108
-16.044964 5.109622 0.046989333
-16.02187 5.2107596 0.047014467
-15.984849 5.307394 0.047000501
-15.931147 5.3983159 0.046939068
-15.888272 5.4926987 0.046911143
-15.860872 5.5924115 0.046930689
-15.812143 5.6845527 0.046888802
-15.747858 5.770802 0.046802234
-15.696227 5.8613744 0.046754763
-15.653424 5.9550848 0.046735212
-15.620319 6.0524654 0.046746384
-15.581028 6.1474624 0.0467408
-15.530951 6.2381048 0.046704497
-15.491457 6.3329053 0.046701703
-15.45046 6.427072 0.046696119
-15.40705 6.5201945 0.046684947
-15.369508 6.6157937 0.046693325
-15.326793 6.7091727 0.046687741
-15.279857 6.8006506 0.046670984
-15.240574 6.8955145 0.046679363
-15.192526 6.9863925 0.046662606
-15.146654 7.0782104 0.046654232
-15.137266 7.1873126 0.046760347
-15.102788 7.2848363 0.046791065
-15.059601 7.3782482 0.04679665
-15.034637 7.4807587 0.046860877
-14.975065 7.5661044 0.04681899
-14.938146 7.6628675 0.046849705
-14.898829 7.7585387 0.04687484
-14.86332 7.8563519 0.046913937
-14.821004 7.9507127 0.046933483
-14.792141 8.0524988 0.046997711
-14.739827 8.1416597 0.046989333
-14.689593 8.2319479 0.046989333
-14.653586 8.330327 0.047036804
-14.638581 8.4410629 0.047154091
-14.60205 8.5398111 0.047204357
-14.551096 8.6302662 0.047209941
-14.497011 8.718873 0.047207151
-14.45434 8.8144283 0.047243454
-14.429752 8.9213572 0.04734119
-14.395925 9.0230045 0.047411002
-14.346198 9.1149197 0.047430553
-14.311859 9.2168512 0.047503158
-14.270947 9.3148785 0.047556214
-14.225201 9.4099913 0.047595311
-14.188791 9.5115747 0.047667917
-14.150843 9.6125031 0.047737729
-14.113012 9.7138901 0.047810335
-14.065448 9.8088837 0.047852222
-14.009897 9.8984652 0.047868978
-13.976545 10.004029 0.047963925
-13.9319 10.101927 0.048022568
-13.887385 10.200244 0.048084002
-13.838176 10.29541 0.048131473
-13.790716 10.392161 0.048187327
-13.751336 10.495391 0.048273895
-13.72703 10.610759 0.048416313
-13.655366 10.689855 0.048393972
-13.651424 10.822517 0.04861458
-13.72045 11.015001 0.049100481
-13.671227 11.11412 0.049167503
-13.622849 11.214319 0.049240109
-13.443935 11.20614 0.048840776
-13.379509 11.29229 0.048857532
-13.331256 11.392362 0.048935723
-13.287572 11.496846 0.049033459
-13.235583 11.594633 0.049103275
-13.183643 11.692878 0.049175877
-13.168941 11.824994 0.049390905
-13.114636 11.922392 0.049460717
-13.078762 12.037172 0.049603134
-13.033923 12.144463 0.049714837
-12.978075 12.242048 0.049787443
-15.024677 14.34767 0.057980705
-12.892296 12.463634 0.05004156
-12.841308 12.567684 0.050142091
-13.455169 13.331034 0.052859217
-13.305335 13.345361 0.052591134
-12.736214 12.932302 0.050653122
-12.666386 13.020242 0.050692219
-12.673563 13.188563 0.051044077
-12.615121 13.290013 0.051136229
-12.564118 13.399994 0.051261894
-12.514278 13.512048 0.051395934
-12.477035 13.638751 0.051585827
-12.421273 13.746213 0.051703114
-12.362 13.850519 0.051809229
-12.297943 13.950113 0.051898587
-12.24101 14.058492 0.052021459
-12.172124 14.153808 0.052096859
-12.18928 14.350934 0.052546453
-36.679989 43.723724 0.15934092
-36.190907 43.682304 0.1583775
-36.043148 44.051369 0.15891087
-35.582188 44.593533 0.15927948
-35.359264 44.876217 0.15951127
-33.297523 42.797203 0.15139061
-32.925858 42.859558 0.15089354
-32.39151 42.703846 0.14964248
-31.855528 42.536804 0.14836909
-31.416763 42.491852 0.14753692
-30.869505 42.29208 0.14618255
-30.378502 42.160229 0.14507951
-29.89493 42.030476 0.1439988
-29.492245 42.00769 0.14329788
-28.978197 41.818813 0.14204404
-28.535896 41.725094 0.14112808
-28.078497 41.601841 0.14012557
-27.696869 41.584415 0.13949166
-27.203922 41.392567 0.13828529
-26.829729 41.374123 0.13767093
-10.789439 16.864893 0.055875141
-25.907925 41.047421 0.13551511
-25.528723 41.001884 0.1348449
-25.044819 40.780266 0.13360782
-24.692579 40.765526 0.13306049
-24.244535 40.585754 0.13198537
-23.871712 40.52438 0.13130678
-23.520651 40.494556 0.1307399
-23.183777 40.48452 0.13024563
-23.018507 40.774048 0.13072035
-22.946836 41.23608 0.13174799
-22.776098 41.526905 0.13222831
-22.746731 42.083736 0.13355476
-22.637573 42.503185 0.13444278
-22.474863 42.82901 0.1350348
-22.406822 43.343639 0.13622162
-22.294731 43.783287 0.13717107
-22.188843 44.244633 0.13818756
-21.997978 44.544029 0.13869859
-22.015924 45.278008 0.14056121
-21.793386 45.528599 0.14092144
-20.983393 44.536125 0.13744754
-18.816723 40.581593 0.12488119
-18.574837 40.712662 0.12493145
-18.324678 40.825867 0.12493145
-18.039095 40.858864 0.12469129
-17.794424 40.983459 0.12473597
-17.547722 41.103825 0.12477227
-17.289379 41.196892 0.12473039
-20.313772 49.24773 0.14873213
-19.990927 49.321404 0.14858133
-19.68977 49.447784 0.14859529
-8.0647478 21.000599 0.062786639
-7.9858356 21.182556 0.063183174
-7.8543234 21.227407 0.063172005
-23.705956 80.344353 0.23389292
-5.6785865 24.749792 0.070876576
-5.5055041 24.689495 0.070605703
-5.3625875 24.762882 0.070720196
-11.433638 77.870758 0.21975437
-10.81126 76.912552 0.21685852
-10.34845 77.046822 0.21705399
-9.8727093 77.087044 0.21699256
-8.5372782 78.03405 0.21917911
0.2022395 7.748313 0.021610882
0.24772142 7.68296 0.021432161
0.29661909 7.7272611 0.021560617
3.646292 72.051498 0.20142983
11.833344 75.79451 0.21418887
2.4927208 10.71583 0.030689375
2.5023963 10.465938 0.030016378
2.5161183 9.7278118 0.028025309
2.5652521 9.6725597 0.027910814
2.6185229 9.6344414 0.027846586
2.941994 9.645236 0.028125839
2.9820774 9.5659018 0.027947117
3.0355585 9.5312252 0.027899643
3.102643 9.5390472 0.027977835
3.1614301 9.5207796 0.027980627
3.2992618 9.5427008 0.028162142
3.3896716 9.6128149 0.028430223
3.4665191 9.6417103 0.028578227
3.5947208 9.6256132 0.028659211
3.6615362 9.6239376 0.028720645
3.7411108 9.6544399 0.028879819
3.8534906 9.7661858 0.029284736
3.9494917 9.8323689 0.029555611
4.1069875 10.045843 0.030273288
4.1704702 10.025071 0.030287251
34.451984 64.226898 0.20349629
40.701839 65.837181 0.21611571
39.405197 62.024868 0.20517181
39.906849 61.971081 0.20580013
45.366169 62.569862 0.21578899
15.362584 19.136276 0.068494551
15.451328 19.006735 0.068368889
46.708984 56.744057 0.20520532
49.147442 55.416573 0.20681103
47.718113 53.144394 0.19941922
52.906349 52.750408 0.20859824
53.288158 52.483028 0.20883001
20.786385 18.552904 0.077771313
57.276154 50.495403 0.21319473
57.475555 50.047791 0.21278982
19.619678 16.664717 0.071851164
19.716198 16.53952 0.071831621
56.507263 37.137852 0.18879366
56.724846 36.784443 0.18876295
25.083637 16.047819 0.083121791
42.672024 25.847424 0.13928501
23.650547 14.127707 0.076897256
23.839319 14.042725 0.077229567
39.935188 20.644741 0.12550671
40.135075 20.436977 0.12573849
40.254353 20.187637 0.12572174
41.719234 19.34424 0.12838301
29.595219 13.502393 0.090806812
27.931145 11.923917 0.084774964
27.856249 11.690392 0.08432816
33.74876 13.438302 0.10140723
34.056885 13.319482 0.10208581
34.506901 13.009562 0.1029487
32.86232 12.159723 0.09781605
34.823742 12.643147 0.10342343
33.776196 11.563691 0.099661909
33.850956 11.127099 0.099472016
1.0982656 0.33071378 0.0031690586
1.0849283 0.31944072 0.0031243784
1.0993588 0.31638014 0.0031606811
1.1012794 0.30962864 0.0031606811
1.1089435 0.30445728 0.0031774363
1.113688 0.29842532 0.0031858138
1.1077594 0.28955868 0.0031634737
1.1133907 0.28374615 0.0031746437
1.1121997 0.27618453 0.0031662663
1.1119297 0.26888379 0.0031606811
1.1164784 0.26274496 0.0031690586
1.1122216 0.25454751 0.0031523036
1.1108345 0.24706525 0.0031439259
1.1093975 0.23960961 0.0031355484
1.1128042 0.23320931 0.0031411333
1.1112745 0.22577789 0.0031327559
1.1165632 0.21972959 0.0031439259
1.1178904 0.21287435 0.0031439259
1.1211423 0.2063743 0.0031495111
1.1322321 0.2012468 0.0031774363
1.151185 0.19734704 0.0032277016
1.179011 0.19469336 0.0033030999
1.1979588 0.19028877 0.0033533652
1.1981155 0.18278331 0.0033505727
1.2110871 0.17717171 0.003384083
1.2131418 0.16987647 0.0033868754
1.2191167 0.16309524 0.003400838
1.2220782 0.15586586 0.0034064231
1.2369088 0.15005776 0.0034455184
1.226879 0.14120194 0.0034148006
1.2555561 0.13671668 0.0034929914
1.2633344 0.12972878 0.003512539
1.2581346 0.12139533 0.0034957838
1.2638354 0.11412551 0.0035097464
1.262519 0.10619995 0.0035041615
1.2800947 0.099780999 0.0035516343
1.2796854 0.091852516 0.0035488419
1.2772315 0.083800845 0.0035404642
1.274727 0.075782754 0.0035320867
1.2681781 0.067583635 0.003512539
1.2655723 0.059658166 0.0035041615
1.2629173 0.051767219 0.0034957838
1.2512186 0.043593042 0.0034622736
1.2534616 0.035973303 0.0034678588
1.2546586 0.028304603 0.0034706511
1.2518091 0.020554813 0.0034622736
1.2489119 0.012841057 0.0034538961
1.2439671 0.0051542926 0.0034399335
1.2408781 0.00032440524 -0.017157244
1.2358574 -0.007259219 -0.017087433
1.2197922 -0.014647144 -0.016864039
1.1616949 -0.021068631 -0.016054232
29.707218 -0.72661644 -0.41477221
29.494318 -0.90252006 -0.4118681
29.257402 -1.0749941 -0.40864283
29.126383 -1.2491802 -0.40691152
29.066236 -1.4253258 -0.40618548
29.001036 -1.6005599 -0.40540361
28.736172 -1.7628623 -0.40184325
28.607094 -1.9312031 -0.40019572
28.575756 -2.1053004 -0.39993042
28.558313 -2.2802801 -0.39987457
28.478035 -2.449811 -0.39895308
28.317099 -2.6110973 -0.3969146
28.307508 -2.7854841 -0.39701232
28.292868 -2.9594352 -0.39705423
24.995567 -2.7696621 -0.35099298
22.958088 -2.6865761 -0.3225939
22.078781 -2.7210996 -0.31046078
21.867311 -2.8313539 -0.30772418
21.687033 -2.9434202 -0.30543438
21.604216 -3.0672975 -0.30452684
21.550369 -3.1946683 -0.30403817
21.277391 -3.2877474 -0.30046386
21.107748 -3.3942678 -0.29835555
21.024389 -3.5133352 -0.29747593
20.956133 -3.6342418 -0.29681972
20.9049 -3.7576275 -0.29641482
20.848026 -3.8796067 -0.2959401
20.723677 -3.9881797 -0.29451597
20.656645 -4.1068778 -0.2939156
20.622242 -4.2317386 -0.29378992
1.0516522 -0.22231875 -0.014839523
1.073715 -0.23387963 -0.015174614
1.0722598 -0.24046341 -0.015174614
1.0824553 -0.24973793 -0.015342161
1.0838212 -0.25706792 -0.015384047
1.0841663 -0.26418713 -0.015411972
0.99134892 -0.24800402 -0.014099526
0.9781872 -0.25109625 -0.01393198
0.97082663 -0.25556502 -0.013848207
0.95862168 -0.2586495 -0.013694623
0.95027071 -0.26266035 -0.013596888
0.94671708 -0.26794115 -0.013568964
0.94121373 -0.27263138 -0.013513115
0.94719219 -0.28067583 -0.013624812
0.93396974 -0.28300029 -0.013457267
0.9150244 -0.28339687 -0.013205947
0.92852008 -0.29383641 -0.013429342
0.91718596 -0.29645076 -0.01328972
0.91345084 -0.30144578 -0.013261796
0.90116131 -0.30353162 -0.013108212
0.89549977 -0.30775452 -0.013052363
0.91152155 -0.31953233 -0.013317645
0.91990012 -0.32882389 -0.013471228
0.91598636 -0.33377701 -0.013443304
0.92141932 -0.34217757 -0.013555001
0.94174528 -0.35632211 -0.013890094
0.93580949 -0.36065471 -0.013834246
0.95591587 -0.37516198 -0.014169337
1.0148734 -0.40551984 -0.015090842
1.0095876 -0.41060868 -0.015048955
0.96270573 -0.39843225 -0.01437877
1.0053942 -0.42335516 -0.015062917
1.0000205 -0.42833453 -0.015021031
0.97445786 -0.42447475 -0.014671976
0.97549164 -0.43206644 -0.014727824
0.96644062 -0.43516868 -0.01463009
0.96011579 -0.4394252 -0.014574241
0.94742948 -0.44066736 -0.014420656
0.92120546 -0.43535894 -0.01405764
0.91851676 -0.44100317 -0.01405764
0.91579354 -0.44663078 -0.01405764
0.90497261 -0.44824553 -0.01393198
0.90131205 -0.45334041 -0.013918018
0.89673263 -0.45795229 -0.013890094
0.8885802 -0.46068338 -0.013806321
0.88042831 -0.46333179 -0.013722547
0.87492317 -0.46731144 -0.013680661
0.86764449 -0.47028765 -0.01361085
0.8664946 -0.4765667 -0.013638775
0.86355412 -0.48187444 -0.013638775
0.85449082 -0.48371458 -0.013541039
0.85757571 -0.49243528 -0.013638775
0.85799378 -0.49970168 -0.013694623
0.8540507 -0.50444812 -0.013680661
0.86208928 -0.5163607 -0.013862169
0.87770414 -0.53306389 -0.014169337
0.86930889 -0.53529251 -0.014085565
0.89569092 -0.55915534 -0.014574241
0.92857015 -0.58764035 -0.015174614
0.92747152 -0.59494704 -0.015216501
0.92631811 -0.60226232 -0.015258388
0.92260522 -0.60793477 -0.015258388
0.90389192 -0.60358626 -0.015007068
0.85794282 -0.58053356 -0.014294997
0.80076844 -0.54902226 -0.013387456
0.78424758 -0.54479486 -0.01316406
18.936272 -13.333838 -0.32322222
18.85573 -13.450938 -0.32325014
18.771219 -13.565211 -0.32322222
12.225832 -8.949729 -0.21139911
12.141773 -9.0031357 -0.21089646
12.103092 -9.0900774 -0.21118967
12.016052 -9.1405592 -0.21064514
11.926474 -9.1884851 -0.21005873
11.497783 -8.9711609 -0.20346858
11.436243 -9.036582 -0.20335689
11.296264 -9.0391121 -0.20184897
8.4411583 -6.9260359 -0.15229718
7.6776114 -6.458777 -0.1399267
7.1118603 -6.0577273 -0.13027883
7.0260968 -6.0594559 -0.12938525
6.8125434 -5.9485559 -0.12611811
6.4358163 -5.6895652 -0.11977927
6.3978043 -5.7262797 -0.11972342
6.3647704 -5.7674427 -0.11976531
6.3322101 -5.8090911 -0.11982116
6.2817936 -5.8342266 -0.11954191
6.0200582 -5.6603241 -0.11521364
5.9576926 -5.6709585 -0.11468308
5.6196685 -5.4152985 -0.108805
5.582757 -5.446187 -0.10873519
5.5471001 -5.4782319 -0.1086933
5.5133824 -5.5121651 -0.1086933
5.4246426 -5.4904089 -0.10760425
5.2826047 -5.412672 -0.10544011
5.2465181 -5.4421039 -0.10538426
5.2233701 -5.485055 -0.1055937
5.2033176 -5.5315685 -0.10587294
5.1794877 -5.5743794 -0.10608237
5.1593838 -5.6215258 -0.10637558
5.0952458 -5.620481 -0.10576124
4.9866261 -5.5689516 -0.10421144
4.9503751 -5.5971975 -0.10416956
4.9297519 -5.643281 -0.10446276
4.9002576 -5.6794801 -0.10457446
4.8698564 -5.7147679 -0.10467219
4.8514395 -5.764432 -0.10503521
4.8587995 -5.8456135 -0.10597067
4.8862796 -5.9526043 -0.1073669
4.8931084 -6.0360703 -0.10833029
4.8659773 -6.0784702 -0.10855368
4.8403702 -6.123117 -0.10881896
4.8082457 -6.1597958 -0.10894462
4.7740216 -6.1939344 -0.10902839
4.7444034 -6.2342505 -0.10922386
4.7282844 -6.2928228 -0.10974047
4.6973276 -6.3321562 -0.10992197
4.663703 -6.3681197 -0.11004763
4.6380148 -6.4152536 -0.11036877
4.6148272 -6.4663806 -0.11075971
4.5790939 -6.5002971 -0.11085744
4.5499678 -6.5438704 -0.11112272
4.5283995 -6.5988722 -0.11158347
4.5007195 -6.645576 -0.1119046
4.4659696 -6.6822114 -0.11205819
4.4353433 -6.725348 -0.11232347
4.4054461 -6.7700367 -0.11261667
4.3730059 -6.8112445 -0.11285403
4.3482513 -6.8649797 -0.11330082
4.3230014 -6.9186668 -0.11374761
4.2893858 -6.9595332 -0.11398496
4.2543926 -6.9985375 -0.1141944
4.2293649 -7.0545263 -0.11468308
4.2007561 -7.1053061 -0.11508798
4.1626191 -7.14045 -0.11524156
4.137661 -7.1988001 -0.11577213
4.1067209 -7.2475414 -0.11614911
4.0782638 -7.3014116 -0.11660986
4.0464058 -7.3499484 -0.11698683
4.0088606 -7.3887005 -0.11721023
3.965806 -7.4175687 -0.11728004
3.9444501 -7.4877653 -0.11800607
3.9186966 -7.550878 -0.11862041
3.8845797 -7.5988193 -0.11899739
3.8509204 -7.6484113 -0.1194023
3.8207963 -7.7059379 -0.11993285
3.7879167 -7.7588892 -0.12039361
3.7549641 -7.8126268 -0.12086833
3.7159352 -7.8545012 -0.12116153
3.6837084 -7.9115996 -0.12169209
3.6509199 -7.9685974 -0.12222265
3.6085308 -8.005434 -0.12244605
3.5710955 -8.0539331 -0.12285095
3.5455899 -8.1306877 -0.12368868
3.5196698 -8.2083483 -0.12454037
3.4816666 -8.2592745 -0.12498716
3.4408739 -8.3044996 -0.12535018
3.3981485 -8.34583 -0.12565735
3.3476183 -8.3683805 -0.12568527
3.2691495 -8.3198957 -0.12465207
3.2173181 -8.3379326 -0.12462415
3.1710558 -8.3706074 -0.12481962
3.1335733 -8.4273958 -0.1253781
3.095856 -8.4849777 -0.12595056
3.123251 -8.7259903 -0.12924562
3.0925 -8.8100891 -0.13020901
3.0403364 -8.8345709 -0.13029279
2.984154 -8.8473759 -0.13020901
2.9335761 -8.8769121 -0.13037656
2.881824 -8.903307 -0.13050222
2.8250258 -8.9141493 -0.13040449
2.7803473 -8.9637871 -0.13087921
2.7331333 -9.0065117 -0.13125618
2.6963086 -9.0854206 -0.13216373
2.643575 -9.1123581 -0.1323173
2.5887036 -9.1322546 -0.13237315
2.5590301 -9.2433691 -0.13375542
2.5046134 -9.2675848 -0.13388108
2.4525449 -9.3011484 -0.13414636
2.4033954 -9.3470106 -0.13459314
2.3515878 -9.3838902 -0.13491428
2.3079529 -9.4554548 -0.13573804
2.2656076 -9.5355902 -0.13668747
2.2129092 -9.5746422 -0.13705049
2.1495166 -9.5675526 -0.13675728
2.0950341 -9.6000996 -0.13703653
2.0420973 -9.6411428 -0.13744143
1.9881324 -9.678957 -0.13780445
1.9335848 -9.7154903 -0.13815351
1.8739351 -9.7271709 -0.13815351
1.8145814 -9.7404528 -0.13818143
1.7561973 -9.7592764 -0.13829312
1.5890493 -9.1521673 -0.12953883
1.5162001 -9.0621395 -0.12812866
1.4615209 -9.0771952 -0.12821242
1.404268 -9.0761108 -0.12807281
1.3407713 -9.032136 -0.12733281
1.2730829 -8.9540672 -0.12611811
1.2024986 -8.8467789 -0.12449849
1.1530786 -8.8916702 -0.12502906
1.0912724 -8.8400288 -0.12420528
1.034217 -8.8227234 -0.12387019
0.9753198 -8.78617 -0.12326982
0.9211821 -8.79 -0.12324189
0.8605603 -8.7278214 -0.12229247
0.80321997 -8.6921158 -0.12172002
0.74892646 -8.6859217 -0.12156643
0.69258583 -8.6524782 -0.12103587
0.63241285 -8.5608349 -0.1196955
0.5785898 -8.545599 -0.11943021
0.52583706 -8.5439987 -0.11936041
0.47356799 -8.5500593 -0.1194023
0.42723998 -8.6776409 -0.12114757
0.37889072 -8.7939825 -0.12273926
0.32920343 -8.9120512 -0.12435887
0.27226889 -8.8409452 -0.12333963
0.22313786 -9.0503664 -0.12624376
0.16970913 -9.165534 -0.12783545
0.11359081 -9.1764021 -0.12797508
0.058147497 -9.3159094 -0.12991582
0.0010020724 -9.5240707 -0.13281995
-0.057297319 -9.5009003 -0.13249882
-0.1251363 -10.283236 -0.1434312
-0.19209687 -10.493217 -0.14637722
-0.25708985 -10.516832 -0.14672628
-0.34584239 -11.306608 -0.15778433
-0.41539553 -11.30927 -0.15785414
-0.48383734 -11.284531 -0.15754697
-0.55213815 -11.262374 -0.1572817
-0.62244475 -11.280739 -0.15758885
-0.69367105 -11.309642 -0.15804961
-0.76594901 -11.348071 -0.15864998
-0.83497715 -11.335179 -0.15853828
-0.9047516 -11.332832 -0.15858017
-0.96475804 -11.216487 -0.15703037
-1.0273193 -11.142651 -0.15608095
-1.0944948 -11.124196 -0.1559134
-1.1639793 -11.129205 -0.15608095
-1.2332362 -11.130797 -0.15620661
-1.3036023 -11.140898 -0.15645792
-1.3802545 -11.200171 -0.15740734
-1.4504924 -11.203391 -0.15757489
-1.5279495 -11.258684 -0.15848243
-1.6064205 -11.315424 -0.1594179
-1.6802194 -11.335027 -0.15983677
-1.7497382 -11.324505 -0.15983677
-1.8231601 -11.338236 -0.16018583
-1.8976403 -11.356421 -0.16060469
-1.9696785 -11.358357 -0.16080016
-2.0467651 -11.387391 -0.16138656
-2.1224525 -11.406075 -0.16183336
-2.1971231 -11.417384 -0.16218242
-2.272012 -11.428205 -0.16253147
-2.3477197 -11.441475 -0.16292241
-2.4247103 -11.459137 -0.16338316
-2.5013671 -11.473351 -0.16380203
-2.5857351 -11.520227 -0.16469561
-2.6664975 -11.547987 -0.1653239
-2.7474663 -11.574213 -0.16593824
-2.8181958 -11.556167 -0.16592428
-2.8781207 -11.495008 -0.16529599
-2.951833 -11.489722 -0.16547748
-3.0276272 -11.491699 -0.16577069
-3.0986035 -11.474836 -0.16579862
-3.1678867 -11.451753 -0.16574277
-3.2397289 -11.437872 -0.16582654
-3.2975991 -11.375522 -0.16521221
-3.366483 -11.352198 -0.16517033
-3.4134417 -11.256692 -0.16408128
-3.4774141 -11.219299 -0.16384391
-3.5416605 -11.183453 -0.16363448
-3.5855951 -11.085402 -0.1625175
-3.6999552 -11.203712 -0.16458391
-3.7363718 -11.085099 -0.16317374
-3.784806 -11.005233 -0.16233599
-3.8694735 -11.030866 -0.16306204
-3.9431467 -11.023862 -0.16331334
-4.0045476 -10.982551 -0.16306204
-4.0356359 -10.860296 -0.16160996
-4.0823708 -10.782962 -0.16082808
-4.1297479 -10.709198 -0.16010205
-4.192091 -10.675281 -0.15997639
-4.2541738 -10.641001 -0.15985073
-4.3348384 -10.65267 -0.16042317
-4.3978248 -10.620328 -0.1603394
-4.4652362 -10.598672 -0.16042317
-4.590054 -10.710772 -0.16254543
-4.6804576 -10.739237 -0.16341108
-4.7567973 -10.734083 -0.1637741
-4.8246245 -10.709252 -0.16384391
-4.783668 -10.446714 -0.1602696
-4.8476777 -10.417166 -0.1602696
-4.9025288 -10.368242 -0.15997639
-4.9556632 -10.316334 -0.1596413
-5.0035224 -10.254281 -0.15915263
-5.0694556 -10.229659 -0.15925036
-5.2152843 -10.363598 -0.16183336
-5.2919703 -10.357224 -0.16223827
-5.3641691 -10.341422 -0.16250354
-5.414012 -10.282656 -0.16209865
-5.3752074 -10.058758 -0.15908282
-5.4458823 -10.042287 -0.15934809
-5.5093265 -10.012186 -0.15940394
-5.5623698 -9.9633522 -0.15916659
-5.6100941 -9.9055424 -0.1587896
-5.6622996 -9.8561945 -0.15855224
-5.7347517 -9.842 -0.15888734
-5.8006291 -9.8160963 -0.15904093
-5.8669181 -9.7906113 -0.15920848
-5.9268818 -9.7544279 -0.15920848
-5.9929156 -9.7280941 -0.15937601
-6.0419002 -9.6741772 -0.15909678
-6.0936575 -9.6250954 -0.1589013
-6.13694 -9.5631199 -0.15849639
-4.8646617 -7.4792686 -0.12441472
-3.8163939 -5.7896438 -0.096657902
-3.4474802 -5.1608343 -0.086493433
-3.475158 -5.1337876 -0.086395696
-3.445507 -5.0233154 -0.08488778
-3.4408839 -4.9511738 -0.084022127
-3.4625635 -4.9177041 -0.083812691
-3.4975667 -4.7781024 -0.082514212
-3.5506418 -4.7886791 -0.0830727
-3.5691488 -4.7524114 -0.082821377
-3.5873449 -4.7160974 -0.082570061
-3.6082814 -4.6837006 -0.08238855
-3.6234198 -4.6441293 -0.082081385
-3.6264303 -4.589643 -0.081508934
-3.6301589 -4.5368571 -0.080964409
-3.7462211 -4.3982491 -0.080503657
-3.7737906 -4.375937 -0.08051762
-3.82885 -4.3850856 -0.081117995
-3.8424385 -4.3465271 -0.080838747
-3.9170508 -4.3765116 -0.081844024
-3.9122736 -4.3175702 -0.081187807
-3.9704623 -4.3281136 -0.081844024
-4.0091934 -4.3168573 -0.082095347
-4.0232763 -4.2790642 -0.081844024
-4.0859952 -4.2926812 -0.082584023
-4.1191964 -4.2747293 -0.082723647
-4.089488 -4.1921167 -0.081606671
-4.1221595 -4.1740589 -0.081746295
-4.1674891 -4.1684861 -0.082137235
-4.2107706 -4.1604052 -0.082486287
-4.2161822 -4.1149359 -0.082095347
-4.2485504 -4.0959277 -0.082234971
-4.3583245 -4.1504574 -0.083868541
-4.4405193 -4.177073 -0.084957592
-4.4777861 -4.1606374 -0.08518099
-4.5157547 -4.144577 -0.085418344
-4.5818458 -4.1537271 -0.086186267
-4.6251245 -4.1415424 -0.086521357
-4.6908965 -4.1488557 -0.087275319
-4.8111506 -4.2028785 -0.08903455
-9.2029381 -7.9401159 -0.16955444
-9.1160126 -7.7680631 -0.16706918
-9.1856909 -7.7306533 -0.16747408
-9.2467947 -7.6856499 -0.1677254
-9.3022795 -7.6357465 -0.16787899
-9.3761435 -7.6005621 -0.16836765
-9.4101143 -7.5328903 -0.16814427
-7.6590295 -6.0544496 -0.13615692
-7.6148486 -5.9439712 -0.13471881
-7.5252519 -5.8000841 -0.13249882
-7.4843106 -5.6956711 -0.13115846
-7.4815454 -5.6214113 -0.13050222
-7.4508476 -5.5271473 -0.12937129
-7.3619995 -5.3915291 -0.12724903
-7.2109976 -5.2132773 -0.12407962
-7.2021546 -5.1398916 -0.12338152
-7.1182957 -5.0144129 -0.12141285
-7.1152692 -4.9472394 -0.1208404
-7.0416083 -4.8322039 -0.11908116
-6.9883342 -4.7328386 -0.11768495
-6.9374337 -4.6365342 -0.11634458
-6.8989735 -4.5498414 -0.1152276
-6.8454657 -4.4545269 -0.11387327
-6.7759047 -4.350318 -0.11226762
-6.7222209 -4.257834 -0.11094121
-6.7168446 -4.1969037 -0.11042461
-6.573926 -4.0517383 -0.1076601
-6.5559416 -3.9853563 -0.10696199
-6.4421978 -3.8622811 -0.10471408
-6.41327 -3.79164 -0.10386239
-6.3543487 -3.7043796 -0.10253598
-6.2911339 -3.6159933 -0.10115372
-6.2566552 -3.5452838 -0.10024618
-6.2136908 -3.4707463 -0.099212982
-6.1884451 -3.4069974 -0.098472983
-6.1960502 -3.3618095 -0.098263554
-6.1874619 -3.308171 -0.097802803
-6.1713724 -3.2510369 -0.097230352
-6.1796665 -3.2071214 -0.097048841
-6.1983385 -3.1686883 -0.097034879
-6.2015886 -3.1225028 -0.096783563
-6.2143602 -3.0812829 -0.096685827
-6.2390871 -2.9987271 -0.096490353
-6.261889 -2.9625263 -0.096560165
-6.2853875 -2.9265807 -0.09664394
-6.2959542 -2.8846273 -0.096532241
-6.3408828 -2.858268 -0.096951105
-6.3774972 -2.8278182 -0.097244315
-6.4350572 -2.8062184 -0.097858645
-6.4659395 -2.7725914 -0.098068081
-6.4957294 -2.7383022 -0.098263554
-6.5410452 -2.710258 -0.098696381
-6.5797782 -2.679121 -0.099031471
-6.6165175 -2.6468678 -0.099338643
-6.7284904 -2.643882 -0.10077675
-6.7613783 -2.6090257 -0.10102806
-6.8062463 -2.57847 -0.10146089
-6.8659887 -2.5530367 -0.10211711
-6.9190984 -2.5245681 -0.1026756
-6.9514046 -2.4881303 -0.10292692
-7.0354142 -2.4696045 -0.10394616
-7.095818 -2.4420068 -0.10461634
-7.1428823 -2.4092865 -0.10509106
-7.3322225 -2.4231393 -0.1076601
-13.644671 -4.4163852 -0.20008974
-13.73347 -4.3522134 -0.20099728
-13.787613 -4.2764544 -0.20140219
-13.910232 -4.2210984 -0.20281236
-13.989551 -4.151597 -0.20359424
-14.133841 -4.1002231 -0.20532556
-14.255895 -4.0409627 -0.20673573
-14.418225 -3.9915614 -0.20873232
-14.532216 -3.9272768 -0.21003081
-14.589881 -3.846957 -0.21051948
-14.723609 -3.7857466 -0.21211118
-14.786326 -3.7052975 -0.21268362
-14.86901 -3.6291995 -0.21354927
-14.937695 -3.5489902 -0.21421947
-15.024462 -3.4723518 -0.21515493
-15.133288 -3.3998225 -0.21641153
-15.193918 -3.3156424 -0.21698397
-15.27267 -3.2347822 -0.2178217
-15.376463 -3.1583102 -0.21902245
-15.455373 -3.0758069 -0.21987414
-15.507338 -2.9873466 -0.22034886
-15.563713 -2.8992803 -0.22089338
-15.725873 -2.8297575 -0.22294582
-15.8385 -2.7498016 -0.22430016
-16.005962 -2.6778083 -0.22643638
-16.057631 -2.5852685 -0.22693901
-16.101849 -2.4911251 -0.22734392
-16.30772 -2.4206107 -0.23003861
-16.328205 -2.3213472 -0.23012239
-16.31242 -2.2170761 -0.22970352
-17.026777 -2.20784 -0.23957478
-16.994354 -2.0976899 -0.23893252
-17.210493 -2.0172346 -0.24179476
-17.476959 -1.9398301 -0.24536909
-16.68899 -1.7487859 -0.2341435
-16.856628 -1.6618494 -0.23634952
-16.998932 -1.5706213 -0.23820649
-17.107868 -1.4748752 -0.2396027
-17.221251 -1.37825 -0.24106874
-17.265282 -1.2752075 -0.24157137
-17.433399 -1.1801163 -0.24381928
-17.489214 -1.076133 -0.24450344
-17.599319 -0.97454923 -0.2459555
-17.575006 -0.86506921 -0.24553664
-18.520021 -0.79769254 -0.25867504
-18.36569 -0.67817605 -0.25645506
-18.384499 -0.56593484 -0.25666448
-18.809454 -0.46350893 -0.26255652
-17.994164 -0.3329654 -0.25113547
-18.116848 -0.22404364 -0.2528249
-18.143877 -0.11303818 -0.25318789
-18.217222 -0.0017132792 -0.25420713
-18.254887 0.11029557 -0.2547377
-18.287859 0.22271778 -0.25521243
-18.379124 0.33662984 -0.25651091
-18.396706 0.44988483 -0.25679016
-18.541515 0.56728375 -0.25885656
-18.629614 0.68442005 -0.26014107
-18.648041 0.79970193 -0.26046219
-18.634792 0.91371727 -0.2603505
-18.616856 1.0273798 -0.26018295
-18.563293 1.1387132 -0.25952673
-18.505077 1.249159 -0.25881466
-18.499058 1.3628273 -0.25884259
-18.496328 1.4767874 -0.25892636
-18.482935 1.5899081 -0.25887051
-18.464867 1.7025528 -0.25875881
-18.443125 1.8147418 -0.25860524
-18.418715 1.9265201 -0.25842372
-18.397602 2.0385079 -0.25829807
-18.372831 2.1499603 -0.25813052
-18.294786 2.2547028 -0.25722298
-18.196321 2.3560007 -0.25603619
-18.104239 2.4571168 -0.25494716
-18.096741 2.5692806 -0.25505885
-18.040081 2.6742599 -0.25448638
-17.975903 2.7775717 -0.25381622
-17.896326 2.8778152 -0.2529366
-17.864523 2.9852636 -0.25274113
-17.758188 3.0796151 -0.25149849
-17.694672 3.1805584 -0.2508702
-17.665976 3.2874248 -0.25074452
-17.625834 3.3919797 -0.25046527
-17.448757 3.4690623 -0.2482453
-17.349762 3.5601811 -0.24714229
-17.291397 3.658911 -0.24662568
-17.207071 3.7515206 -0.24574606
-17.079338 3.8335974 -0.24425212
-16.95417 3.9149241 -0.24280004
-16.837408 3.9969382 -0.24147364
-16.766909 4.0890403 -0.24081741
-16.708525 4.1835852 -0.24034271
-16.650581 4.2778168 -0.23988195
-16.575676 4.3671646 -0.23918384
-16.503197 4.4565363 -0.23852763
-16.452414 4.5513153 -0.23819253
-16.40686 4.6472745 -0.23794121
-16.365551 4.7442379 -0.23775969
-16.341885 4.8462715 -0.23784347
-16.322367 4.9496446 -0.23799706
-16.282137 5.0467429 -0.23785743
-16.077375 5.0916076 -0.23531632
-16.025852 5.1836987 -0.23502311
-15.986149 5.2794247 -0.23491141
-15.938293 5.3723044 -0.23468801
-15.910703 5.4719501 -0.23477179
-15.874941 5.5688114 -0.23474386
-15.832941 5.6634188 -0.23463216
-15.798832 5.7608037 -0.23464613
-15.756626 5.855197 -0.23454839
-15.711052 5.9482274 -0.23440878
-15.667728 6.0419979 -0.23431104
-15.636875 6.1405783 -0.23440878
-15.603544 6.2382646 -0.23447859
-15.564974 6.333889 -0.23447859
-15.517502 6.4258313 -0.23435293
-15.458431 6.5127711 -0.23405972
-15.421855 6.6090751 -0.23411557
-15.388345 6.7067738 -0.23422727
-15.353303 6.8039045 -0.23432501
-15.315824 6.9000359 -0.23439482
-15.286835 7.0001268 -0.23460424
-15.246314 7.0950589 -0.23464613
-15.209724 7.1918945 -0.23475783
-15.167111 7.2859502 -0.23478575
-15.125715 7.3806305 -0.2348416
-15.086415 7.4764094 -0.23493934
-15.037578 7.5674887 -0.23489745
-14.990861 7.659615 -0.23489745
-14.955118 7.7574387 -0.23507896
-14.916086 7.853714 -0.23521858
-14.875553 7.9493313 -0.23534425
-14.827375 8.0409327 -0.23535821
-14.784766 8.1356173 -0.23546991
-14.739807 8.2291059 -0.23555367
-14.700347 8.325799 -0.23573518
-14.686265 8.4372606 -0.23633556
-14.65668 8.5403042 -0.23669857
-14.613472 8.6356707 -0.23685215
-14.565355 8.7282581 -0.23693593
-14.52178 8.8236961 -0.23710348
-14.475027 8.9173546 -0.23722914
-14.426824 9.0102415 -0.23734084
-14.391541 9.1114302 -0.23767592
-14.374074 9.2244053 -0.23831819
-14.333129 9.3227892 -0.23858346
-14.285673 9.4171638 -0.23875101
-14.236768 9.5107517 -0.2389046
-14.198843 9.6119413 -0.23925366
-14.160212 9.7130222 -0.2396027
-14.103632 9.8020086 -0.23965855
-14.059573 9.8998756 -0.2399378
-14.025427 10.005119 -0.24039856
-13.97917 10.102118 -0.24066383
-13.94516 10.208374 -0.24115251
-13.903946 10.309829 -0.24152949
-13.857214 10.407557 -0.24182269
-13.805031 10.501469 -0.24203213
-13.760138 10.601233 -0.24238119
-13.697195 10.68731 -0.24242307
-13.635283 10.774253 -0.24249288
-13.580627 10.867086 -0.24270231
-13.543991 10.974761 -0.24324684
-13.504996 11.081127 -0.24376343
-13.446748 11.172091 -0.24394494
-13.396308 11.269836 -0.24428004
-13.36268 11.382298 -0.24493626
-13.341805 11.506523 -0.2458438
-13.271706 11.588828 -0.24585776
-13.236305 11.701833 -0.24652795
-13.200017 11.814839 -0.24719813
-13.156911 11.922468 -0.24775662
-13.10635 12.023928 -0.24818945
-13.051373 12.121813 -0.24855247
-12.997147 12.220845 -0.2489434
-12.953782 12.330699 -0.24955775
-12.908838 12.439785 -0.2501581
-12.859464 12.545291 -0.25068867
-12.84485 12.68579 -0.25191736
-12.780912 12.778505 -0.25219658
-12.741618 12.896521 -0.25297847
-12.712528 13.025982 -0.25398377
-12.702454 13.176447 -0.25539392
-12.64343 13.277311 -0.25584072
-12.600773 13.396155 -0.25663656
-12.5653 13.523765 -0.25759995
-12.528056 13.650703 -0.25854939
-12.474282 13.760655 -0.25917768
-12.39695 13.845131 -0.25933126
-12.324351 13.935167 -0.25959656
-12.282029 14.060228 -0.26051804
-12.268027 14.21936 -0.26206785
-12.187682 14.302739 -0.26222143
-24.327982 28.907658 -0.52740514
-24.332302 29.275547 -0.53138435
-24.172514 29.449026 -0.53183115
-24.019695 29.631746 -0.53245944
-23.871168 29.820724 -0.53321338
-23.786333 30.091356 -0.53543341
-23.668924 30.323446 -0.53696924
-23.492794 30.481567 -0.53720659
-31.847628 42.387794 -0.74016082
-31.401081 42.331844 -0.73580462
-30.928663 42.234112 -0.73079222
-30.596298 42.322609 -0.72906089
-29.917841 41.923531 -0.71900815
-29.540844 41.937103 -0.71611798
-29.165386 41.948452 -0.71324176
-28.711697 41.841351 -0.70841086
-21.784637 32.16782 -0.54231673
-21.580183 32.290905 -0.54214919
-21.37834 32.417702 -0.54206544
-21.100498 32.427582 -0.54005486
-10.817445 16.849489 -0.27942285
-25.880985 40.862724 -0.6752367
-25.617052 41.000408 -0.6749016
-25.159874 40.82399 -0.66944242
-24.756212 40.726395 -0.6653375
-24.27861 40.498466 -0.65916622
-23.923819 40.467644 -0.6562621
-23.628235 40.533337 -0.65496361
-23.262489 40.474693 -0.65169644
-23.07877 40.731503 -0.65353948
-22.931778 41.057415 -0.65649945
-22.860733 41.526703 -0.66174924
-22.804335 42.032688 -0.66757149
-22.650183 42.366703 -0.6706571
-22.544512 42.798592 -0.67529255
-22.375896 43.118057 -0.67815483
-22.308882 43.641834 -0.68422836
-19.831146 39.389202 -0.61561817
-19.525572 39.382034 -0.61362159
-19.196709 39.323189 -0.61085707
-18.924313 39.376247 -0.60986578
-18.656693 39.437393 -0.60902804
-18.400009 39.520306 -0.60855335
-17.984755 39.256119 -0.60277301
-17.736149 39.349323 -0.60252166
-17.496399 39.461979 -0.60259145
-17.235552 39.526432 -0.60194921
-16.991121 39.627766 -0.60189337
-16.759691 39.759842 -0.60232621
-16.513882 39.858231 -0.60227036
-16.301432 40.038452 -0.6034711
-16.116728 40.290905 -0.60577488
-15.938678 40.565861 -0.60842764
-8.0768175 20.932644 -0.31312755
-15.827526 41.782291 -0.62371624
-7.8754358 21.181074 -0.31537545
-29.917929 83.592796 -1.239588
-5.5642438 24.768206 -0.35430202
-9.4921961 46.215675 -0.65863568
-11.569739 77.951385 -1.1002315
-10.472654 77.060051 -1.0857527
-6.5609803 50.601448 -0.71232027
-8.617837 77.649628 -1.0907512
-2.8612816 29.024464 -0.40707907
-4.7207465 76.733421 -1.0733263
-4.251986 76.799889 -1.0738709
-1.1563581 31.319603 -0.43746078
-2.3102469 75.071136 -1.0485854
-1.8486894 75.047913 -1.0480828
-0.20520031 32.966145 -0.46016327
-0.0029171936 32.932789 -0.45968857
0.18780302 7.6849556 -0.10717142
0.23528996 7.6946521 -0.10732501
0.28220525 7.6850696 -0.10721331
3.5408721 72.20118 -1.0092261
2.5044677 37.097935 -0.51902783
2.7322695 37.084858 -0.51906973
5.3275366 41.144474 -0.57914901
5.98877 42.179817 -0.59471679
10.44974 70.487679 -0.99484497
11.710607 75.784065 -1.0706037
2.182337 9.7231264 -0.13897727
2.2304819 9.6598654 -0.13826519
2.2850926 9.6265402 -0.13798596
2.6227524 9.2597904 -0.13421616
2.7942016 9.2147293 -0.13428597
2.9046547 9.172121 -0.13417429
2.963649 9.1626873 -0.13429993
3.0276537 9.168067 -0.13464899
3.0953491 9.1834278 -0.13515164
3.1568425 9.1793909 -0.13537502
3.2147617 9.164566 -0.13544483
3.2635245 9.1239557 -0.13513768
3.3670614 9.2343349 -0.13707842
3.4783432 9.3606539 -0.13927047
3.4999542 9.2446871 -0.1378603
3.5817974 9.2883434 -0.13883765
3.6617489 9.3248253 -0.13971727
4.1004095 10.076604 -0.1517387
4.6021175 11.113648 -0.16779521
3.893677 9.0858793 -0.1378603
11.392842 21.637524 -0.34128928
12.514583 23.076468 -0.36639327
21.174515 38.479465 -0.61311895
22.052656 39.4995 -0.63152111
38.424271 63.236095 -1.0330595
40.401745 65.580322 -1.0753928
25.556786 36.29454 -0.61966723
16.640884 20.795971 -0.37174079
15.422273 19.032537 -0.34188965
46.520229 56.69487 -1.0238863
46.914513 56.465275 -1.0249195
47.237564 56.14957 -1.0244309
49.195389 55.645351 -1.0369549
49.505886 55.308918 -1.0363266
32.796623 33.617439 -0.65563381
31.998928 32.399662 -0.63569582
52.73843 52.747375 -1.0413669
53.243893 52.603394 -1.0449553
57.555443 50.275482 -1.0669457
19.644552 16.532473 -0.35835105
36.555687 30.005772 -0.66021341
67.878838 52.315319 -1.1965008
66.494972 45.03133 -1.1212167
25.028177 16.068068 -0.41513523
49.262695 31.20117 -0.8140766
43.275578 27.038563 -0.71236217
48.639977 29.976826 -0.79764313
23.825209 14.085186 -0.38630334
39.396141 20.752262 -0.62159401
39.334579 20.412502 -0.61863405
38.518906 19.690166 -0.60388994
38.373745 19.319904 -0.59974319
38.173542 18.926411 -0.59478664
37.960087 18.531281 -0.58967644
37.753143 18.144253 -0.5847199
37.315117 17.652718 -0.57624483
37.361088 17.394726 -0.57529539
29.485699 13.508607 -0.45270747
36.674736 16.530634 -0.56155664
27.907969 11.763926 -0.42273065
35.139442 14.306856 -0.52961117
33.588894 13.435902 -0.50498188
34.075531 13.388611 -0.51105541
33.768967 13.029541 -0.50524718
33.718304 12.772858 -0.50330639
32.915058 12.238173 -0.49018195
33.121037 12.083959 -0.49213666
33.266109 11.906111 -0.4931978
33.547047 11.774954 -0.49628344
33.717937 11.603054 -0.49774948
36.203594 12.210476 -0.53333908
36.338596 12.008183 -0.53423262
36.457256 11.799766 -0.53490281
36.738674 11.642298 -0.53797454
36.822788 11.420802 -0.53816998
1.0639219 0.32306519 -0.015356123
1.1118964 0.330185 -0.016026307
1.1417506 0.33143485 -0.016431211
1.1245226 0.31896952 -0.016151967
1.11104 0.30779532 -0.015928572
1.1061507 0.29914638 -0.015830837
1.1002306 0.29031417 -0.01571914
1.1019912 0.28355783 -0.01571914
1.1056502 0.27727684 -0.015747065
1.1063594 0.27025041 -0.015733102
1.1070238 0.26322573 -0.01571914
1.1105666 0.25687847 -0.015747065
1.1130974 0.2502785 -0.015761025
1.1116815 0.24280445 -0.01571914
1.0955427 0.23224965 -0.015467821
1.1047828 0.22713247 -0.015579518
1.0943875 0.21800755 -0.015411972
1.0996319 0.21204492 -0.015467821
1.1097593 0.20694165 -0.01559348
1.1110083 0.20012839 -0.01559348
1.1240373 0.19535992 -0.015761025
1.1548008 0.19340861 -0.016179891
1.1530042 0.18584248 -0.016138004
1.2193406 0.18885325 -0.017059509
1.2204764 0.18136795 -0.017059509
1.2275059 0.17472018 -0.017143281
1.2662053 0.17230172 -0.017673844
1.2345157 0.16028649 -0.017213093
1.254331 0.15503573 -0.017478375
1.2691622 0.14896582 -0.017673844
1.2720399 0.14139618 -0.017701769
1.2669169 0.13296327 -0.017617997
1.2657187 0.12499093 -0.017590072
1.2654662 0.11713029 -0.01757611
1.2701459 0.10970681 -0.017631959
1.2727884 0.10207079 -0.017659882
1.2723936 0.094185553 -0.01764592
1.2769381 0.086646594 -0.017701769
1.2724556 0.078502834 -0.017631959
1.2729133 0.070693716 -0.017631959
1.2703271 0.0627345 -0.017590072
1.2596993 0.054465566 -0.017436488
1.2480191 0.046292547 -0.017268941
1.2462809 0.038572464 -0.017241018
1.2424957 0.030826224 -0.017185168
1.2426614 0.023201833 -0.017185168
1.2447801 0.015601274 -0.017213093
1.2508516 0.0080004549 -0.017296866
1.2422956 -0.0029055837 -0.041023325
1.2332597 -0.010456583 -0.040723357
1.2051905 -0.01762929 -0.039790127
11.045575 -0.22406562 -0.36802018
11.280779 -0.29807889 -0.37591931
11.309705 -0.36829746 -0.37695253
11.36216 -0.43980861 -0.37878564
24.944065 -1.1180848 -0.83226842
12.601599 -0.6426717 -0.42038101
12.744097 -0.72835714 -0.42528045
12.718442 -0.80521464 -0.42458054
12.689333 -0.88157719 -0.42378062
12.641827 -0.95625687 -0.42238078
12.615798 -1.0321786 -0.42171419
21.687122 -1.9079224 -0.72561365
21.453115 -2.0200689 -0.71818113
21.342859 -2.1418874 -0.7149148
21.221981 -2.2613704 -0.71131521
20.873014 -2.3538115 -0.70008314
20.617014 -2.4531536 -0.69198406
20.423067 -2.557265 -0.68598473
20.295015 -2.667815 -0.68221849
19.66935 -2.7084656 -0.66172075
19.62565 -2.825259 -0.66082084
18.815283 -2.8265746 -0.63409048
18.608986 -2.9124589 -0.62772453
18.504944 -3.0126181 -0.62482488
18.333364 -3.1002808 -0.61965877
18.175194 -3.1883693 -0.6149593
18.065802 -3.2835691 -0.61192632
17.971647 -3.3805027 -0.60942662
17.945662 -3.4897573 -0.60925996
17.909214 -3.5968528 -0.60876
17.877998 -3.704849 -0.60846001
17.853952 -3.8142679 -0.60842669
17.806786 -3.9185915 -0.6076268
17.758038 -4.0222592 -0.60679352
17.646391 -4.1109662 -0.60382724
0.97278887 -0.23355712 -0.032957558
17.466505 -4.2957025 -0.5994277
0.98632336 -0.24963546 -0.033524159
0.98283803 -0.25518164 -0.033457503
0.98125374 -0.26120743 -0.033457503
0.97095305 -0.26486173 -0.033157535
0.96160764 -0.26866788 -0.032890897
0.95994097 -0.27456316 -0.032890897
0.95152253 -0.27848732 -0.03265759
0.94979584 -0.2843205 -0.03265759
0.94516575 -0.28926742 -0.032557603
0.94337302 -0.29506141 -0.032557603
0.94535375 -0.30205852 -0.03269092
0.94348258 -0.30785343 -0.03269092
0.94347268 -0.31426719 -0.03275758
0.95004493 -0.32293972 -0.033057544
0.96504635 -0.33464622 -0.03365748
0.97334194 -0.34422031 -0.034024104
0.97121149 -0.35018617 -0.034024104
0.98687249 -0.36267811 -0.034657367
0.99399042 -0.37222591 -0.034990665
0.99448985 -0.37938491 -0.035090651
1.0014614 -0.38909373 -0.035423949
0.99254805 -0.39266154 -0.035190642
1.0105211 -0.40694582 -0.035923894
0.98857981 -0.40519056 -0.035223972
0.96485358 -0.40241337 -0.034457389
0.97893155 -0.41534242 -0.035057321
0.97544676 -0.42094579 -0.035023995
0.95179027 -0.41769856 -0.034257412
0.94373167 -0.42109072 -0.034057435
0.93293607 -0.423163 -0.033757467
0.9248746 -0.42637235 -0.03355749
0.91861969 -0.43034559 -0.033424173
0.90874016 -0.43254238 -0.033157535
0.90336883 -0.43680671 -0.033057544
0.90246642 -0.44322145 -0.033124205
0.88720465 -0.44251353 -0.03265759
0.89249986 -0.45200783 -0.032957558
0.88348573 -0.45428047 -0.03272425
0.87536389 -0.45692152 -0.032524273
0.87872791 -0.46555531 -0.03275758
0.86704904 -0.46621096 -0.032424282
0.86153919 -0.47008792 -0.032324295
0.86213738 -0.47729939 -0.032457612
0.85657734 -0.48111379 -0.032357626
0.85882139 -0.48932582 -0.032557603
0.85753405 -0.49558529 -0.03262426
0.85533971 -0.50134248 -0.03265759
0.85998255 -0.51117235 -0.032957558
0.86282414 -0.52004707 -0.033190865
0.85620433 -0.52324903 -0.033057544
0.860627 -0.5332253 -0.033357512
0.84463871 -0.53053027 -0.032857567
0.82618612 -0.52605063 -0.032257635
9.2618027 -5.9694538 -0.36705363
9.2024078 -6.0114145 -0.36615372
9.1145115 -6.0341144 -0.36412063
9.0374756 -6.0632014 -0.36252078
8.8860359 -6.0410047 -0.3579213
8.6019573 -6.0823803 -0.35092208
8.2750893 -6.0049419 -0.34055659
8.235672 -6.0538282 -0.3404566
8.1206083 -6.0463557 -0.33722362
7.9660492 -6.0076141 -0.33232418
7.9155345 -6.0460668 -0.33175758
7.8142524 -6.0449924 -0.32905787
7.6511273 -5.9942145 -0.32372513
7.3753905 -5.8516016 -0.31355959
7.3159719 -5.8779683 -0.31255969
7.157268 -5.8230972 -0.30729362
7.0373182 -5.7976408 -0.30366069
6.965539 -5.8106241 -0.30209419
6.9083738 -5.8351979 -0.30116096
6.5670805 -5.6163645 -0.28776246
6.4932041 -5.6225362 -0.28602934
6.2917333 -5.5160165 -0.27863017
6.1770377 -5.4828701 -0.27503055
6.1232061 -5.5026331 -0.27413064
6.0664086 -5.5192523 -0.27309743
6.0140495 -5.5394449 -0.27226421
5.9302382 -5.5298967 -0.26999778
5.7755446 -5.4522996 -0.26446506
5.5721722 -5.3253741 -0.2566326
5.5307708 -5.3511257 -0.25623265
5.5128284 -5.3996458 -0.25693259
5.456171 -5.4101496 -0.2558327
5.3572674 -5.3776827 -0.25273305
5.2505574 -5.3356605 -0.24923344
5.2128425 -5.3627605 -0.24900013
