# .PCD v0.7 - Point Cloud Data file format
VERSION 0.7
FIELDS x y z
SIZE 4 4 4
TYPE F F F
COUNT 1 1 1
WIDTH 1448
HEIGHT 1
VIEWPOINT 0 0 0 1 0 0 0
POINTS 1448
DATA ascii
-1.2851096 2.9762523 -0.76406127
-1.2565581 2.9598951 -0.75784534
-1.233127 2.9549758 -0.75462228
-1.2116499 2.9543829 -0.7525503
-1.2004086 2.9789121 -0.75692445
-1.1781687 2.9762681 -0.75439203
-1.1567115 2.9752781 -0.75232005
-1.1242079 2.9450428 -0.74288106
-1.1054336 2.950063 -0.74242061
-1.107123 3.010679 -0.75600356
-1.0823556 3.0000226 -0.75162941
-1.0600327 2.9955986 -0.74886674
-1.0288754 2.9652705 -0.739658
-1.0144207 2.9825838 -0.74242061
-0.99394757 2.9822893 -0.74080908
-0.98227257 3.0086842 -0.74587393
-0.96882963 3.0304129 -0.74978763
-0.94818306 3.0297992 -0.7481761
-0.94125414 3.0737109 -0.75761509
-0.92349315 3.0831575 -0.75853598
-0.90565151 3.0925016 -0.75945687
-0.89040691 3.1110988 -0.76267993
-0.86684775 3.1005709 -0.75876623
-0.85497987 3.1321182 -0.76521236
-0.8397522 3.1523511 -0.76889586
-0.82112783 3.1602702 -0.7695865
-0.79813844 3.1510983 -0.76613325
-0.77389413 3.1360953 -0.7612986
-0.7541824 3.1388924 -0.76083821
-0.73180789 3.1301944 -0.75761509
-0.71625346 3.1507578 -0.76152885
-0.70488018 3.1912029 -0.7702772
-0.67916667 3.1669221 -0.76337057
-0.66130716 3.178652 -0.76521236
-0.6500591 3.2236698 -0.77511179
-0.63679183 3.2610269 -0.78316951
-0.61370093 3.2486165 -0.77925575
-0.59410566 3.2542357 -0.77971619
-0.57041287 3.2367353 -0.77465135
-0.5494014 3.2334585 -0.77303982
-0.53331995 3.2598181 -0.77856511
-0.51285458 3.2601449 -0.77787441
-0.49371254 3.2690039 -0.77925575
-0.47266963 3.2652297 -0.77764422
-0.45369309 3.2757802 -0.77948594
-0.43307471 3.2746434 -0.77856511
-0.41649973 3.305239 -0.78524148
-0.39794624 3.3222258 -0.78869474
-0.37173828 3.2733576 -0.77649313
-0.35382605 3.2958965 -0.78132772
-0.33614036 3.3231788 -0.78731346
-0.31868464 3.35618 -0.79468048
-0.29619423 3.3367469 -0.78961563
-0.2790755 3.3792348 -0.79928488
-0.25922444 3.3925273 -0.80204749
-0.23901641 3.402791 -0.80411947
-0.21390639 3.338155 -0.78846455
-0.19302647 3.3326042 -0.78685302
-0.17302644 3.3424723 -0.78892499
-0.15344375 3.3638859 -0.79375958
-0.13207273 3.3462887 -0.78938544
-0.11050313 3.315913 -0.78201836
-0.089627698 3.2970729 -0.77741396
-0.069619901 3.3082628 -0.77994639
-0.050343692 3.3777132 -0.79629201
-0.028957998 3.3020566 -0.77833486
-0.0086069917 3.267139 -0.77004695
0.011380678 3.250587 -0.76613325
0.031495936 3.2679718 -0.7702772
0.051439237 3.2609057 -0.76866567
0.071553811 3.2653933 -0.76981676
0.093230613 3.3232582 -0.78362989
0.11258657 3.2924738 -0.77649313
0.13416229 3.3257532 -0.78455079
0.15379664 3.308342 -0.78063709
0.17501552 3.3248281 -0.78478104
0.19695725 3.349921 -0.79099697
0.2196555 3.3816664 -0.79882443
0.24019355 3.3773429 -0.79813373
0.25693351 3.3243828 -0.78593212
0.2804864 3.3605645 -0.79491067
0.30014452 3.3481185 -0.79237825
0.3209613 3.3491199 -0.79306895
0.34575576 3.388716 -0.80296838
0.36214077 3.3458965 -0.79329914
0.38343906 3.3503792 -0.79491067
0.40608922 3.3653536 -0.79905462
0.42709875 3.3656948 -0.79974526
0.44247353 3.3234615 -0.79030627
0.45936266 3.2956247 -0.78432059
0.47676897 3.2734847 -0.77971619
0.50532752 3.326299 -0.79306895
0.5202508 3.2885334 -0.78478104
0.54721445 3.3265688 -0.79468048
0.56810737 3.3260264 -0.79537112
0.5844295 3.2994809 -0.78984582
0.61502886 3.3523045 -0.80342883
0.63576823 3.3494236 -0.80365902
0.65293449 3.3282709 -0.79951507
0.68184787 3.3661673 -0.80964476
0.701693 3.35811 -0.80872387
0.71080714 3.3004677 -0.79583156
0.7346285 3.3121948 -0.79974526
0.74800617 3.2772658 -0.79237825
0.76254016 3.24893 -0.78662276
0.77903724 3.23 -0.78316951
0.80469251 3.2487736 -0.78892499
0.83084714 3.268296 -0.79491067
0.84228885 3.2301795 -0.78685302
0.87239999 3.2634947 -0.79629201
0.89137942 3.2543263 -0.79537112
0.91343403 3.2562912 -0.7972129
0.9320538 3.2459486 -0.79606175
0.95744067 3.2588418 -0.80066615
0.97881913 3.2575653 -0.80181724
0.99192899 3.2291727 -0.79629201
1.009392 3.2155981 -0.79445022
1.033859 3.2241704 -0.79813373
1.0490792 3.2038939 -0.79468048
1.0665582 3.1909361 -0.79306895
1.0946013 3.209199 -0.79928488
1.1133125 3.1996651 -0.79859418
1.1368302 3.203779 -0.80135685
1.1654072 3.2214501 -0.80757278
1.1730293 3.1813698 -0.79928488
1.183285 3.1495168 -0.79306895
1.1994566 3.1340177 -0.79099697
1.2366915 3.1728392 -0.80273813
1.2453653 3.1380568 -0.79583156
1.297044 3.2106576 -0.81632107
1.3159796 3.2008388 -0.81586069
1.3404779 3.2043743 -0.8188535
1.3391525 3.1468418 -0.80619144
1.3592092 3.1403518 -0.80665189
1.3674741 3.1070144 -0.80020571
1.3789594 3.0816886 -0.79583156
1.3905886 3.0572255 -0.79168761
1.4093212 3.0486355 -0.79168761
1.4416568 3.068996 -0.79928488
1.4357268 3.0082781 -0.78570187
1.4779359 3.0484467 -0.79859418
1.4987627 3.0436859 -0.79974526
1.5130572 3.0257289 -0.79744309
1.5404072 3.0337412 -0.80204749
1.5469519 3.0008788 -0.79583156
1.5531517 2.9680514 -0.78961563
1.5663121 2.9490123 -0.78708321
1.5765268 2.9247842 -0.78316951
1.5879045 2.9031036 -0.77994639
1.6127719 2.9060686 -0.7833997
1.6224554 2.8817029 -0.77948594
1.6265914 2.8480339 -0.77303982
1.6528175 2.8531559 -0.77718377
1.6367675 2.7859082 -0.76152885
1.6578161 2.7825007 -0.76337057
1.6260396 2.6914856 -0.74103928
1.6435404 2.6831174 -0.74149972
1.6543248 2.6638889 -0.7389673
1.6918985 2.6874511 -0.74840635
1.7120215 2.6827614 -0.75001788
1.7332076 2.6795595 -0.75208986
1.7208024 2.624929 -0.739658
1.2149924 1.8289342 -0.51657522
1.218582 1.8101441 -0.51335216
1.2400873 1.8179059 -0.5177263
1.2534319 1.8134645 -0.51864719
1.2628607 1.8033483 -0.51795655
1.2739019 1.7955656 -0.51795655
1.2661499 1.7616407 -0.51035929
1.8177388 2.4964261 -0.72768658
1.831867 2.4836595 -0.72722614
1.8482368 2.4739318 -0.72768658
1.8569218 2.4540091 -0.72515416
1.8678002 2.4371626 -0.72354263
1.8928639 2.4387238 -0.72745633
1.9120023 2.4324186 -0.72906786
1.9165871 2.4076989 -0.72515416
1.9362106 2.4019542 -0.72699589
1.91891 2.3508301 -0.71502447
1.5476308 1.8724931 -0.57182789
1.5247359 1.8219204 -0.55916584
1.5358864 1.8125304 -0.55916584
1.5545839 1.8119342 -0.56192845
1.5580133 1.7935462 -0.55916584
1.6011269 1.8204855 -0.5706768
1.9902498 2.2350192 -0.70512503
1.9863309 2.2032518 -0.6989091
2.0824809 2.281579 -0.72791678
2.0951202 2.2673287 -0.72745633
2.0877171 2.2316916 -0.72008932
2.1174324 2.2357957 -0.72561461
2.1189873 2.2101183 -0.72147065
2.1386089 2.2033591 -0.72354263
2.143903 2.1818666 -0.72077996
2.1627412 2.1741896 -0.72262174
2.151871 2.1368809 -0.71456403
2.1788373 2.137265 -0.71916842
2.1947062 2.126564 -0.72008932
2.20701 2.1123848 -0.71985912
2.2248802 2.1034822 -0.72147065
2.2398789 2.0917835 -0.72216129
2.2591097 2.0839384 -0.72423327
2.2718539 2.0700374 -0.72423327
2.2722151 2.0449929 -0.72031951
2.2534437 2.0032136 -0.71042007
2.2225449 1.9514709 -0.69683713
2.2219779 1.9269592 -0.69292343
2.2537165 1.9303796 -0.69913936
2.2833509 1.9315971 -0.70466459
2.3354902 1.9512392 -0.71709645
2.3369093 1.9282023 -0.71387339
2.3268175 1.8960021 -0.70719701
2.3293087 1.8743693 -0.70443439
2.3598144 1.8751752 -0.71018988
2.3950107 1.8792809 -0.7173267
2.4018807 1.8609743 -0.71594536
2.383882 1.8237351 -0.70719701
2.4385152 1.8419157 -0.72008932
2.4435296 1.8222651 -0.71824753
2.4131286 1.7766622 -0.70604593
2.4318569 1.7675428 -0.7083481
2.4141905 1.7321676 -0.70006019
2.4096839 1.7066368 -0.69568604
2.4432414 1.7079862 -0.70236242
2.4889207 1.7172762 -0.71249205
2.5235431 1.7184019 -0.71939868
2.5380783 1.7055988 -0.72054976
2.5533624 1.6932198 -0.7219311
2.5360155 1.6594071 -0.71410358
2.5338857 1.6358989 -0.71065032
2.5332048 1.613525 -0.70765746
2.5339935 1.5922569 -0.70512503
2.5428884 1.5761659 -0.70489484
2.5583241 1.5640861 -0.70650637
2.6103768 1.5739826 -0.71824753
2.6099477 1.5519685 -0.71548492
2.6101866 1.5305111 -0.71295249
2.6153159 1.5120316 -0.71180141
2.6448359 1.5075195 -0.7173267
2.6582785 1.4936458 -0.71847779
2.7116628 1.5018198 -0.7304492
2.7327857 1.4916795 -0.73367226
2.7256029 1.466126 -0.72929811
2.7371273 1.4507413 -0.72998875
2.7502904 1.4361712 -0.73113984
2.7417428 1.4103673 -0.72653544
2.7312467 1.3838432 -0.72147065
2.7266245 1.3605423 -0.71801734
2.6563115 1.3051705 -0.69729757
2.1920743 1.0604739 -0.57320923
2.2002971 1.0478402 -0.57366967
2.1890614 1.0260615 -0.56906527
2.2076879 1.0183153 -0.57228833
2.2174392 1.0063584 -0.57320923
2.2280157 0.99471658 -0.57436031
2.3214011 1.0193613 -0.59692186
2.8154323 1.2156854 -0.72262174
2.8586705 1.2135953 -0.73183054
2.841814 1.1859151 -0.72561461
2.8733478 1.1784236 -0.73183054
2.9003825 1.1687711 -0.73689532
2.9120235 1.1527433 -0.73804647
2.6886551 1.0453075 -0.67957067
2.2340639 0.85287571 -0.56284934
2.2137387 0.82959294 -0.55640322
2.2178741 0.81565821 -0.55617297
2.2219214 0.80170411 -0.55594277
2.2231293 0.78675735 -0.55502188
2.2426252 0.77820432 -0.55870539
2.2492006 0.76505578 -0.55916584
2.3332512 0.7776953 -0.57896471
2.9938824 0.97744149 -0.74219042
3.0137279 0.96349692 -0.74564368
2.9861481 0.93452644 -0.73735577
3.028116 0.92729586 -0.74633437
3.0635805 0.91763103 -0.75370139
3.0840962 0.90319073 -0.7573849
3.0727394 0.87943172 -0.75324094
3.0668309 0.85741788 -0.75047833
3.0476251 0.83192313 -0.74449259
3.0884061 0.82272357 -0.75324094
3.0981057 0.80498117 -0.75439203
3.0671387 0.77687967 -0.74564368
3.1313713 0.7727288 -0.76014751
3.1474085 0.75622779 -0.76291019
3.15957 0.73867303 -0.76475191
3.1934602 0.72595721 -0.77188873
3.202606 0.70739794 -0.77303982
3.1869042 0.68345022 -0.76820523
3.1948488 0.66467541 -0.76912612
3.1702485 0.63929111 -0.76221949
3.1722012 0.61945397 -0.76175904
3.1797674 0.60070026 -0.76267993
3.1585028 0.57663625 -0.75669426
3.1696484 0.55859572 -0.75853598
3.1835697 0.5409289 -0.7610684
3.222363 0.52719527 -0.7695865
3.2985983 0.51890045 -0.78708321
3.2920976 0.49719846 -0.78478104
3.2912338 0.47643176 -0.78386015
3.2950592 0.45636162 -0.78409034
3.3113039 0.43792006 -0.78731346
3.3293769 0.41953942 -0.79099697
3.3396182 0.40002814 -0.79283869
3.3284729 0.3779929 -0.78961563
3.3152483 0.35590193 -0.78593212
3.3406065 0.33790177 -0.79145741
3.3377728 0.31693828 -0.79030627
3.328023 0.2954205 -0.78754365
3.3520792 0.27683499 -0.79283869
3.3343084 0.2547805 -0.78823429
3.3241601 0.23349947 -0.78547168
3.3391261 0.21396855 -0.78869474
3.3296895 0.19285789 -0.78616232
3.3366413 0.17272507 -0.78754365
3.3434711 0.15251416 -0.78892499
3.3579574 0.13253234 -0.79214805
3.3888581 0.11292814 -0.79928488
3.3817048 0.091921464 -0.79744309
3.358855 0.070680484 -0.7919178
3.372848 0.050271563 -0.79514092
3.392555 0.02974431 -0.79974526
3.0696635 0.0083416365 -0.78959203
3.0173724 -0.010325658 -0.77608973
3.0230615 -0.02889402 -0.77758998
3.0576797 -0.047982343 -0.78659147
3.0853999 -0.067350037 -0.79384273
3.0549247 -0.085447416 -0.78609139
3.0591815 -0.10435452 -0.78734159
3.0613859 -0.12323958 -0.78809172
3.0837851 -0.14309393 -0.79409277
3.0528746 -0.1604439 -0.78634143
3.0286348 -0.17781584 -0.78034043
3.0004325 -0.19464649 -0.77333927
3.0358827 -0.2156525 -0.78284085
3.0258141 -0.23360731 -0.78059047
3.0416918 -0.25361347 -0.78509122
3.0506868 -0.27322003 -0.78784168
3.0344954 -0.29055226 -0.78409106
3.0374715 -0.30965611 -0.78534126
3.0345519 -0.32818395 -0.78509122
3.0315192 -0.34668761 -0.78484118
3.03318 -0.36574498 -0.78584135
3.0376027 -0.38520062 -0.78759164
3.0438201 -0.40497926 -0.78984207
3.04895 -0.42471522 -0.7918424
3.0836551 -0.44884676 -0.80159402
3.0664835 -0.46558204 -0.7978434
3.0903478 -0.48861736 -0.80484456
3.0844252 -0.50709951 -0.80409443
3.036396 -0.51836681 -0.79234248
3.0131359 -0.53344756 -0.78709155
3.036473 -0.55681014 -0.79409277
3.0691488 -0.58228183 -0.80359435
3.0484149 -0.59775269 -0.7990936
3.0314038 -0.61375898 -0.79559302
3.0541196 -0.63788509 -0.80259418
3.0331094 -0.6529485 -0.79809344
3.0195928 -0.6694532 -0.79559302
2.9786112 -0.67957664 -0.78584135
2.9630733 -0.69518876 -0.78284085
3.0039349 -0.72424042 -0.7948429
3.0135329 -0.74614632 -0.79859352
3.0088978 -0.76462293 -0.79859352
2.983536 -0.77770209 -0.79309261
2.9974174 -0.80098957 -0.79809344
2.9765694 -0.81502265 -0.79384273
2.9379489 -0.82386667 -0.78484118
2.9384227 -0.84347975 -0.78634143
2.973141 -0.87321806 -0.79709327
2.9593809 -0.88893926 -0.7948429
2.973309 -0.91304576 -0.80009377
2.9565642 -0.92779595 -0.79709327
3.0033743 -0.9627561 -0.81134564
3.0038521 -0.98327345 -0.81309593
2.9720476 -0.99309957 -0.80609477
2.9640651 -1.0106924 -0.80559468
2.9459188 -1.0247276 -0.80234414
2.9331875 -1.0405195 -0.80059385
2.9322112 -1.0604722 -0.8020941
2.9229236 -1.0774399 -0.80134398
2.8745594 -1.0797021 -0.78984207
2.866976 -1.096974 -0.78959203
2.832222 -1.1036525 -0.78184068
2.8983016 -1.1499182 -0.8020941
2.8822129 -1.1640562 -0.79959369
2.8785985 -1.1831908 -0.80059385
2.8784311 -1.2038184 -0.80259418
2.8540609 -1.2142589 -0.7978434
2.8652189 -1.2398192 -0.80309427
2.8026063 -1.2332103 -0.78759164
2.7941027 -1.2499883 -0.78734159
2.7846174 -1.2663077 -0.78684151
2.7662473 -1.2784977 -0.78384101
2.8153217 -1.3221889 -0.80009377
2.8010383 -1.336521 -0.79834348
2.8241541 -1.3688797 -0.80734497
2.7965889 -1.3767781 -0.80184406
2.8002141 -1.3999709 -0.80534464
2.8071134 -1.4250122 -0.80984539
2.7724946 -1.4289076 -0.80234414
2.781693 -1.4553145 -0.80759501
2.7804081 -1.4764405 -0.80984539
2.7508378 -1.4824531 -0.80384439
2.7391412 -1.4979109 -0.80309427
2.7070367 -1.5020108 -0.79634315
2.7053642 -1.5228657 -0.79859352
2.7010145 -1.5423163 -0.80009377
2.711611 -1.5705028 -0.80609477
2.7069335 -1.5900527 -0.80759501
2.6937983 -1.604651 -0.80659485
2.6872172 -1.6231513 -0.80759501
2.6945488 -1.6502249 -0.81284589
2.6588695 -1.6508996 -0.8050946
2.6486895 -1.667183 -0.8050946
2.6392264 -1.6839242 -0.80534464
2.5971322 -1.6795871 -0.79559302
2.5721991 -1.6859403 -0.79109228
2.5424471 -1.6888376 -0.78509122
2.5368567 -1.707649 -0.78659147
2.5079312 -1.710638 -0.78084052
2.5061505 -1.7320477 -0.78359097
2.4986486 -1.7496134 -0.78459114
2.4783883 -1.7581912 -0.78159064
2.504513 -1.7999153 -0.79334265
2.4910731 -1.8135396 -0.79259253
2.4518409 -1.8081084 -0.78359097
2.4329419 -1.8173258 -0.78109056
2.4063001 -1.8205394 -0.77608973
2.4273684 -1.8599974 -0.78659147
2.4227953 -1.8801975 -0.78884184
2.427202 -1.9075891 -0.79409277
2.4184823 -1.9248573 -0.79509294
2.4103961 -1.9426978 -0.79634315
2.387177 -1.9482704 -0.79259253
2.3841355 -1.9702808 -0.79559302
2.3653169 -1.9792817 -0.79334265
2.3265288 -1.9712305 -0.7843411
2.3121848 -1.9835778 -0.78359097
2.3131304 -2.0091536 -0.78809172
2.2818515 -2.0066886 -0.78159064
2.2449045 -1.9987659 -0.77308923
2.2246854 -2.0053735 -0.77033877
2.2066164 -2.0137658 -0.76833844
2.2240934 -2.0548577 -0.77884018
2.2284174 -2.0843358 -0.78484118
2.1973033 -2.0806649 -0.7783401
2.1935835 -2.1028166 -0.78159064
2.1924539 -2.1276972 -0.78584135
2.1752124 -2.1370394 -0.7843411
2.155879 -2.1442022 -0.78209072
2.1379046 -2.1525822 -0.78034043
2.1395772 -2.1808619 -0.78584135
2.1140242 -2.1814363 -0.7813406
2.1146626 -2.2090516 -0.78659147
2.1130452 -2.2346463 -0.79109228
2.0728519 -2.2192714 -0.78109056
2.062479 -2.2355058 -0.78234076
2.0735116 -2.2753084 -0.7918424
2.0549762 -2.2829518 -0.79009211
2.041573 -2.2962415 -0.79034215
2.0140252 -2.2934499 -0.78509122
2.0049915 -2.3116148 -0.78709155
1.9781686 -2.30917 -0.78209072
1.9752225 -2.3345671 -0.78659147
1.9608606 -2.3466427 -0.78659147
1.9371786 -2.3474302 -0.78284085
1.9098899 -2.3435135 -0.77758998
1.89426 -2.3536801 -0.77708989
1.8942444 -2.3834476 -0.78309089
1.8748008 -2.3889332 -0.78109056
1.8470563 -2.3835571 -0.77558964
1.8235683 -2.3833129 -0.77183902
1.8305109 -2.4230373 -0.78109056
1.8127136 -2.4303436 -0.77984035
1.8052329 -2.4515545 -0.78309089
1.8032544 -2.4805954 -0.78884184
1.7829179 -2.4845345 -0.78659147
1.7564428 -2.4796278 -0.78159064
1.7284307 -2.47211 -0.77583969
1.7126794 -2.4818723 -0.77558964
1.6985092 -2.4939346 -0.77608973
1.6799332 -2.4994886 -0.77458948
1.666171 -2.5121698 -0.7753396
1.6353444 -2.4988546 -0.7680884
1.6210316 -2.5104682 -0.76858848
1.6363003 -2.568541 -0.78334093
1.6282398 -2.5908279 -0.78709155
1.5990436 -2.5793765 -0.78059047
1.5872289 -2.595747 -0.78259081
1.5672702 -2.598805 -0.78059047
1.5483241 -2.60338 -0.77909023
1.5391806 -2.6245229 -0.78259081
1.5118964 -2.6146417 -0.77683985
1.4991826 -2.6297565 -0.77859014
1.4773241 -2.628778 -0.77558964
1.4691453 -2.65219 -0.77984035
1.4653759 -2.6840978 -0.78659147
1.4406185 -2.6776922 -0.78209072
1.4196247 -2.6779275 -0.77959031
1.4045117 -2.6891623 -0.78034043
1.3751336 -2.6727643 -0.77308923
1.3696544 -2.7027411 -0.77934027
1.3556402 -2.7162917 -0.78084052
1.3368117 -2.7202141 -0.77959031
1.3040639 -2.6952488 -0.77008873
1.2987479 -2.7267995 -0.77683985
1.2680128 -2.7049127 -0.76833844
1.2623477 -2.736378 -0.77508956
1.2543421 -2.7634668 -0.78059047
1.2259084 -2.7454748 -0.77333927
1.2226727 -2.7839701 -0.78209072
1.2082561 -2.7976413 -0.78384101
1.1872813 -2.7960911 -0.7813406
1.1727144 -2.8095775 -0.78309089
1.1484677 -2.7997017 -0.7783401
1.1225758 -2.7851448 -0.77233911
1.1097449 -2.8027823 -0.7753396
1.1016551 -2.8329995 -0.78184068
1.0842515 -2.8397057 -0.78184068
1.0610269 -2.8308933 -0.77758998
1.0422992 -2.8337159 -0.77658981
1.0278518 -2.848254 -0.77884018
1.0190839 -2.8791497 -0.7855913
1.0042576 -2.8935802 -0.78784168
0.96869797 -2.8474429 -0.77358931
0.96162587 -2.8845611 -0.78209072
0.93789327 -2.8720005 -0.77708989
0.92379463 -2.8887672 -0.78009039
0.91068321 -2.9091644 -0.78409106
0.89877498 -2.9341376 -0.78934199
0.86629409 -2.8913703 -0.77633977
0.83764106 -2.8594661 -0.76633811
0.81421286 -2.8440747 -0.76083714
0.80979502 -2.8956373 -0.77333927
0.78052664 -2.8585222 -0.76208735
0.81287354 -3.0503645 -0.81209576
0.78000343 -3.000946 -0.79759336
0.75491107 -2.9793968 -0.79059219
0.73150623 -2.9632936 -0.78509122
0.71783954 -2.9865537 -0.79009211
0.6957491 -2.9748752 -0.78584135
0.66888642 -2.9413249 -0.77583969
0.6556356 -2.9671175 -0.78159064
0.63416457 -2.9559383 -0.77758998
0.62193996 -2.9882102 -0.78509122
0.59458458 -2.9473636 -0.77333927
0.58373648 -2.9880157 -0.78309089
0.55657101 -2.9449246 -0.77083886
0.53849083 -2.9482841 -0.77083886
0.52257848 -2.9639282 -0.7740894
0.50129551 -2.9489434 -0.76933861
0.49258801 -3.0092928 -0.7843411
0.4750185 -3.017997 -0.78584135
0.45127624 -2.9863908 -0.77683985
0.43836427 -3.0264738 -0.78659147
0.41605887 -3.0022533 -0.77959031
0.40386346 -3.0517819 -0.7918424
0.38513047 -3.0542026 -0.7918424
0.36488232 -3.0440109 -0.7885918
0.34893611 -3.0702429 -0.7948429
0.33133444 -3.0838783 -0.7978434
0.31045148 -3.0665874 -0.79284257
0.2953935 -3.1079535 -0.80309427
0.27502954 -3.0952411 -0.79934365
0.25355315 -3.0669577 -0.79159236
0.23480394 -3.0694211 -0.7918424
0.21508028 -3.0582483 -0.7885918
0.195627 -3.0488818 -0.78584135
0.17742214 -3.0587242 -0.78809172
0.16262735 -3.1361423 -0.80784506
0.1434257 -3.1380482 -0.8080951
0.12374516 -3.1282272 -0.80534464
0.10396287 -3.1115091 -0.80084389
0.084470175 -3.0975704 -0.79709327
0.065028556 -3.077702 -0.7918424
0.046334166 -3.0906286 -0.79509294
0.026755549 -3.0230813 -0.77758998
0.0082538892 -3.0396483 -0.78184068
-0.010216792 -2.9834843 -0.76733828
-0.02882161 -3.0153158 -0.77558964
-0.047412649 -3.020891 -0.77708989
-0.065675482 -3.0079591 -0.77383935
-0.08345896 -2.9833031 -0.76758832
-0.10176259 -2.9827349 -0.76758832
-0.12060484 -2.9955986 -0.7710889
-0.13715127 -2.955147 -0.76083714
-0.15492682 -2.9474814 -0.75908685
-0.17357479 -2.9561412 -0.76158726
-0.19420914 -2.993669 -0.77158898
-0.20956449 -2.9499252 -0.7605871
-0.22974218 -2.9756143 -0.76758832
-0.23989049 -2.8766935 -0.74233407
-0.25900191 -2.891562 -0.74658477
-0.27637097 -2.8860631 -0.74558461
-0.29907227 -2.9334393 -0.75833672
-0.31550726 -2.9171093 -0.7545861
-0.32845885 -2.871829 -0.74333423
-0.34260249 -2.8409207 -0.73583299
-0.3572306 -2.8166721 -0.73008198
-0.3802442 -2.8576181 -0.7413339
-0.39910489 -2.8648214 -0.74383432
-0.41723266 -2.8661513 -0.74483448
-0.43306944 -2.8520496 -0.74183398
-0.44965503 -2.8436003 -0.74033374
-0.46097615 -2.8035257 -0.73058206
-0.4815872 -2.820688 -0.73583299
-0.49686241 -2.8062387 -0.73283243
-0.51843286 -2.826947 -0.73908353
-0.53522807 -2.8208587 -0.7383334
-0.54377896 -2.7728631 -0.72658139
-0.56116658 -2.7713726 -0.72708148
-0.58112729 -2.7820942 -0.7308321
-0.59146905 -2.7472386 -0.72258073
-0.61710852 -2.7832615 -0.73308247
-0.63912368 -2.8011351 -0.73883349
-0.65055406 -2.772651 -0.73233235
-0.66823471 -2.771431 -0.73308247
-0.68080956 -2.7494204 -0.72833169
-0.70481515 -2.773345 -0.73583299
-0.72206289 -2.7699051 -0.73608303
-0.73604774 -2.7541971 -0.73308247
-0.74858963 -2.7337523 -0.72883177
-0.76743942 -2.7365663 -0.7308321
-0.78127974 -2.7215679 -0.72808164
-0.79987288 -2.7232263 -0.72983193
-0.81461877 -2.7117755 -0.72808164
-0.83323085 -2.7132056 -0.72983193
-0.84667629 -2.6978791 -0.72708148
-0.86498648 -2.6981659 -0.72858173
-0.8911587 -2.7222555 -0.73658311
-0.88852525 -2.6588781 -0.72083044
-0.90575993 -2.6561255 -0.72158056
-0.93062431 -2.675211 -0.72833169
-0.94508046 -2.6639748 -0.72683144
-0.96107942 -2.6572151 -0.72658139
-0.98238611 -2.6648962 -0.73033202
-0.98680985 -2.6270916 -0.72158056
-1.0070606 -2.6318395 -0.72458106
-1.0193254 -2.6156864 -0.72183061
-1.0585537 -2.6678865 -0.73808336
-1.063669 -2.6335077 -0.73033202
-1.0890056 -2.6493218 -0.73658311
-1.1052411 -2.6425898 -0.73658311
-1.1218138 -2.6366496 -0.73683316
-1.1402768 -2.6350486 -0.7383334
-1.1509668 -2.6155941 -0.73483276
-1.1851739 -2.6491423 -0.74633473
-1.1921918 -2.6215467 -0.74058378
-1.1956681 -2.5869336 -0.73283243
-1.2370263 -2.6338902 -0.74833506
-1.2456622 -2.6105194 -0.74383432
-1.27221 -2.6246114 -0.75008535
-1.278886 -2.5976431 -0.74458444
-1.309083 -2.618329 -0.75283581
-1.3102286 -2.5808902 -0.7443344
-1.3366815 -2.5934598 -0.7503354
-1.3211627 -2.5251489 -0.73283243
-1.3665909 -2.5734406 -0.74933523
-1.3566422 -2.5172703 -0.73533285
-1.3692762 -2.5038011 -0.7338326
-1.3832046 -2.4928122 -0.73308247
-1.3918273 -2.4724643 -0.72958189
-1.4223301 -2.4907868 -0.73758328
-1.445348 -2.4954197 -0.74158394
-1.4572009 -2.4806597 -0.73983365
-1.4659551 -2.4608567 -0.73658311
-1.4685161 -2.4310935 -0.73033202
-1.4662178 -2.39396 -0.72183061
-1.4946648 -2.4071307 -0.72858173
-1.4975475 -2.379065 -0.72283077
-1.5308595 -2.39922 -0.73183227
-1.5471289 -2.3922212 -0.73258239
-1.5607169 -2.3810632 -0.73208231
-1.5827955 -2.3827348 -0.73558295
-1.6071149 -2.3874381 -0.74008369
-1.6479142 -2.4159317 -0.75208569
-1.6550025 -2.3946221 -0.7485851
-1.6779925 -2.3963206 -0.75233573
-1.6876239 -2.3788712 -0.75008535
-1.690326 -2.3519576 -0.74483448
-1.7092831 -2.3478048 -0.74683481
-1.7357213 -2.3536396 -0.75208569
-1.7124776 -2.2925155 -0.73583299
-1.7364402 -2.2950933 -0.74008369
-1.6998576 -2.2182901 -0.71858007
-1.7253059 -2.223119 -0.7235809
-1.781382 -2.2665493 -0.7413339
-1.7693354 -2.222995 -0.73058206
-1.7720082 -2.1985252 -0.72608131
-1.8019902 -2.2078676 -0.73283243
-1.824753 -2.2079663 -0.73658311
-1.8550394 -2.2167807 -0.74333423
-1.8348155 -2.1654584 -0.72983193
-1.8461771 -2.1519544 -0.72908181
-1.846016 -2.1252325 -0.72383094
-1.8705281 -2.1269555 -0.72833169
-1.9086479 -2.1436458 -0.73808336
-1.9237095 -2.134052 -0.73883349
-1.9406828 -2.1265001 -0.74033374
-1.962234 -2.1237993 -0.74358428
-1.9527458 -2.0876725 -0.73508281
-1.9588628 -2.0686195 -0.73258239
-2.0083625 -2.0950112 -0.74633473
-2.0292695 -2.0909882 -0.74933523
-2.051559 -2.0881691 -0.75283581
-2.0465846 -2.057689 -0.74633473
-2.1141191 -2.0996881 -0.76633811
-2.1241987 -2.0839636 -0.76533794
-2.1376407 -2.0715644 -0.76558799
-2.1405215 -2.0490336 -0.76208735
-2.1453166 -2.0285418 -0.75933689
-2.159138 -2.0166624 -0.75983697
-2.1672025 -1.9994359 -0.75833672
-2.1787145 -1.9854482 -0.75808668
-2.2002094 -1.9804655 -0.76133722
-2.2058086 -1.9611366 -0.75908685
-2.2068896 -1.9379795 -0.75533623
-2.2180078 -1.9237672 -0.75508618
-2.2202127 -1.9019307 -0.75183564
-2.2702708 -1.9208002 -0.76483786
-2.2716138 -1.89814 -0.76133722
-2.2839644 -1.8847823 -0.76158726
-2.2699718 -1.8499302 -0.75308585
-2.3001342 -1.8511475 -0.75933689
-2.3008392 -1.8285633 -0.75583631
-2.2990692 -1.8042465 -0.7515856
-2.2871399 -1.7723088 -0.74408436
-2.2941275 -1.7552992 -0.74283415
-2.3203034 -1.7528657 -0.74783498
-2.3597274 -1.7600203 -0.75708652
-2.3774979 -1.7506766 -0.75933689
-2.4093375 -1.7514315 -0.76608807
-2.4192524 -1.7360506 -0.76583803
-2.4014196 -1.7010198 -0.75683647
-2.4292665 -1.6984622 -0.76233739
-2.4428294 -1.6857249 -0.76333761
-2.4787319 -1.6881505 -0.77133894
-2.4890435 -1.6729096 -0.77133894
-2.4944205 -1.6543936 -0.76983869
-2.4948044 -1.6326925 -0.76683819
-2.5015221 -1.6152524 -0.76583803
-2.5840545 -1.6461878 -0.78809172
-2.679353 -1.6839 -0.81409609
-2.627923 -1.6291533 -0.79534298
-2.5247161 -1.5437752 -0.76108718
-2.496006 -1.5052457 -0.74958527
-2.5492949 -1.5161425 -0.76283753
-2.5259812 -1.4813622 -0.75308585
-2.5601656 -1.4803809 -0.7605871
-2.5557442 -1.4569688 -0.75658643
-2.5756075 -1.4474286 -0.75983697
-2.5793591 -1.4287816 -0.75833672
-2.5498393 -1.3920419 -0.74708486
-2.581352 -1.3887609 -0.75383598
-2.5821264 -1.3688128 -0.7515856
-2.5441372 -1.3287287 -0.73808336
-2.534164 -1.3037871 -0.73283243
-2.5559332 -1.2952189 -0.73683316
-2.5525713 -1.2738885 -0.73358256
-2.5577331 -1.2569205 -0.73283243
-2.536638 -1.2272806 -0.72458106
-2.5283878 -1.2041955 -0.72008032
-2.5006649 -1.1722125 -0.71007866
-2.5025358 -1.154412 -0.70857841
-2.4919405 -1.1310276 -0.70357752
-2.480269 -1.107422 -0.69832665
-2.4772668 -1.0878978 -0.69557619
-2.4821177 -1.0719088 -0.69507611
-2.4806278 -1.0532511 -0.69282573
-2.4664946 -1.0294282 -0.68707478
-2.4638073 -1.0105982 -0.68457437
-2.4636762 -0.99292648 -0.68282408
-2.4661217 -0.97636443 -0.68182391
-2.4675543 -0.95945871 -0.68057364
-2.4345028 -0.92944103 -0.66982186
-2.4329073 -0.91176564 -0.66782153
-2.4139225 -0.88779068 -0.66107041
-2.423878 -0.87460673 -0.66232061
-2.4136832 -0.85422218 -0.65806991
-2.4207087 -0.84003139 -0.65856999
-2.426734 -0.82547444 -0.65882003
-2.4262424 -0.80873024 -0.65731978
-2.4173539 -0.78931653 -0.6535691
-2.4166186 -0.7726984 -0.65206885
-2.4213142 -0.75785571 -0.65206885
-2.4092557 -0.73787665 -0.64756811
-2.3998263 -0.71890855 -0.64381748
-2.4069798 -0.70498717 -0.64456761
-2.3982291 -0.68647134 -0.64106703
-2.3986666 -0.67069936 -0.64006686
-2.3971329 -0.6544373 -0.63856661
-2.4039097 -0.64046496 -0.63931674
-2.3871794 -0.62034005 -0.63381582
-2.400326 -0.60806096 -0.63631624
-2.3964922 -0.59146345 -0.63431591
-2.404783 -0.57788008 -0.63556612
-2.4016843 -0.56156892 -0.63381582
-2.384315 -0.54209399 -0.62831491
-2.3989408 -0.5299632 -0.63131541
-2.3917344 -0.51299727 -0.62856495
-2.388202 -0.49692979 -0.6268146
-2.3712754 -0.47824168 -0.62156373
-2.3627625 -0.46145269 -0.61856323
-2.3722091 -0.44820642 -0.62031353
-2.3911059 -0.43660322 -0.62456423
-2.3918328 -0.42158681 -0.62406415
-2.3771937 -0.4039785 -0.6195634
-2.3423636 -0.38327706 -0.60981178
-2.3465841 -0.36919883 -0.61031187
-2.3478479 -0.35464868 -0.61006182
-2.3451889 -0.3395409 -0.60881162
-2.3462689 -0.32501161 -0.60856158
-2.3530183 -0.31124517 -0.60981178
-2.3635292 -0.29789343 -0.61206216
-2.3326273 -0.2794607 -0.60356075
-2.3381462 -0.26558083 -0.60456091
-2.3262544 -0.24977845 -0.60106033
-2.340266 -0.23677048 -0.60431087
-2.3445663 -0.22268184 -0.60506099
-2.2957389 -0.20382529 -0.59205878
-2.3152797 -0.19125454 -0.59680957
-2.3173752 -0.1771187 -0.59705961
-2.3164866 -0.16275997 -0.59655952
-2.3126106 -0.14823222 -0.59530932
-2.3192761 -0.13437714 -0.59680957
-2.3036194 -0.11928808 -0.59255886
-2.3043077 -0.10515109 -0.59255886
-2.3010397 -0.090856276 -0.59155869
-2.301554 -0.07673566 -0.59155869
-2.3058529 -0.062718511 -0.59255886
-2.3139384 -0.048734095 -0.59455919
-2.3103213 -0.034476269 -0.59355903
-2.3124259 -0.020317299 -0.59405911
-2.3144433 -0.0061337999 -0.59455919
-2.3144374 0.0080674738 -0.59455919
-2.3133762 0.022259392 -0.59430915
-2.312228 0.036438592 -0.59405911
-2.3129289 0.050646402 -0.59430915
-2.3096709 0.064756699 -0.59355903
-2.3111656 0.078992978 -0.59405911
-2.3106375 0.093172535 -0.59405911
-2.3032517 0.10703581 -0.59230882
-2.3006179 0.12106506 -0.59180874
-2.2978985 0.135066 -0.59130865
-2.295094 0.14903815 -0.59080857
-2.3076577 0.16407543 -0.59430915
-2.3008153 0.1777859 -0.5928089
-2.31126 0.19286311 -0.5958094
-2.3081043 0.20686875 -0.59530932
-2.3048639 0.22084296 -0.59480923
-2.2976859 0.23439318 -0.59330899
-2.2933164 0.2481754 -0.59255886
-2.3013704 0.26334035 -0.59505928
-2.2920208 0.27653062 -0.59305894
-2.3075712 0.29277796 -0.59755969
-2.3076508 0.30718645 -0.59805977
-2.3181896 0.32307416 -0.60131037
-2.2960422 0.3343676 -0.59605944
-2.2824597 0.34670779 -0.59305894
-2.2793331 0.36055517 -0.5928089
-2.2723007 0.37374967 -0.59155869
-2.2709191 0.38784799 -0.59180874
-2.276124 0.40312353 -0.59380907
-2.2736077 0.41708198 -0.59380907
-2.2729082 0.43138528 -0.59430915
-2.2692683 0.44513732 -0.59405911
-2.2721884 0.4602046 -0.59555936
-2.2712176 0.47453335 -0.59605944
-2.2654233 0.48784962 -0.59530932
-2.2623873 0.50174081 -0.59530932
-2.256434 0.51496756 -0.59455919
-2.2513463 0.5283612 -0.59405911
-2.2461796 0.54171175 -0.59355903
-2.2390537 0.55455381 -0.59255886
-2.2374856 0.56875849 -0.59305894
-2.2358277 0.58296478 -0.59355903
-2.2312732 0.59642279 -0.59330899
-2.2229021 0.60882485 -0.59205878
-2.2228539 0.62349784 -0.59305894
-2.2115407 0.63498962 -0.59105861
-2.2131772 0.65018338 -0.59255886
-2.2026546 0.66180247 -0.59080857
-2.1957753 0.67445314 -0.59005845
-2.1999104 0.69052088 -0.59230882
-2.2039309 0.70666468 -0.59455919
-2.2078357 0.7228837 -0.59680957
-2.2070322 0.73764384 -0.59780973
-2.2180448 0.75648105 -0.6020605
-2.2151904 0.77071238 -0.60256058
-2.2122447 0.78493702 -0.60306066
-2.2128503 0.80047107 -0.60456091
-2.2151656 0.81671137 -0.60656124
-2.2164578 0.83266979 -0.60831153
-2.2158289 0.84798318 -0.60956174
-2.2132907 0.86261731 -0.61031187
-2.2097561 0.87689537 -0.61081195
-2.2034364 0.89007533 -0.61056191
-2.1979334 0.90357858 -0.61056191
-2.1941345 0.91779464 -0.61106199
-2.1884618 0.93124032 -0.61106199
-2.1880386 0.94695687 -0.61256224
-2.1857324 0.96192378 -0.61356241
-2.1824405 0.97650272 -0.61431253
-2.171119 0.98747176 -0.61281228
-2.1553502 0.99630862 -0.61006182
-2.1430612 1.006635 -0.60831153
-2.1368442 1.0197656 -0.60831153
-2.1218331 1.0286365 -0.60581112
-2.1224318 1.0450562 -0.60781145
-2.1185777 1.0593579 -0.60856158
-2.1120377 1.0723373 -0.60856158
-2.1062789 1.0857197 -0.60881162
-2.0995774 1.0986232 -0.60881162
-2.0945075 1.1123931 -0.6093117
-2.0919046 1.1275196 -0.61056191
-2.0891948 1.1426561 -0.61181211
-2.0846846 1.1568624 -0.61256224
-2.0783908 1.1701068 -0.61281228
-2.0703311 1.1823575 -0.61256224
-2.0680649 1.1979492 -0.61406249
-2.0715301 1.2169889 -0.61731303
-2.06236 1.2286861 -0.61681294
-2.0713596 1.2513261 -0.62181377
-2.0702491 1.2680563 -0.62381411
-2.0698335 1.2853304 -0.62606448
-2.0660055 1.3005846 -0.62731469
-2.0637009 1.3168811 -0.62906504
-2.0661526 1.3363521 -0.63231558
-2.0303774 1.330964 -0.62381411
-2.0608907 1.3691044 -0.63581616
-2.0387945 1.3725353 -0.63156545
-2.0439346 1.3942915 -0.63581616
-2.0369341 1.4079072 -0.63631624
-2.0353961 1.4253759 -0.63856661
-2.0337203 1.4428786 -0.64081699
-2.034265 1.462109 -0.64381748
-2.0307355 1.4785514 -0.64556777
-2.0278602 1.49558 -0.64756811
-2.0256276 1.5132079 -0.64981848
-2.0217106 1.5296965 -0.65156877
-2.0230479 1.5503153 -0.65506941
-2.0066121 1.5573581 -0.65281898
-1.9993025 1.5714356 -0.6535691
-1.9964421 1.5890987 -0.65581954
-1.9926859 1.6061782 -0.65781987
-1.9910458 1.6251074 -0.66057032
-1.9847692 1.6403768 -0.66182053
-1.9768949 1.654388 -0.66257066
-1.9770503 1.6752474 -0.66607124
-1.9630591 1.6841954 -0.66482103
-1.9592681 1.7019217 -0.6670714
-1.9553335 1.7196648 -0.66932178
-1.9534242 1.7393545 -0.67232227
-1.9477502 1.7558446 -0.67407256
-1.9405165 1.7710254 -0.67532277
-1.9289018 1.7822421 -0.67507273
-1.9285387 1.8039628 -0.67882335
-1.9364197 1.833733 -0.68557453
-1.9293263 1.8495995 -0.68707478
-1.9228057 1.8661219 -0.68882507
-1.9133917 1.87992 -0.6895752
-1.9004474 1.8902599 -0.68907511
-1.8963201 1.9094403 -0.69182557
-1.9239048 1.9611189 -0.70632797
-1.8956603 1.956203 -0.70032698
-1.8990242 1.9838812 -0.70607793
-1.8948002 2.0039368 -0.70907849
-1.9009781 2.0353339 -0.71607965
-1.9166918 2.077554 -0.72683144
-1.8980372 2.0828359 -0.72458106
-1.8884611 2.0980403 -0.72583127
-1.8485255 2.0792029 -0.71532953
-1.8178397 2.0701389 -0.70832831
-1.8488885 2.1317141 -0.72558123
-1.8250625 2.1305203 -0.72133052
-1.810079 2.1394615 -0.7205804
-1.7975384 2.1512704 -0.72083044
-1.8416324 2.2316985 -0.74408436
-1.802819 2.2121892 -0.7338326
-1.8013556 2.2382927 -0.73883349
-1.7893957 2.2515771 -0.73958361
-1.7779381 2.2655604 -0.74058378
-1.7740885 2.2894356 -0.74483448
-1.7653041 2.3071978 -0.74708486
-1.7423573 2.3063996 -0.74333423
-1.7420697 2.3356712 -0.74933523
-1.7122002 2.3252685 -0.74258411
-1.7127068 2.3560901 -0.74908519
-1.7055585 2.3767796 -0.75233573
-1.6959813 2.3943098 -0.7545861
-1.6768184 2.3983238 -0.75258577
-1.6659216 2.414145 -0.75433606
-1.666888 2.447526 -0.76158726
-1.6550806 2.4625285 -0.76308757
-1.6452929 2.4807053 -0.76558799
-1.6316317 2.4931841 -0.76633811
-1.6068461 2.4885094 -0.7618373
-1.5676085 2.4607632 -0.7503354
-1.5560876 2.476073 -0.75208569
-1.5464792 2.4946256 -0.75483614
-1.5452911 2.527194 -0.7618373
-1.5212519 2.5225348 -0.7575866
-1.5057454 2.5318215 -0.7575866
-1.490672 2.5418479 -0.75783664
-1.4847445 2.5677085 -0.76283753
-1.450253 2.5439694 -0.75308585
-1.4906111 2.6524096 -0.78259081
-1.4790015 2.6699743 -0.78509122
-1.462127 2.6781495 -0.78484118
-1.4424542 2.6811025 -0.78309089
-1.4336886 2.7044439 -0.78734159
-1.4278295 2.7337854 -0.79334265
-1.4119148 2.7442167 -0.79384273
-1.3941743 2.7511013 -0.79334265
-1.3591006 2.7232218 -0.78284085
-1.3359572 2.7184763 -0.77909023
-1.3331741 2.7553816 -0.78734159
-1.2958323 2.720681 -0.77508956
-1.2807587 2.7320871 -0.77608973
-1.2615362 2.7346199 -0.77458948
-1.2407295 2.7334931 -0.77208906
-1.2231437 2.7392867 -0.77158898
-1.2028071 2.7387624 -0.76933861
-1.1867478 2.7478685 -0.76983869
-1.1657002 2.745296 -0.76708823
-1.145475 2.7443559 -0.76483786
-1.1308204 2.7567072 -0.76633811
-1.1142464 2.7644918 -0.76658815
-1.1047521 2.79018 -0.77183902
-1.0928776 2.8104413 -0.77558964
-1.0728481 2.8098583 -0.77358931
-1.0368867 2.7665267 -0.75983697
-1.0249085 2.7864664 -0.76358765
-1.0127246 2.8063629 -0.76733828
-1.0019512 2.8307776 -0.77233911
-0.98456311 2.8368721 -0.77233911
-0.95434445 2.8052802 -0.76208735
-0.94109678 2.8230233 -0.76533794
-0.92074978 2.8195412 -0.76283753
-0.91228533 2.8528028 -0.77033877
-0.89881593 2.8712821 -0.77383935
-0.88032985 2.873966 -0.77308923
-0.86101043 2.8737488 -0.77158898
-0.8471747 2.8919857 -0.77508956
-0.826747 2.8878214 -0.77258915
-0.80770731 2.8881781 -0.77133894
-0.78767341 2.8846738 -0.76908857
-0.77544767 2.9100342 -0.77458948
-0.75928372 2.9212968 -0.77633977
-0.74063063 2.9230852 -0.77558964
-0.72639692 2.9426143 -0.77959031
-0.70946008 2.9517226 -0.78084052
-0.69861811 2.9871311 -0.78909189
-0.68199545 2.998914 -0.79109228
-0.65689027 2.97279 -0.78309089
-0.637824 2.9729779 -0.78209072
-0.62016255 2.9796793 -0.78284085
-0.60225129 2.9853265 -0.78334093
-0.58373648 2.9880157 -0.78309089
-0.56413132 2.9848816 -0.7813406
-0.54632831 2.9911439 -0.78209072
-0.52678645 2.9877656 -0.78034043
-0.50665689 2.980442 -0.77758998
-0.49070874 2.9978271 -0.7813406
-0.46913964 2.9806964 -0.77608973
-0.45431849 3.006495 -0.78209072
-0.43850327 3.027432 -0.78684151
-0.42204881 3.0454102 -0.79084224
-0.40271845 3.0431435 -0.78959203
-0.38161185 3.0263453 -0.78459114
-0.3654595 3.0488176 -0.78984207
-0.34367847 3.024066 -0.78284085
-0.32501307 3.0251553 -0.78259081
-0.30888796 3.0511746 -0.78884184
-0.29190481 3.0713263 -0.79359269
-0.27786395 3.1270669 -0.80759501
-0.25699198 3.1084495 -0.80234414
-0.23746975 3.1041753 -0.80084389
-0.21814592 3.1017108 -0.79984373
-0.19786613 3.0836663 -0.7948429
-0.17725334 3.0558243 -0.78734159
-0.15849981 3.0568545 -0.78734159
-0.1392519 3.0471299 -0.78459114
-0.12193724 3.082756 -0.79359269
-0.10334481 3.093123 -0.79609311
-0.084363811 3.093699 -0.79609311
-0.065565512 3.1028705 -0.79834348
-0.04571626 3.0499675 -0.78459114
-0.027027464 3.0530953 -0.78534126
-0.008231245 3.0319026 -0.77984035
0.010251007 2.9941349 -0.77008873
0.029038841 3.0385525 -0.78159064
0.04700787 2.9947519 -0.77033877
0.066554621 3.0486157 -0.7843411
0.08673723 3.1013823 -0.79809344
0.10556846 3.0949855 -0.79659319
0.12428573 3.0875072 -0.7948429
0.1429152 3.0799162 -0.79309261
0.16201299 3.0828488 -0.79409277
0.18126523 3.0875964 -0.79559302
0.20026943 3.0873921 -0.79584306
0.21811506 3.0706522 -0.7918424
0.24007396 3.109802 -0.80234414
0.2630029 3.1545856 -0.81434613
0.28106156 3.1384466 -0.81059551
0.30224723 3.1569037 -0.81584638
0.32014194 3.1405408 -0.81209576
0.33909422 3.1356294 -0.81134564
0.3530567 3.0873144 -0.79934365
0.36736497 3.046638 -0.78934199
0.38155234 3.0087855 -0.78009039
0.39860424 2.9958298 -0.77733994
0.4219141 3.028811 -0.78659147
0.44647917 3.0673661 -0.79734331
0.46587235 3.068398 -0.79834348
0.48302972 3.0549614 -0.79559302
0.49627465 3.0184999 -0.78684151
0.5156002 3.0201702 -0.78809172
0.53226739 3.0064619 -0.78534126
0.55367017 3.01933 -0.78959203
0.57687336 3.0406096 -0.79609311
0.5906803 3.0123081 -0.78959203
0.60972816 3.0114744 -0.79034215
0.63017237 3.0171545 -0.79284257
0.65640926 3.0492015 -0.80234414
0.66924381 3.0186474 -0.79534298
0.68452567 3.0003238 -0.79159236
0.70910943 3.0224624 -0.79859352
0.729002 3.0237024 -0.80009377
0.74730885 3.0182326 -0.79984373
0.76795882 3.0220363 -0.8020941
0.78209466 3.0004017 -0.79759336
0.79624385 2.9796436 -0.79334265
0.83699661 3.056886 -0.8153463
0.8567825 3.0554221 -0.81634653
0.87578106 3.051038 -0.81659657
0.8674922 2.9536309 -0.7918424
0.88587737 2.9491799 -0.79209244
0.92383921 3.0084832 -0.80959535
0.93735647 2.987052 -0.80534464
0.95655316 2.9840107 -0.80609477
0.98267138 3.0020118 -0.81259584
0.98573947 2.9500062 -0.80009377
1.0075693 2.9549003 -0.80309427
1.0374442 2.9825008 -0.8123458
1.0463428 2.949614 -0.8050946
1.0584975 2.9267478 -0.80059385
1.1219546 3.0437603 -0.83459955
1.0888894 2.8990343 -0.79659319
1.096974 2.866976 -0.78959203
1.1640869 2.987406 -0.82484794
1.1288615 2.8451982 -0.78734159
1.1560832 2.8624601 -0.79409277
1.1710497 2.8490434 -0.79234248
1.1844018 2.8319774 -0.78959203
1.1744772 2.7605026 -0.77158898
1.1917775 2.754133 -0.77183902
1.2106031 2.7512002 -0.77308923
1.2270662 2.7428362 -0.77283919
1.246677 2.7414258 -0.77458948
1.2707832 2.7495465 -0.77909023
1.2925671 2.7522151 -0.78209072
1.3223504 2.7713244 -0.78984207
1.3477727 2.7805858 -0.7948429
1.3575417 2.7574947 -0.79059219
1.3817933 2.7638371 -0.7948429
1.4031069 2.763941 -0.79734331
1.3983134 2.7131033 -0.78509122
1.4095503 2.6941762 -0.78209072
1.4233314 2.6803453 -0.78059047
1.425976 2.6459882 -0.77308923
1.4477572 2.6473839 -0.77608973
1.4653828 2.6409912 -0.77683985
1.4772871 2.6243556 -0.77458948
1.4636054 2.5631051 -0.75908685
1.4283696 2.4660914 -0.73283243
1.4777905 2.515728 -0.7503354
1.5060778 2.5282433 -0.75683647
1.4945388 2.474195 -0.74333423
1.5324402 2.5021389 -0.7545861
1.5421479 2.4836395 -0.75183564
1.5496241 2.4618373 -0.74808502
1.5688653 2.4588134 -0.75008535
1.586551 2.4532065 -0.75133556
1.5830024 2.4150789 -0.74258411
1.3471462 2.0278189 -0.6255644
1.2293012 1.8259133 -0.56530428
1.2361183 1.8119363 -0.56330395
1.2444613 1.8003342 -0.56205374
1.2549293 1.7918712 -0.5618037
1.272061 1.7928253 -0.56455415
1.292076 1.7975683 -0.56855482
1.6414878 2.2546413 -0.71707982
1.7184863 2.3302584 -0.74458444
1.7020507 2.2785504 -0.73133218
1.7218397 2.2757866 -0.7338326
1.7145764 2.2375069 -0.7248311
1.7270862 2.2254143 -0.72433102
1.7431011 2.2178206 -0.72533119
1.7500458 2.1987486 -0.72258073
1.7458885 2.1661036 -0.71532953
1.7738359 2.1733561 -0.72133052
1.5355475 1.857868 -0.61931336
1.5233122 1.8201891 -0.60981178
1.5357035 1.8122857 -0.61031187
1.5467947 1.8028287 -0.61031187
1.5502101 1.7845303 -0.60731137
1.5668839 1.7815298 -0.60956174
1.7303427 1.9432983 -0.66882169
1.9256538 2.13621 -0.73958361
1.9406828 2.1265001 -0.74033374
1.9431838 2.1031716 -0.73633307
1.9547296 2.0897942 -0.73583299
1.9548693 2.0644002 -0.73108214
1.9721887 2.0572603 -0.73283243
1.9867971 2.0472052 -0.73358256
1.9877881 2.0232322 -0.72933185
1.9858296 1.9965776 -0.72408098
2.0055981 1.9918621 -0.72683144
2.0177822 1.9795184 -0.72683144
2.0055597 1.9435116 -0.71807998
2.0314326 1.9445628 -0.72308081
2.0187078 1.9087732 -0.71432936
2.0105729 1.8778412 -0.70732814
2.0483828 1.8897672 -0.71657974
2.0399053 1.8588979 -0.70957857
2.0901258 1.8813339 -0.72308081
2.1052475 1.8716912 -0.72433102
2.1101458 1.8529871 -0.72208065
2.1090436 1.829217 -0.71782994
2.1180222 1.8143514 -0.71707982
2.1224637 1.7956915 -0.71482944
2.1378989 1.7863605 -0.71632969
2.1577795 1.7806062 -0.71933019
2.1746678 1.7722273 -0.72133052
2.1772053 1.752171 -0.71858007
2.1841261 1.7357662 -0.71732986
2.2099667 1.7342902 -0.72233069
2.1930187 1.6993411 -0.7133292
2.2003291 1.6834989 -0.71232903
2.2229764 1.6793071 -0.71632969
2.2138386 1.6511592 -0.71007866
2.2176917 1.6329502 -0.70807827
2.2284527 1.6198813 -0.70832831
2.2823958 1.6377987 -0.72233069
2.297142 1.6271223 -0.72383094
2.3047025 1.6113317 -0.72308081
2.3049846 1.5905588 -0.72008032
2.289896 1.5594848 -0.71232903
2.3098669 1.5524286 -0.71557957
2.3145082 1.5350142 -0.71407932
2.3214533 1.5191926 -0.7133292
2.3307312 1.5049199 -0.7133292
2.3350222 1.487468 -0.71182895
2.3236132 1.4602282 -0.70557785
2.3934183 1.4837081 -0.72408098
2.4008253 1.467984 -0.7235809
2.4404614 1.4717324 -0.73283243
2.4120023 1.4344507 -0.72158056
2.4433062 1.4328536 -0.72833169
2.4520521 1.4178348 -0.72833169
2.4480898 1.3955669 -0.72458106
2.4549186 1.3795705 -0.72408098
2.4777341 1.3724602 -0.72833169
2.4810104 1.3544465 -0.72683144
2.4807489 1.3346087 -0.72433102
2.4854696 1.3175472 -0.72333086
2.4772024 1.2937518 -0.71858007
2.454103 1.2625744 -0.70957857
2.3996263 1.2159669 -0.69157553
2.1662261 1.0809716 -0.62206382
2.1484892 1.0556972 -0.61506265
2.1767137 1.0530417 -0.62131369
2.1429272 1.0205053 -0.60981178
2.1614208 1.0130936 -0.61331236
2.1816623 1.0063047 -0.61731303
2.1869142 0.99249899 -0.61706299
2.2009189 0.98261625 -0.61931336
2.5224743 1.1077634 -0.70832831
2.5763304 1.1126209 -0.72158056
2.5733063 1.0926273 -0.71883011
2.5880032 1.0801754 -0.72108048
2.5883121 1.0617018 -0.71933019
2.5777166 1.0389194 -0.7145794
2.5858431 1.0237966 -0.71507949
2.5677135 0.99843103 -0.70832831
2.4182222 0.92322093 -0.66532111
2.1908519 0.8209849 -0.60106033
2.1976655 0.80819547 -0.60156041
2.2080472 0.79666871 -0.60306066
2.1955531 0.77696347 -0.59830981
2.2011936 0.7637949 -0.59855986
2.2461681 0.76400375 -0.60956174
2.2480583 0.7492879 -0.60881162
2.6897738 0.87834227 -0.72758156
2.7292325 0.87274063 -0.73683316
2.7336123 0.85568845 -0.73658311
2.7175198 0.83237249 -0.7308321
2.7494717 0.82374692 -0.73808336
2.7377501 0.80195796 -0.73358256
2.7370346 0.78354424 -0.73208231
2.7361965 0.76516962 -0.73058206
2.7520478 0.75142908 -0.73358256
2.7566066 0.73452872 -0.73358256
2.7554393 0.71613806 -0.73208231
2.7663512 0.70088357 -0.7338326
2.7818794 0.68668324 -0.73683316
2.7954543 0.67186582 -0.73933357
2.82215 0.65999717 -0.74533457
2.8270907 0.64288324 -0.74558461
2.8082929 0.62050587 -0.73958361
2.8442335 0.61017507 -0.74808502
2.8536112 0.59389663 -0.74958527
2.8723867 0.57944274 -0.75358593
2.8939426 0.56533819 -0.75833672
2.8868921 0.54559052 -0.75558627
2.8920901 0.52821499 -0.75608635
2.9276955 0.51618236 -0.76458782
2.8926275 0.49171001 -0.7545861
2.8994119 0.47457832 -0.75558627
2.9271364 0.46069819 -0.76208735
2.9892631 0.45171085 -0.77758998
2.9373605 0.42543802 -0.76333761
2.9629326 0.41060135 -0.76933861
2.9903522 0.3957212 -0.77583969
3.029227 0.38197586 -0.78534126
2.9959445 0.35911059 -0.77608973
3.0211799 0.34334987 -0.78209072
3.029006 0.32542759 -0.78359097
3.0396152 0.3077153 -0.78584135
3.0424101 0.2891506 -0.78609139
3.0470202 0.27073494 -0.78684151
3.0158165 0.24931462 -0.7783401
3.059767 0.23406343 -0.78934199
3.0350683 0.21344526 -0.78259081
3.0653079 0.19668436 -0.79009211
3.0954549 0.17956032 -0.79759336
3.0597551 0.15865082 -0.78809172
3.0655072 0.14009555 -0.78934199
3.0498619 0.12062937 -0.78509122
3.0766723 0.1027918 -0.7918424
3.0743415 0.083831988 -0.79109228
3.0835102 0.065152474 -0.79334265
3.0702982 0.046025213 -0.78984207
3.1024733 0.027474809 -0.79809344
2.8369443 0.005536817 -0.78126019
2.8330698 -0.011853945 -0.78019392
2.8290887 -0.029196948 -0.77912772
2.8886046 -0.047544491 -0.79565477
2.8333352 -0.064021356 -0.78046054
2.8078401 -0.080682926 -0.77352983
2.8053658 -0.097842611 -0.77299666
2.8076017 -0.11517297 -0.77379638
2.7904754 -0.1316243 -0.76926476
2.8271506 -0.15074898 -0.77966082
2.8242483 -0.16797858 -0.77912772
2.8039296 -0.18404028 -0.77379638
2.8469689 -0.20442092 -0.78605837
2.8341303 -0.22098553 -0.78285962
2.8135128 -0.23675303 -0.77752829
2.8292854 -0.25557443 -0.78232646
2.819989 -0.27218825 -0.78019392
2.8038845 -0.28800762 -0.77619547
2.8068552 -0.30572879 -0.77752829
2.8326931 -0.32614526 -0.78525871
2.8622127 -0.34735507 -0.79405534
2.882973 -0.36784056 -0.80045295
2.8491371 -0.38130119 -0.79165626
2.8496072 -0.3991774 -0.79245597
2.8394752 -0.41553751 -0.79032344
2.8387775 -0.43324336 -0.7908566
2.8246434 -0.44883749 -0.7876578
2.8170817 -0.46537483 -0.78632498
2.8588197 -0.49031305 -0.79885352
2.8215966 -0.50176692 -0.78925717
2.8014033 -0.5159266 -0.78445899
2.8265879 -0.53852016 -0.79245597
2.8024263 -0.55175555 -0.78659153
2.7942657 -0.56798011 -0.78525871
2.8161969 -0.59045714 -0.79245597
2.8125207 -0.60772592 -0.79245597
2.7918048 -0.62120205 -0.7876578
2.8057907 -0.64240927 -0.79272252
2.800858 -0.65939224 -0.79245597
2.8014431 -0.67769915 -0.79378879
2.8121982 -0.69859499 -0.79805386
2.7985194 -0.71345526 -0.79538816
2.8034134 -0.73305237 -0.79805386
2.8007245 -0.75073922 -0.79858696
2.8109355 -0.77199548 -0.80285203
2.8219182 -0.79366612 -0.80738366
2.7984717 -0.8056317 -0.80205232
2.7527969 -0.81080186 -0.79032344
2.7274678 -0.82155997 -0.78445899
2.7647464 -0.85133135 -0.79672104
2.7723415 -0.87233078 -0.80045295
2.696285 -0.86660939 -0.77992737
2.7019055 -0.88674474 -0.78312618
2.7229159 -0.91218781 -0.7908566
2.7783697 -0.949772 -0.80871648
2.7415483 -0.95600891 -0.79965323
2.7528841 -0.97895002 -0.80471796
2.7060521 -0.98103684 -0.79272252
2.7099261 -1.0012978 -0.79565477
2.6829858 -1.0100942 -0.78952372
2.7001343 -1.035513 -0.79645443
2.6946275 -1.0524119 -0.79672104
2.6997616 -1.073557 -0.8001864
2.7145643 -1.0987833 -0.80658394
2.7131181 -1.1176219 -0.80818331
2.6422114 -1.1074177 -0.78899062
2.6460052 -1.1281464 -0.79218942
2.6752863 -1.1600852 -0.80311859
2.6337256 -1.1613098 -0.79272252
2.6661255 -1.1951939 -0.80471796
2.5920887 -1.1811504 -0.78445899
2.5769217 -1.1933869 -0.78205991
2.555598 -1.2026087 -0.77779484
2.5568659 -1.222425 -0.78046054
2.5987329 -1.2620956 -0.79565477
2.6047692 -1.2848406 -0.79991978
2.6002834 -1.3025259 -0.80098605
2.5991147 -1.3219526 -0.80311859
2.5823908 -1.3334527 -0.80045295
2.5912325 -1.3582236 -0.80578423
2.5811481 -1.373192 -0.80525112
2.5879388 -1.3972472 -0.8100493
2.5734003 -1.4098581 -0.80818331
2.5588045 -1.4223431 -0.80631739
2.5550659 -1.440858 -0.80791676
2.5344648 -1.4498074 -0.80418485
2.5296893 -1.4677502 -0.80551767
2.5231278 -1.4847111 -0.80631739
2.4899695 -1.4858396 -0.79858696
2.5187356 -1.5240456 -0.81084901
2.5216594 -1.5470328 -0.81484747
2.5407624 -1.5802954 -0.82417727
2.5024848 -1.5778608 -0.81484747
2.3628252 -1.5101267 -0.77219701
2.3793986 -1.5413674 -0.78072709
2.4246795 -1.5919133 -0.79885352
2.4421468 -1.6249162 -0.80791676
2.417747 -1.6301703 -0.80311859
2.3973541 -1.6379054 -0.79965323
2.387259 -1.6525844 -0.79965323
2.3636603 -1.6577916 -0.79512161
2.3432307 -1.665005 -0.79165626
