# .PCD v0.7 - Point Cloud Data file format
VERSION 0.7
FIELDS x y z
SIZE 4 4 4
TYPE F F F
COUNT 1 1 1
WIDTH 1554
HEIGHT 1
VIEWPOINT 0 0 0 1 0 0 0
POINTS 1554
DATA ascii
4.3108006 24.547403 6.0956535
4.4429083 24.419191 6.0704589
4.573246 24.288378 6.0447888
4.6995478 24.143539 6.0157909
4.8359232 24.05616 6.0012922
4.9676557 23.949945 5.9822774
5.0925798 23.816427 5.9566073
5.1556702 23.408136 5.862246
5.2571106 23.19039 5.8156595
5.3836455 23.090532 5.7987838
5.5023623 22.961658 5.7747774
5.6480241 22.947273 5.7797689
5.791337 22.922544 5.7823834
5.9248104 22.85931 5.7754908
6.0534849 22.779343 5.7645574
6.180891 22.696783 5.7531481
6.2775006 22.505924 5.7144055
6.4080076 22.44083 5.7077503
6.51752 22.305058 5.6832685
6.6431322 22.227421 5.6737614
6.7691731 22.1528 5.6652045
6.8406916 21.905012 5.6124382
6.9531217 21.794147 5.5948496
7.0713711 21.703974 5.5827274
7.1881623 21.611326 5.5701299
7.2856627 21.463797 5.5435095
7.2967558 21.070818 5.4534264
7.4061742 20.96978 5.4389277
7.5195637 20.881903 5.4279938
7.6398535 20.814398 5.4225273
7.7922649 20.833544 5.4398785
7.9164925 20.77626 5.4375014
8.0339842 20.701941 5.4308462
8.1433649 20.60799 5.4191995
8.256609 20.525194 5.4106426
8.3253489 20.334814 5.3738017
8.443614 20.268105 5.369761
8.5700922 20.221281 5.3711872
8.6717033 20.116579 5.3574014
8.7754736 20.018511 5.3455172
8.83922 19.832094 5.3101015
8.9214554 19.690779 5.2868085
9.0510464 19.655077 5.2920375
9.1554203 19.564859 5.2827678
9.2606983 19.477612 5.2744489
9.2985001 19.251614 5.2285757
9.3300295 19.018042 5.180563
9.4279203 18.923052 5.1703424
9.5241194 18.825844 5.1596465
9.6185951 18.726442 5.1484752
9.7131081 18.628313 5.1377792
9.8181381 18.551193 5.1330256
9.9437323 18.51285 5.1392055
10.232861 18.773874 5.2290506
10.575861 19.122986 5.3443284
10.895954 19.419449 5.4458203
11.256595 19.776846 5.5653763
11.61765 20.122961 5.6827931
12.013799 20.517345 5.8149467
12.402319 20.885893 5.9409199
12.824367 21.297859 6.0804415
13.231679 21.672253 6.2104559
13.688024 22.113461 6.3609109
14.198801 22.627205 6.5337086
14.681977 23.0814 6.6908193
15.227041 23.617031 6.8731241
15.7925 24.167147 7.0613713
16.338987 24.671505 7.2379718
16.994551 25.322481 7.4594951
17.489363 25.717321 7.607336
2.9020565 1.0924608 0.75580239
2.9096162 1.0749701 0.7560401
2.9335084 1.0633854 0.7605561
2.8933015 1.0287719 0.74843413
2.8922217 1.0084416 0.74653262
2.9158187 0.99664444 0.75104868
2.9338531 0.98274457 0.75413859
2.9398277 0.9647243 0.75413859
2.9715855 0.9549877 0.76079381
29.785421 2.5039442 7.3111792
29.759552 2.3179691 7.3011966
29.647264 2.126292 7.2702971
29.607412 1.940909 7.257462
3.568588 0.21210943 0.87179309
3.64257 0.19408163 0.88961953
3.6563056 0.17232145 0.89270943
3.6708817 0.15043974 0.89603704
3.6406715 0.12683208 0.88843113
3.626817 0.10407373 0.88486582
3.6176763 0.081599467 0.88248897
3.6151953 0.059352588 0.88177592
3.6213191 0.037228681 0.88320202
3.5865116 0.014864752 0.87464535
3.6075213 -0.009256497 0.80696017
3.6142263 -0.031449731 0.80849308
3.6198192 -0.053711317 0.80980706
3.5804009 -0.075110339 0.80104727
3.5193994 -0.095450073 0.78746963
3.5694578 -0.11871932 0.79885733
3.6183858 -0.14256817 0.81002605
47.678787 -3.9256039 10.734652
47.638252 -4.2167053 10.731148
47.245274 -4.4742532 10.648586
47.191689 -4.7615142 10.642893
47.073296 -5.041533 10.622964
46.982338 -5.3235741 10.609606
46.884842 -5.6041102 10.595152
46.742115 -5.8781724 10.570844
46.614239 -6.1528649 10.550258
46.440292 -6.4200649 10.519598
46.354637 -6.698338 10.509306
46.183376 -6.9631481 10.47996
45.992306 -7.2232327 10.446454
45.952896 -7.5062442 10.447768
45.746284 -7.7609758 10.411415
45.626694 -8.0290108 10.395209
45.531452 -8.3005962 10.384916
45.425968 -8.5696869 10.372653
45.299747 -8.8340607 10.356009
45.139473 -9.090661 10.33192
45.039856 -9.3585291 10.322065
44.870911 -9.6110077 10.296661
44.73201 -9.8687038 10.278485
44.641117 -10.136292 10.271696
44.478313 -10.386717 10.248702
44.361561 -10.646912 10.236657
44.25182 -10.908167 10.226583
44.138649 -11.167998 10.216072
44.015461 -11.424645 10.203589
43.880413 -11.677443 10.188697
43.725098 -11.923879 10.169426
43.607883 -12.179873 10.159352
43.496677 -12.437024 10.151031
43.377407 -12.691352 10.141175
43.224869 -12.935174 10.123875
43.090572 -13.183598 10.111174
42.948334 -13.428823 10.096938
42.853046 -13.688236 10.094091
42.728359 -13.937909 10.084675
42.634628 -14.197357 10.082923
42.486664 -14.438285 10.068688
42.389896 -14.69615 10.066936
42.270409 -14.94589 10.060147
42.057255 -15.453728 10.053797
41.89859 -15.687889 10.038686
41.78331 -15.937725 10.034306
41.652897 -16.181437 10.026641
41.556458 -16.438145 10.027517
41.433994 -16.684439 10.02248
41.308266 -16.929108 10.017005
41.208118 -17.18413 10.018101
41.065075 -17.421032 10.009122
40.935905 -17.663397 10.003866
40.79995 -17.902481 9.9972963
40.689335 -18.152489 9.9972963
40.561192 -18.394558 9.9933538
40.425407 -18.632881 9.9878788
40.317387 -18.883886 9.9896307
40.206924 -19.133848 9.9911642
40.082615 -19.377222 9.9896307
39.964718 -19.623659 9.9900694
39.854908 -19.874168 9.9929161
36.854565 -31.944376 10.943791
35.756535 -31.378956 10.674646
34.739079 -30.865448 10.427182
32.946613 -30.0044 9.9988289
32.109806 -29.604795 9.7997627
31.435373 -29.341881 9.6486559
30.358318 -28.687159 9.3718472
29.852457 -28.557917 9.2695761
29.73835 -28.800283 9.2888479
29.566647 -28.987677 9.2905998
29.436705 -29.216661 9.3059292
29.321581 -29.46174 9.3265152
29.192242 -29.693979 9.3431587
29.058437 -29.922939 9.3589258
28.985064 -30.21615 9.3948412
28.828644 -30.424593 9.4044771
28.734766 -30.70064 9.4351358
28.606127 -30.941574 9.4550648
28.496664 -31.205135 9.4820013
28.333414 -31.411278 9.4916372
28.22258 -31.677059 9.5194492
28.105034 -31.937531 9.5457287
27.994953 -32.208794 9.5752926
27.878149 -32.474728 9.6033239
27.707388 -32.679405 9.6133976
27.575884 -32.931839 9.6377068
27.480877 -33.230499 9.6755924
27.357931 -33.498245 9.7045002
27.234573 -33.768009 9.7340641
27.124125 -34.056599 9.7691031
26.956264 -34.275311 9.784214
26.823849 -34.541016 9.8129025
26.665436 -34.775414 9.8328304
26.541666 -35.057396 9.8663368
26.478533 -35.423569 9.9234943
26.329048 -35.678009 9.9493361
26.139513 -35.879898 9.9607239
26.057873 -36.232895 10.014158
25.894369 -36.475639 10.037153
25.75798 -36.759289 10.071535
25.662933 -37.106033 10.123218
9.8830862 -14.479834 3.9320159
25.334307 -37.609142 10.174901
9.6668415 -14.543144 3.9166863
9.5051765 -14.492043 3.8871219
24.875259 -38.436066 10.27301
24.740824 -38.747513 10.315495
7.9819145 -12.672425 3.3586876
7.8926787 -12.70293 3.3538697
8.0950241 -13.208664 3.4743168
7.7240853 -12.778789 3.3486137
6.9000664 -11.575507 3.0218735
6.7923183 -11.555383 3.0056679
6.7061191 -11.570673 2.9988792
6.6311231 -11.604826 2.9971271
6.6091213 -11.732857 3.0196836
6.9851236 -12.58015 3.2268527
6.4501214 -11.786543 3.0128946
6.3716578 -11.814734 3.0100479
5.8273907 -10.96616 2.7844832
6.3741999 -12.174691 3.0816591
5.8869591 -11.414058 2.879746
5.5860996 -10.995886 2.7654307
6.3131976 -12.618047 3.1640012
6.7342052 -13.668324 3.4171591
6.5186105 -13.438126 3.3494897
6.0420265 -12.652872 3.1442916
5.0739131 -10.795606 2.6745477
5.2079015 -11.259575 2.7816362
5.24543 -11.525765 2.8394508
5.1211762 -11.438404 2.8101056
5.365922 -12.184866 2.9855204
5.733542 -13.239153 3.2353935
5.6510534 -13.271392 3.2347364
6.2435904 -14.915986 3.6265182
4.9951067 -12.142342 2.9441304
4.612576 -11.411093 2.7597368
4.479084 -11.279579 2.7211938
4.315824 -11.065961 2.6631601
4.3054285 -11.242578 2.6992941
4.8417888 -12.878929 3.085382
4.8717813 -13.204065 3.1561174
4.7601113 -13.149304 3.1359699
4.6479917 -13.089995 3.1149464
4.3506646 -12.495368 2.9669058
5.4333243 -15.918102 3.7723687
5.5191174 -16.499855 3.9022326
3.6714113 -11.204783 2.6436696
3.6661029 -11.424988 2.6903155
4.0758791 -12.974809 3.049686
3.4427528 -11.199584 2.6270258
3.9676774 -13.494147 3.1541464
3.6635118 -12.74834 2.9743516
3.238085 -11.534336 2.6861546
3.5080843 -12.797042 2.9754467
3.7029178 -13.840061 3.212837
4.3540583 -16.68252 3.8669744
3.056318 -12.012202 2.7792273
3.2850301 -13.250522 3.0612926
3.394443 -14.060501 3.2437153
2.7773323 -11.822312 2.7229457
2.7638638 -12.097858 2.7825122
2.7689042 -12.471785 2.8646352
3.1855476 -14.775756 3.3897848
3.0698471 -14.675643 3.3624105
5.4193707 -26.721958 6.1169271
2.4038777 -12.240136 2.7969658
2.7330542 -14.381704 3.2829154
2.1889563 -11.917478 2.7168138
2.1531157 -12.141084 2.7647736
2.4591506 -14.378601 3.2713087
1.9982531 -12.131933 2.7568898
1.9337022 -12.206606 2.7711246
1.8712461 -12.300233 2.7897391
1.795738 -12.311484 2.7897391
1.7205671 -12.32517 2.790396
3.7289193 -27.957024 6.3276
3.5527537 -27.943563 6.3194971
3.3924744 -28.057831 6.3405209
3.0098946 -29.429796 6.6370397
3.0546739 -31.793282 7.1659122
2.5715618 -30.720896 6.9164772
1.7440875 -29.542606 6.6394486
1.5200912 -32.527679 7.30585
-1.1633476 -43.192684 9.6950827
-1.6646343 -42.443924 9.5308371
-2.172966 -42.179615 9.4767456
-2.4276345 -42.094379 9.4607582
-3.0542862 -43.637264 9.8153114
-3.8468344 -46.721909 10.51916
-4.6698461 -46.28302 10.437913
-4.6053987 -43.000484 9.7036238
-5.1311131 -42.927166 9.7005577
-7.2492456 -44.37941 10.089931
-9.4369183 -51.765095 11.807069
-9.7731752 -51.805931 11.829844
-10.064721 -51.610912 11.799185
-20.88003 -60.227734 14.304267
-21.25309 -60.109524 14.306894
-21.689676 -60.167072 14.352008
-22.019411 -59.926617 14.326604
-20.975775 -56.021954 13.42347
-22.664824 -59.42033 14.270979
-24.087015 -58.774883 14.253678
-24.819798 -58.506313 14.261344
-25.45513 -58.013271 14.21623
-25.826115 -57.890739 14.224771
-26.59421 -57.69883 14.256744
-26.929533 -57.495682 14.247109
-27.269653 -57.303814 14.240758
-27.616928 -57.127506 14.238787
-27.963926 -56.950848 14.237254
-28.305006 -56.762474 14.233313
-28.638657 -56.559875 14.226304
-29.354952 -56.250885 14.238131
-29.718731 -56.105923 14.247328
-30.01577 -55.835712 14.225209
-30.385374 -55.701027 14.238131
-30.774302 -55.599762 14.260248
-31.084778 -55.356289 14.246452
-31.441238 -55.195034 14.254335
-31.802748 -55.041626 14.264848
-32.146782 -54.857239 14.267914
-32.506207 -54.69838 14.278206
-32.839706 -54.495392 14.277549
-33.196354 -54.33033 14.287404
-33.542454 -54.147182 14.293097
-33.895859 -53.975056 14.302296
-34.259415 -53.817917 14.316092
-34.585815 -53.601772 14.314778
-34.963722 -53.464497 14.335145
-35.393532 -53.403484 14.376754
-35.723808 -53.19017 14.378068
-36.152706 -53.121624 14.419239
-36.586544 -53.056229 14.462162
-21.786745 -30.778538 8.4608288
-20.497034 -27.499559 7.6952224
-13.674341 -17.883307 5.0499845
-13.818707 -17.619717 5.0230479
-13.427756 -16.906525 4.8430343
-14.076081 -17.501278 5.0381584
-18.690981 -22.383045 6.5422149
-14.159842 -16.335749 4.8493853
-43.209187 -49.237572 14.70021
-13.692381 -15.410182 4.6240396
-14.539697 -16.163023 4.8767595
-44.367012 -48.718128 14.786493
-44.811272 -48.603519 14.834891
-14.77216 -15.825607 4.856174
-12.307152 -12.864449 3.9931154
-15.105755 -15.59728 4.8706274
-16.52429 -16.853888 5.2948208
-12.0511 -12.141263 3.8367531
-12.973931 -12.911643 4.1054597
-15.24811 -14.989975 4.7963886
-13.161499 -12.780691 4.1148767
-13.094622 -12.560549 4.0697637
-13.460414 -12.753785 4.1591134
-13.047599 -12.211549 4.0082259
-13.296378 -12.29222 4.0614419
-13.407576 -12.243302 4.0723915
-13.497661 -12.174529 4.0769906
-13.727282 -12.229735 4.1236362
-13.794739 -12.13883 4.1214466
-52.647591 -44.638084 15.489247
-52.988571 -44.371212 15.509176
-15.362729 -12.5462 4.4490628
-14.996681 -11.793822 4.2793417
-14.939298 -11.601039 4.2425504
-14.880611 -11.265471 4.1862688
-14.948673 -11.173369 4.1860499
-57.257618 -42.254536 15.968846
-10.283517 -7.4911976 2.8528097
-9.904705 -7.1225963 2.7354283
-10.573575 -7.5056472 2.9075582
-10.737109 -7.4252806 2.9272678
-10.808255 -7.376862 2.9342756
-8.2710381 -5.5708694 2.2354631
-8.3489428 -5.5491834 2.2472889
-11.490471 -7.5362992 3.0814402
-8.3623486 -5.4113212 2.2328353
-8.4636507 -5.4034934 2.2510118
-11.393461 -6.9824486 2.9964702
-11.326704 -6.8462834 2.9677818
-11.327432 -6.7521725 2.957051
-9.4163561 -5.5348325 2.4487641
-9.3412428 -5.4138284 2.4205139
-9.4208794 -5.3830361 2.4325585
-9.4520311 -5.324172 2.4321206
-9.5032883 -5.2764964 2.4369385
-9.5611629 -5.2321396 2.4435084
-9.7176085 -5.2405381 2.4752624
-12.626769 -6.6109204 3.1961935
-12.052394 -5.7552466 2.9949372
-10.646311 -4.6882801 2.6081924
-9.8896561 -4.2827621 2.4161339
-12.511929 -5.3276238 3.0494668
-9.8001614 -4.101922 2.3817518
-10.927134 -4.4169178 2.6425745
-10.951173 -3.5140319 2.5786281
-10.9958 -3.4540827 2.5841029
-45.315044 12.357433 10.539308
-38.80994 11.614069 9.0895624
-45.739468 13.993984 10.7329
-6.2982922 2.5818465 1.5250441
-6.2769284 2.6181903 1.5237302
-6.108942 2.5922589 1.48672
-6.1574249 2.6575253 1.5024877
-48.74826 21.747612 11.977885
-6.0566788 2.7923157 1.4941658
-6.0023193 2.8120446 1.4849681
-5.9276834 2.8215692 1.4707334
-5.8874187 2.8468466 1.4650395
-5.8227038 2.9490023 1.4621925
-5.6370177 2.8985786 1.4199265
-5.7800212 3.0170739 1.4606596
-5.3777032 2.8492479 1.363207
-5.3575411 2.8808053 1.3625499
-5.8203006 3.1757538 1.485406
-5.9210749 3.2780294 1.5162843
-5.9570007 3.345829 1.530738
-5.8261414 3.319535 1.5022687
-5.4550524 3.1526451 1.4113858
-5.6763706 3.3271437 1.4740183
-5.7422442 3.4132528 1.4965748
-5.7847075 3.4866962 1.5132184
-5.6891022 3.4768486 1.4937278
-5.0837107 3.149961 1.3395555
-5.2229381 3.2807236 1.3816025
-5.3162985 3.385016 1.4118237
-5.3954535 3.4821105 1.4385412
-5.4352322 3.5552025 1.4549657
-5.3197832 3.5264981 1.4297813
-5.4219751 3.6423056 1.4632876
-5.5043888 3.7468708 1.4917569
-5.383296 3.7129989 1.4650395
-4.5797582 3.200551 1.2513006
-4.5329561 3.2094254 1.2438548
-4.3163981 3.1363575 1.1947999
-4.5021911 3.313715 1.2519575
-4.4864678 3.3447759 1.2532716
-4.4580727 3.3663626 1.2510816
-4.3636971 3.3373518 1.2302771
-44.440136 34.413628 12.612532
-4.41185 3.6848691 1.2874347
-4.3682942 3.694231 1.2813029
-4.2506676 3.639745 1.2532716
-4.1132331 3.5660641 1.2191083
-4.1968818 3.6839104 1.2506436
-4.1078215 3.6506186 1.230715
-4.1034799 3.6920683 1.23619
-4.5547166 4.1488047 1.3800695
-4.5105228 4.1594777 1.3743757
-4.5155873 4.215704 1.3837924
-4.3371577 4.0992522 1.3367085
-4.4346061 4.2431459 1.3748137
-4.384656 4.2471976 1.3673679
-3.5056689 3.792804 1.1564758
-3.4514058 3.7803798 1.1461831
-3.5206759 4.1021304 1.2105676
-3.4998565 4.1288652 1.2121005
-3.4625542 4.1360488 1.2079396
-4.122992 4.9865713 1.4494909
-4.0756526 4.9913716 1.443578
-4.0008454 4.9616027 1.4278104
-4.0153098 5.0425367 1.444016
-3.25805 4.143681 1.1803463
-3.930984 5.0629177 1.4359132
-3.8867824 5.0699086 1.4310954
-3.7448738 4.9474134 1.3899243
-3.7909753 5.0726767 1.4186126
-3.1606972 4.2840652 1.1921719
-3.2561567 4.4705667 1.2385989
-3.1261175 4.347878 1.1991798
-3.0445917 4.2898026 1.1779373
-3.014853 4.3036089 1.1766233
-3.0372324 4.3926454 1.195895
-3.9463582 5.8595095 1.5828587
-2.9261546 4.4031157 1.1838502
-4.0539498 6.3501539 1.6881952
-2.7631292 4.3877406 1.1610748
-2.8031025 4.5123506 1.1895441
-4.3881383 7.1607604 1.8822246
-3.8307631 6.3383441 1.6595069
-3.7962964 6.3692727 1.6614778
-2.7567923 4.690814 1.2184514
-3.1678555 5.4665422 1.4153277
-3.3099928 5.7933917 1.4948229
-3.2648044 5.7965903 1.4904429
-2.6441593 4.7630272 1.2199843
-2.7624474 5.0487752 1.2889677
-3.0528734 5.6616197 1.44095
-2.9425206 5.5380807 1.4048159
-2.909842 5.5586247 1.4054729
-2.6581409 5.3136945 1.3307956
-2.5077498 5.0909638 1.2710102
-2.6595988 5.4837399 1.3651779
-2.560724 5.363483 1.3312337
-2.5323319 5.3888078 1.3336426
-2.81302 6.0825844 1.5013926
-2.5937459 5.7001038 1.402845
-3.1300576 7.1084356 1.740535
-2.8160818 6.5034494 1.5878956
-21.92881 51.494122 12.559097
-21.267672 50.804165 12.358717
-20.661137 50.218155 12.185054
-20.017984 49.516281 11.984674
-19.447264 48.967129 11.822618
-18.982977 48.666473 11.721661
-18.525211 48.367455 11.622018
-2.415971 6.4273891 1.5384028
-2.3440592 6.3542151 1.5173793
-2.3409011 6.4675622 1.5410306
-2.4396243 6.8716569 1.6338845
-2.3447888 6.7353787 1.5979693
-2.3182333 6.7930393 1.6082621
-14.890955 44.513897 10.5323
-14.379306 43.877502 10.360608
-13.950282 43.467865 10.243446
-13.333509 42.439335 9.9815283
-12.996292 42.271336 9.9230566
-12.760844 42.430637 9.9418898
-12.333154 41.939934 9.80896
-11.794991 41.038616 9.580987
-11.384956 40.54752 9.4498091
-11.032743 40.240211 9.3622112
-10.647402 39.79063 9.2422018
-10.251487 39.274597 9.1075201
-9.9453344 39.081451 9.0483913
-9.5677309 38.586769 8.9200602
-9.2542925 38.327961 8.8469162
-8.9305553 38.007885 8.7601938
-8.5976191 37.626312 8.6598949
-8.2815523 37.295444 8.5718584
-7.9706955 36.965942 8.4846992
-7.6729889 36.676067 8.4071751
-7.3977628 36.475746 8.3506737
-7.0713038 35.998653 8.2313223
-6.7979927 35.766258 8.1684704
-6.5166931 35.471413 8.0918217
-6.2452354 35.208103 8.0228386
-5.9785724 34.9505 7.9556074
-5.6956372 34.571587 7.8612208
-5.438961 34.325447 7.797493
-5.1880169 34.093864 7.7374887
-4.9275827 33.774582 7.6579933
-4.6978498 33.643768 7.6216402
-4.4429431 33.309273 7.5395174
-4.2035203 33.061016 7.4773226
-3.9502096 32.669659 7.3831549
-3.7345548 32.561447 7.3533716
-3.5320601 32.559498 7.3478966
-3.3160267 32.42234 7.3122005
-3.059901 31.847672 7.1781759
-2.8405755 31.600544 7.1183901
-2.6384835 31.520147 7.0964909
-2.4328833 31.379122 7.0612326
-2.2299469 31.248444 7.0286026
-2.0181649 30.954836 6.959619
-1.8265233 30.938391 6.9532681
-1.6282004 30.789219 6.9173532
-1.4265368 30.526699 6.8562536
-1.2347678 30.425686 6.8317261
-1.0251706 29.768616 6.6825905
-0.83680439 29.573425 6.6374779
-0.65206242 29.430706 6.6044092
-0.47134152 29.426348 6.6026573
-0.29036042 29.386732 6.5932407
-0.10951182 29.247456 6.5617056
0.069046184 28.86607 6.4760785
0.24561618 28.800707 6.4616246
0.41998696 28.638657 6.4257097
0.59043258 28.381907 6.3687711
0.7584523 28.150488 6.3177452
0.92981207 28.104345 6.3085475
1.0788479 27.501425 6.1745229
1.2405007 27.338333 6.1394835
1.4049603 27.266867 6.1252489
1.5737566 27.284035 6.1311617
1.736292 27.197912 6.11408
2.0310283 26.66378 5.9991078
2.2014003 26.733473 6.0177226
2.3517158 26.564926 5.9829021
2.5077727 26.477142 5.9664774
2.6358104 26.120506 5.8896103
2.7905269 26.052422 5.8780036
2.9284706 25.841875 5.8344235
3.0781782 25.749786 5.81778
3.1938772 25.394484 5.7417889
3.3141427 25.105488 5.6809082
3.4683921 25.086613 5.6813464
3.6232319 25.071619 5.6828794
3.7786002 25.059528 5.6852884
3.9201818 24.958759 5.6677685
4.0636578 24.875494 5.6544099
4.1719909 24.589396 5.5950623
4.317379 24.532583 5.5880547
4.4527788 24.423077 5.569221
4.5929661 24.344479 5.5576143
4.694634 24.071627 5.5017705
4.8380089 24.021326 5.4969525
4.9773707 23.952974 5.488193
5.1087193 23.849472 5.4715495
5.1532273 23.356514 5.3655558
5.2646861 23.184582 5.3333635
5.3904266 23.081532 5.3171582
5.5148735 22.976862 5.3007336
5.6443105 22.89617 5.2900028
5.8083858 22.954752 5.3116832
5.949369 22.919624 5.311902
6.0780964 22.838371 5.3016095
6.1541991 22.56625 5.2470798
6.2752242 22.46604 5.232626
6.3716488 22.28264 5.1989007
6.4660602 22.098907 5.1651754
6.545032 21.869993 5.1209388
6.6608319 21.769707 5.1069231
6.7706981 21.652994 5.0891843
6.8826499 21.54598 5.0738549
7.0062523 21.477369 5.0677228
7.1055355 21.336771 5.0447283
7.2112064 21.218864 5.0272088
7.3118649 21.089403 5.0070615
7.4173861 20.976986 4.9910746
7.525444 20.874168 4.9774971
7.6422787 20.797377 4.9702702
7.7369013 20.662371 4.9492469
7.84337 20.561634 4.9365449
7.959846 20.488564 4.9306321
8.0322962 20.305052 4.898221
8.1447086 20.225517 4.8909941
8.2412767 20.108349 4.8747888
8.3524866 20.028585 4.8677807
8.4580765 19.936537 4.8579259
8.5555058 19.826927 4.8439102
8.6452446 19.701685 4.8261719
8.7301931 19.568069 4.8064623
8.8327684 19.475924 4.7970452
8.9365845 19.387688 4.7887235
9.0450306 19.310398 4.7832489
9.1478338 19.221935 4.775146
9.2201672 19.071447 4.7517133
9.3219614 18.98386 4.7440486
9.4308672 18.911461 4.7403259
9.5202818 18.801008 4.7271862
9.6171741 18.706659 4.7182074
9.7159758 18.617022 4.7105422
9.8103867 18.519979 4.7011256
9.9330778 18.476624 4.7055054
10.232696 18.757099 4.7928843
10.53376 19.030313 4.8791685
10.90496 19.418783 4.9958925
11.252337 19.752527 5.0994773
11.616417 20.103846 5.2085366
12.023698 20.517088 5.3346777
12.393113 20.853094 5.4417663
12.796806 21.234634 5.5617752
13.241756 21.671101 5.6973329
13.70281 22.119478 5.8372707
14.171927 22.566298 5.9780846
14.694714 23.083078 6.1388264
15.215365 23.58033 6.295846
15.99899 24.464016 6.5579824
16.39513 24.737074 6.6580634
17.007376 25.322083 6.8435516
17.514315 25.734312 6.9839272
2.9186766 1.2000937 0.70556557
2.9359357 1.1861854 0.70797449
2.9168611 1.1577039 0.70162362
2.9757235 1.159996 0.71410632
2.9800515 1.1406685 0.71344936
2.9422429 1.1055349 0.70271862
2.7027314 0.99659383 0.64380902
2.7069607 0.97932714 0.64337105
2.7147577 0.96335214 0.64380902
2.7279892 0.94924366 0.64556098
2.944298 1.0043594 0.69549179
3.0049992 1.0045384 0.70841247
3.0185239 0.98851216 0.71016443
3.0459006 0.97683036 0.71520132
3.0685923 0.96338725 0.71914321
3.0632541 0.94109952 0.7165153
3.0493491 0.91638446 0.71191639
3.0174711 0.88664514 0.70315659
3.0050373 0.86299229 0.69899571
31.840162 4.2469544 7.2068644
31.343922 3.5948865 7.0783143
30.886192 3.3505025 6.9701309
30.801338 3.1502011 6.9464793
30.597672 2.9397736 6.8963294
30.441179 2.7363338 6.8571296
30.128752 2.521981 6.7831092
29.947153 2.3218272 6.7388721
29.728228 2.1214266 6.6865325
29.665714 1.934088 6.6696701
3.5964298 0.21168916 0.80586517
3.6746359 0.19369027 0.82316577
3.6816032 0.17141291 0.8244797
3.6942844 0.14929485 0.82710767
3.6892803 0.1264227 0.82579368
3.6178117 0.10173932 0.80958807
3.6300738 0.079798572 0.81221598
3.5953734 0.056959935 0.8043322
3.6024849 0.034965716 0.80586517
3.5850687 0.012794434 0.80192327
3.6732485 -0.0092357825 0.75351351
3.6545134 -0.031612348 0.74968332
3.6366224 -0.053773884 0.74605465
3.6489544 -0.076353773 0.74867535
3.6298139 -0.0982375 0.74484515
3.6213112 -0.12024733 0.74323243
3.6175692 -0.14234933 0.74262762
3.5295451 -0.16057736 0.72468603
32.606361 -1.6854645 6.7173758
32.798798 -1.8972681 6.7593064
32.996693 -2.1119342 6.8026485
33.213699 -2.3305392 6.850224
33.315975 -2.5432379 6.8744149
33.589657 -2.7715361 6.9342875
33.872517 -3.0042396 6.9963775
33.93438 -3.2197003 7.0131092
34.383694 -3.4753354 7.1102762
34.442554 -3.6949165 7.127008
34.545753 -3.9205415 7.1532149
35.05965 -4.4152837 7.270339
46.603596 -6.1598649 9.6726971
46.380581 -6.4201851 9.6343946
46.295719 -6.6981988 9.6251211
46.187893 -6.9721961 9.611413
46.068771 -7.2436013 9.5956888
45.942261 -7.5128593 9.5787554
45.799702 -7.7783785 9.5587978
45.62764 -8.0375032 9.5329943
45.564938 -8.315032 9.5303736
45.439911 -8.5806427 9.5150528
45.340263 -8.8502884 9.5053768
45.12188 -9.0954218 9.4711056
45.023026 -9.3633375 9.4622355
44.886192 -9.6225815 9.4457054
44.772747 -9.8859901 9.4344168
44.640564 -10.144463 9.4194984
44.545052 -10.410603 9.4126444
44.401287 -10.664743 9.3959122
44.260838 -10.918685 9.380188
44.093311 -11.164814 9.3590212
43.940552 -11.413486 9.3412819
43.833725 -11.673306 9.333621
43.703632 -11.926315 9.3213243
43.589069 -12.182915 9.3126554
43.489014 -12.443137 9.3074141
43.370483 -12.697637 9.2985439
43.25235 -12.951714 9.2900772
43.143967 -13.20826 9.28403
43.017239 -13.458698 9.274353
42.906796 -13.713746 9.268507
42.771561 -13.960348 9.2576208
42.630272 -14.204259 9.2457275
42.508926 -14.454214 9.2384701
42.391678 -14.705142 9.2324228
42.271103 -14.954521 9.2259712
8.2382202 -2.9713345 1.7999713
42.021889 -15.449144 9.2122631
41.864853 -15.683673 9.1987572
41.745869 -15.931873 9.1939182
41.617203 -16.176012 9.1872663
41.518986 -16.431786 9.1876688
41.423737 -16.688795 9.1890802
41.321465 -16.943024 9.1892824
41.2104 -17.193607 9.187871
41.088799 -17.43964 9.1844435
40.966625 -17.685217 9.1812181
40.825954 -17.92247 9.1741629
40.700008 -18.16585 9.1707354
40.577076 -18.410383 9.1683168
40.454453 -18.654911 9.1663008
40.330357 -18.898628 9.1642847
40.21983 -19.148682 9.1656961
40.085705 -19.387428 9.1620674
39.957203 -19.628706 9.1600513
39.823742 -19.867388 9.1572294
41.110271 -33.914829 10.966305
40.005363 -33.417942 10.726008
38.951511 -32.945488 10.497405
37.713806 -32.297649 10.216991
36.738636 -31.855347 10.005523
35.726185 -31.363546 9.7819586
34.749001 -30.885271 9.5660553
34.263962 -30.83256 9.4844112
33.379044 -30.408978 9.290884
32.696476 -30.15634 9.1521893
31.898729 -29.784855 8.9798288
30.399992 -28.736605 8.6072893
29.799213 -28.516949 8.486536
29.639856 -28.714933 8.4911728
29.521147 -28.953182 8.507905
29.438162 -29.228321 8.5355234
29.308697 -29.459089 8.5502396
29.206339 -29.718706 8.5734224
29.082792 -29.958498 8.5909605
28.937063 -30.176678 8.6024513
28.780996 -30.384954 8.6113214
28.6964 -30.670408 8.6421642
28.596752 -30.942297 8.669178
28.445976 -31.160585 8.6812735
28.324427 -31.412374 8.7028437
28.195641 -31.657988 8.7228012
28.092728 -31.934828 8.7514267
27.922586 -32.136917 8.7596922
27.842878 -32.445148 8.7969866
27.69647 -32.678146 8.81392
27.565224 -32.93084 8.8362961
27.431293 -33.1824 8.8584719
27.323803 -33.468452 8.8899193
27.234734 -33.780354 8.9282217
27.070875 -34.002003 8.9427366
26.926508 -34.249855 8.9643068
26.78672 -34.505726 8.9880943
26.676384 -34.802364 9.0225668
26.507261 -35.024754 9.0378876
26.43256 -35.37505 9.0862694
26.285942 -35.632732 9.1108627
26.190779 -35.963577 9.1542053
25.986197 -36.146667 9.1600513
25.861412 -36.442825 9.194725
8.0319862 -11.466556 2.8788853
25.545938 -36.950802 9.2431068
7.8752112 -11.541603 2.8732407
7.7544618 -11.515774 2.8548961
8.8474913 -13.314643 3.2877114
8.9455423 -13.643078 3.3552444
8.9047546 -13.764324 3.3715732
8.9365911 -14.001167 3.4161248
8.7456131 -13.889139 3.3756051
7.8318033 -12.608787 3.0524549
9.2197428 -15.048592 3.629811
7.7980556 -12.905141 3.1008368
7.5958829 -12.746601 3.0514469
7.7348728 -13.162846 3.1397438
8.294755 -14.316041 3.4028199
7.8044982 -13.662458 3.2359025
6.3340101 -11.24786 2.6543131
6.4816337 -11.677029 2.7462385
6.8174248 -12.461585 2.9210179
6.7166638 -12.458349 2.9105351
6.3014407 -11.861826 2.7619627
6.3202848 -12.075562 2.8026841
6.2074704 -12.039247 2.7853472
5.874033 -11.566223 2.6674166
5.7906857 -11.577519 2.661772
5.6498647 -11.471365 2.6293159
5.2426167 -10.811334 2.4704623
5.1479111 -10.784074 2.4569557
6.9734154 -14.841946 3.3725812
5.8126402 -12.571172 2.848042
5.3164153 -11.685636 2.6397986
5.0973697 -11.389038 2.5656133
5.1943183 -11.799301 2.6508861
5.8078346 -13.415641 3.0062907
6.3867249 -15.004745 3.3538332
5.0930715 -12.172114 2.7131777
4.8055882 -11.685884 2.5980694
4.6615071 -11.536247 2.558356
4.6238794 -11.648387 2.5769024
4.4818773 -11.49585 2.5369873
4.4007506 -11.495691 2.5309396
4.3191061 -11.493137 2.5244887
4.2003789 -11.388929 2.4958627
5.0562315 -13.973107 3.055882
4.9605708 -13.976177 3.0498343
4.1104393 -11.810285 2.5712578
4.2700272 -12.515706 2.7192254
4.0375605 -12.076277 2.6182284
4.0606351 -12.397755 2.6825359
3.7837648 -11.796614 2.5472684
3.8365977 -12.218636 2.6333477
3.9048138 -12.708211 2.7337399
3.851855 -12.815414 2.7516816
3.7687299 -12.823772 2.748456
3.6888921 -12.84289 2.7476497
3.6354229 -12.955815 2.7670023
3.8226988 -13.951818 2.9748425
3.7453694 -14.006237 2.9814949
3.1854672 -12.212097 2.5950456
3.3354456 -13.116123 2.782928
3.2480729 -13.10877 2.777082
3.0423818 -12.609531 2.6672149
2.9763713 -12.676593 2.6774962
2.9401741 -12.877002 2.7159998
2.8668349 -12.920618 2.7214429
2.7877078 -12.938923 2.7216444
2.6920311 -12.878125 2.7053156
2.406775 -11.876842 2.4916294
2.490411 -12.68913 2.6589499
2.4097643 -12.689738 2.655926
2.3094008 -12.581936 2.6303239
2.2538602 -12.718354 2.655926
2.2023408 -12.887385 2.6883819
2.4418018 -14.836495 3.0921683
2.1104798 -13.333304 2.7758725
2.3157735 -15.235252 3.1691761
4.2527366 -30.493782 6.334353
3.6660516 -27.520212 5.7116389
3.4973686 -27.54413 5.7120423
3.3153803 -27.458107 5.6898675
3.2781155 -30.266142 6.2631917
2.9447939 -30.703838 6.3458438
2.8972533 -32.291969 6.6704049
2.5719471 -30.787443 6.3561249
2.5168536 -32.533096 6.7133436
2.0098453 -28.230576 5.8225141
2.091058 -32.15591 6.6296835
1.924621 -32.693199 6.7379379
1.2065254 -29.852646 6.1466722
1.096352 -31.990541 6.585535
0.83885765 -29.821142 6.1376004
0.50640947 -31.947521 6.5736413
-0.11657341 -45.545444 9.37152
-0.87292451 -41.62738 8.5669708
-1.1264175 -41.550743 8.5524569
-1.3795888 -41.490189 8.5415707
-1.8679998 -41.017109 8.4482346
-2.1324852 -41.253326 8.4994383
-2.385401 -41.236534 8.4988337
-2.6401932 -41.249466 8.5046797
-3.2097123 -42.046051 8.6764345
-3.8700652 -46.90242 9.6835823
-4.1597705 -46.90023 9.6882191
-4.3724046 -43.258503 8.9461632
-4.6280346 -43.140289 8.9274158
-4.9549479 -43.659977 9.0411129
-5.3413835 -44.619759 9.2465334
-6.0533023 -41.838531 8.6982069
-6.2866583 -41.64661 8.6661539
-9.4783955 -51.939827 10.864099
-15.386154 -57.775394 12.303054
-17.332211 -59.200256 12.693334
-20.892832 -60.229183 13.118286
-21.257095 -60.086006 13.115263
-22.001293 -59.843605 13.120302
-21.05442 -56.200962 12.349621
-21.314001 -55.848347 12.300634
-23.393015 -59.108051 13.080993
-23.751596 -58.954315 13.078977
-24.109169 -58.798409 13.076961
-24.467232 -58.643948 13.075751
-24.819715 -58.476482 13.072123
-25.185818 -58.341076 13.076154
-25.474812 -58.029388 13.041078
-25.837181 -57.887192 13.044504
-26.199167 -57.743622 13.048133
-26.573492 -57.626251 13.058212
-26.905798 -57.41777 13.048133
-27.261389 -57.25956 13.049948
-27.6152 -57.097382 13.051358
-27.964592 -56.925983 13.051157
-28.307673 -56.741932 13.048536
-28.657515 -56.571537 13.049544
-29.012156 -56.410313 13.053173
-29.36816 -56.251202 13.057809
-29.713676 -56.071674 13.058212
-30.037682 -55.852074 13.049746
-30.410316 -55.722599 13.062849
-30.778698 -55.583794 13.07434
-31.127329 -55.408413 13.077766
-31.459448 -55.203613 13.074743
-31.812773 -55.035828 13.080993
-32.841652 -54.476166 13.089459
-33.206966 -54.325439 13.101957
-33.559284 -54.152302 13.109618
-33.915932 -53.985172 13.119294
-34.250225 -53.781837 13.120706
-34.60667 -53.612637 13.130987
-34.981094 -53.469776 13.148324
-35.763531 -53.228344 13.195899
-13.215135 -17.952536 4.5855532
-20.663502 -27.713051 7.1122918
-13.474585 -17.842165 4.5992613
-13.739718 -17.96298 4.6520782
-13.814889 -17.833426 4.6403856
-14.171502 -17.614275 4.650465
-18.676132 -22.923729 6.0831709
-14.095505 -17.086203 4.5563221
-13.903067 -16.643835 4.4609699
-42.238026 -49.938019 13.458975
-18.778826 -21.928057 5.9394369
-14.123653 -16.288902 4.434763
-43.270905 -49.289742 13.496673
-13.865041 -15.599698 4.2930446
-14.597327 -16.222029 4.4889908
-14.673503 -16.106813 4.4819355
-14.899555 -16.154715 4.5206409
-45.161568 -48.366615 13.617023
-14.09952 -14.91579 4.2218833
-12.644727 -13.213443 3.7616513
-12.733063 -13.143345 3.7638688
-15.118554 -15.415253 4.4414158
-15.214926 -15.324283 4.4420204
-15.300537 -15.036869 4.4127898
-12.504759 -12.139383 3.5844531
-13.406153 -12.855587 3.8203144
-13.518914 -12.805418 3.8299906
-13.551458 -12.679398 3.8170888
-13.646985 -12.612628 3.8221285
-13.583235 -12.248093 3.761853
-13.766383 -12.260928 3.7916884
-13.695744 -12.048137 3.7517734
-13.637064 -11.848883 3.7156887
-12.857154 -10.897266 3.466321
-14.752637 -12.349032 3.9571946
-15.159685 -12.22232 4.0053744
-14.565436 -11.596482 3.829386
-14.603976 -11.481467 3.820919
-14.79098 -11.482336 3.8513594
-14.883699 -11.408645 3.8572054
-14.915933 -11.288733 3.8475292
-57.489025 -42.408993 14.700774
-10.146544 -7.3894668 2.580934
-10.456525 -7.5174565 2.6480639
-10.354679 -7.348289 2.6107695
-10.645862 -7.4571295 2.672658
-11.966802 -8.2733965 2.9917762
-11.757627 -8.0226068 2.9270656
-11.082738 -7.4628735 2.7474482
-8.2901821 -5.5088525 2.0461137
-11.425768 -7.4917235 2.8095381
-11.571853 -7.4863815 2.8341322
-8.3736649 -5.3447843 2.0420818
-10.78427 -6.7906094 2.620446
-11.086445 -6.7923307 2.6734643
-11.130428 -6.725697 2.6740689
-11.223654 -6.6883616 2.6865678
-9.42523 -5.5386 2.2475028
-9.4132719 -5.4541483 2.2366171
-9.4133911 -5.3773398 2.228755
-9.3702507 -5.2767062 2.2108133
-9.4966555 -5.2714005 2.2329884
-9.6027203 -5.2534575 2.2503252
-9.6683989 -5.2125649 2.2581873
-12.549498 -6.6667457 2.9222274
-9.7771244 -4.375957 2.2021451
-12.114853 -5.3332262 2.7218461
-10.171656 -4.4035115 2.2787495
-9.7460651 -4.1484523 2.177551
-45.454899 11.509586 9.6481028
-38.971489 10.634937 8.3117571
-50.652382 14.492761 10.840916
-38.740982 11.600786 8.3208284
-46.003292 14.083637 9.8994865
-40.008045 12.787244 8.6421642
-6.2476044 2.6515536 1.3943707
-6.159277 2.6587815 1.3782434
-6.1276007 2.6898308 1.3748164
-6.1351299 2.7381573 1.3802593
-5.8657904 2.6612213 1.3232092
-5.8929343 2.7172608 1.3330871
-5.8841333 2.7571087 1.3349013
-5.8582616 2.7889504 1.3328855
-5.8163495 2.8129027 1.3272409
-5.8165627 2.8571756 1.3312727
-5.7673697 2.8770704 1.3240155
-5.7609663 2.9181583 1.3266362
-5.8692508 3.0184083 1.3558668
-5.8645115 3.0616174 1.3590922
-6.0117836 3.1856008 1.3977977
-5.8176003 3.2212245 1.366148
-5.3223567 3.0329182 1.2582968
-5.6911788 3.2895281 1.3504239
-5.6016002 3.2837665 1.3338934
-5.854126 3.4802516 1.3992089
-5.8427272 3.5221746 1.4016279
-5.8210053 3.5579586 1.4016279
-5.5116367 3.5098183 1.3423603
-5.4636641 3.5265729 1.3359094
-5.4370046 3.5568135 1.3346997
-5.3563018 3.5511372 1.3201853
-46.113411 33.080357 11.67792
-45.79388 33.278614 11.648488
-42.846714 32.358593 11.048352
-4.4340024 3.4346843 1.1518569
-4.3853846 3.4839633 1.1502442
-42.242191 36.175735 11.444075
-4.5506935 3.9456074 1.2371298
-4.4918032 3.9430847 1.2276551
-4.5384002 4.1856074 1.2681749
-4.4961662 4.1980009 1.2635382
-4.4632053 4.2187815 1.2615223
-4.483232 4.2901058 1.2746258
-4.43572 4.2970881 1.2685781
-4.1199217 4.0903354 1.1923767
-34.910892 37.774391 10.583887
-3.469404 3.8474042 1.0637617
-3.4320512 3.8532593 1.0595284
-3.5125 3.9926479 1.0919845
-3.4911473 4.0178218 1.0929924
-3.4619639 4.0339642 1.0915813
-4.2911091 5.126143 1.3734052
-4.1771979 5.0527277 1.3467952
-4.1021366 5.0243936 1.3324823
-4.1474605 5.144021 1.3574796
-4.0743346 5.1172662 1.3437713
-3.8118258 4.9100094 1.2768432
-3.6076353 4.7063127 1.2179787
-3.3209791 4.3878369 1.1300851
-3.1604781 4.2840176 1.093194
-3.0856979 4.2368212 1.0762604
-4.2538881 5.9941411 1.5102854
-3.2454481 4.6330519 1.1617349
-3.2214153 4.6593237 1.1633476
-4.4664311 7.1905689 1.7396957
-4.4616261 7.2821493 1.7552181
-3.4445491 5.8615751 1.3967898
-3.3545048 5.7893753 1.3746148
-3.3150322 5.8030453 1.3730021
-31.273407 55.536392 13.115464
-3.1494517 5.6737237 1.3330871
-3.1173995 5.6980972 1.3342966
-3.0865612 5.7248774 1.3361109
-3.071594 5.7817683 1.344981
-2.9956372 5.7232723 1.3270394
-3.0569673 5.9287181 1.3703814
-2.9854949 5.8783717 1.3544557
-2.5313876 5.0608644 1.1621381
-2.4855733 5.0464263 1.155284
-2.9310613 6.0442576 1.3800577
-2.896873 6.0683155 1.3814689
-2.8250139 6.0123968 1.3647368
-2.7539513 5.9558272 1.3480048
-2.7189777 5.9761791 1.3488111
-2.6690536 5.9632473 1.3421587
-2.7582989 6.2654815 1.4064661
-2.6489832 6.1186957 1.3697766
-2.6923282 6.3249941 1.4123123
-21.300386 50.908043 11.355375
-20.619583 50.142784 11.156203
-19.953758 49.382923 10.959652
-19.37068 48.799797 10.803621
-19.048473 48.860245 10.790921
-18.534014 48.416386 10.667547
-17.791437 47.344597 10.407092
-17.197275 46.630398 10.226668
-16.837181 46.531494 10.182117
-16.433414 46.301628 10.109544
-2.0072157 5.7669349 1.2542651
-15.157151 44.42794 9.658989
-14.656308 43.838272 9.5110207
-14.233703 43.459175 9.4096203
-13.803145 43.035522 9.2993507
-13.369527 42.580208 9.183033
-12.958706 42.175514 9.0784073
-12.513328 41.634201 8.9451551
-12.143575 41.32209 8.8618984
-11.74514 40.892166 8.7540474
-11.355885 40.471195 8.6488171
-10.965772 40.023384 8.5385466
-10.633708 39.76725 8.4698048
-10.232279 39.228973 8.3415928
-9.9076214 38.961628 8.2716408
-9.5769749 38.652805 8.1934233
-9.2495766 38.337597 8.1143999
-8.9091721 37.946419 8.0198536
-8.5935411 37.638462 7.9434509
-8.2440529 37.156914 7.8309631
-7.9651623 36.971252 7.7813721
-7.6571984 36.632095 7.6999292
-7.3457246 36.251209 7.6102214
-7.0846744 36.099525 7.5690966
-6.7579737 35.589008 7.4531822
-6.5209112 35.528652 7.4320149
-6.275445 35.413681 7.3997602
-6.0207477 35.233322 7.3542008
-5.7290568 34.811497 7.258647
-5.5087652 34.804394 7.2499785
-5.1636758 33.972805 7.0699577
-4.9237709 33.788681 7.0252047
-4.7040443 33.729977 7.0068603
-4.4894915 33.701893 6.9951677
-4.2605329 33.554878 6.9590831
-3.9982092 33.113632 6.8623195
-3.7740023 32.954594 6.8244205
-3.5445163 32.725899 6.7724099
-3.3278289 32.592102 6.7403569
-3.0523255 31.825085 6.5776734
-2.8329248 31.574938 6.5222359
-2.6350546 31.542923 6.512156
-2.4396482 31.535059 6.507318
-2.2413077 31.482023 6.4934082
-2.0163186 31.006481 6.3926129
-1.815323 30.836399 6.3551168
-1.6180892 30.695353 6.3238702
-1.4211974 30.52174 6.2861729
-1.2272487 30.365471 6.2523055
-1.0177288 29.696011 6.1130066
-0.83056957 29.52644 6.0769215
-0.64546514 29.352758 6.0402322
-0.46576682 29.382612 6.0456753
-0.28300694 29.131245 5.993463
-0.10368878 28.973759 5.9608054
0.073768921 28.8475 5.9348001
0.24958809 28.710361 5.9067788
0.42471522 28.638756 5.8924661
0.59461874 28.358482 5.8354158
0.76675361 28.285763 5.8213043
0.93346083 28.074949 5.7789707
1.0836899 27.50985 5.6638622
1.2477429 27.398964 5.6424937
1.4076948 27.233309 5.6100373
1.576183 27.248606 5.615077
1.7385925 27.164133 5.5997562
1.9010533 27.093353 5.5874591
2.0491416 26.843861 5.5384727
2.2065644 26.742926 5.5203295
2.3597975 26.606928 5.4951305
2.5088542 26.44276 5.4642873
2.6448545 26.16765 5.4106641
2.802232 26.121712 5.4046164
2.9380486 25.888945 5.360065
3.0676227 25.626326 5.3094654
3.1853955 25.294102 5.2445531
3.3268039 25.170183 5.2229829
3.4668119 25.045483 5.2014127
3.6073794 24.933586 5.1826649
3.7446573 24.807354 5.1610947
3.8724592 24.629097 5.12884
4.0092812 24.517874 5.1106968
4.137012 24.359556 5.0828776
4.2663503 24.219887 5.0590897
4.4023957 24.124842 5.0447769
4.5261674 23.969368 5.0179653
4.6545777 23.845972 4.9980078
4.7835808 23.73151 4.9800663
4.8961978 23.543486 4.9468036
5.029068 23.459366 4.9355145
5.1463075 23.307558 4.9101143
5.2646961 23.167612 4.8873343
5.3940454 23.080509 4.8758435
5.5062823 22.925072 4.85004
5.6327682 22.833797 4.8379445
5.7568998 22.736137 4.8246398
5.8620691 22.568613 4.7966185
5.9835491 22.468805 4.783112
6.097321 22.34379 4.7643642
6.2076764 22.210682 4.7440033
6.3276749 22.115673 4.7319078
6.4467421 22.020031 4.7198124
6.5530739 21.884352 4.6992502
6.6654396 21.772552 4.6839294
6.7760949 21.658331 4.6682053
6.884408 21.539843 4.6516747
6.9909158 21.418982 4.6347413
7.1039405 21.320858 4.6228471
7.2106652 21.206388 4.6075263
7.3149691 21.087717 4.5913992
7.4239688 20.985186 4.5789003
7.5316544 20.881193 4.5662003
7.6356406 20.769314 4.5518875
7.7385383 20.65695 4.5375743
7.8466311 20.560579 4.5268903
7.9527698 20.460922 4.5156012
8.0457258 20.329773 4.497458
8.1494522 20.228237 4.4859672
8.2526073 20.127104 4.474678
8.3586016 20.034506 4.465405
8.4542027 19.918825 4.4510918
8.5518055 19.809923 4.4383917
8.6519356 19.708649 4.427506
8.7555361 19.61673 4.4188375
8.8514557 19.509119 4.4067421
8.9591007 19.428646 4.4008956
9.0511293 19.31566 4.3877926
9.1446352 19.207582 4.3758984
9.2469664 19.119368 4.3686414
9.3394899 19.012159 4.3571506
9.4275494 18.897526 4.3440471
9.5229645 18.799131 4.334774
9.628727 18.722054 4.3305407
9.7203026 18.61834 4.3202596
9.8210592 18.533247 4.3144135
9.9693871 18.537336 4.3295326
10.257022 18.794788 4.4043226
10.59421 19.132515 4.4986672
10.929203 19.45484 4.5901895
11.282606 19.798439 4.6875577
11.663667 20.178272 4.7944012
12.033953 20.527119 4.894793
12.426468 20.901634 5.0022411
12.869029 21.346743 5.1276307
13.305759 21.767967 5.2483835
13.736265 22.165468 5.3644996
14.201839 22.605759 5.4921069
14.730669 23.131207 5.6416869
15.269655 23.655928 5.7924771
15.826344 24.191277 5.947299
16.387455 24.716579 6.1011124
17.057741 25.387913 6.292624
17.511965 25.721594 6.401886
49.102818 25.69953 11.40416
3.0216885 1.2644857 0.6716677
3.0375431 1.2492738 0.673482
3.0269885 1.2232735 0.66945016
3.0034847 1.1923909 0.66259611
2.9943182 1.1675355 0.65896744
2.9639215 1.1347841 0.65070224
2.9671612 1.1151984 0.64989585
2.8241563 1.0417286 0.61703658
2.7669442 1.001385 0.60312682
2.78319 0.98799217 0.6053443
2.7216713 0.94739473 0.59062815
2.7997396 0.95534503 0.60635227
2.872432 0.96050864 0.62086678
2.9732149 0.97396106 0.64142907
2.9903271 0.95928907 0.64384812
2.9774671 0.93505454 0.63981634
2.9822123 0.91647983 0.63961476
3.0271764 0.91000479 0.64808154
3.0336428 0.89168936 0.64828312
3.0409398 0.87359929 0.64868635
3.0528443 0.8567763 0.65009743
3.0457633 0.83466363 0.64747679
2.9372802 0.78559762 0.62328589
33.385403 5.7049804 6.9683561
33.274811 5.4761662 6.9381175
32.877277 5.2037554 6.8484097
32.799164 4.9852953 6.8256297
32.438538 4.7270322 6.7443886
32.189487 4.489213 6.6867337
31.947487 4.2557931 6.6308932
31.707733 4.0260072 6.5758591
31.502352 3.8036687 6.5282836
31.241922 3.5778742 6.4696207
30.999395 3.3575296 6.4149895
30.80212 3.1450722 6.3700347
30.624865 2.9372199 6.329515
30.391594 2.7267611 6.2777061
30.169592 2.5203362 6.228518
30.00285 2.3211205 6.1910219
3.6708143 0.26149702 0.75492465
29.684052 1.93033 6.1198606
3.6698356 0.21620058 0.75411832
3.6534872 0.19275083 0.75048965
3.6360114 0.16946433 0.74665946
3.6457908 0.14750692 0.74847376
3.6564162 0.12546942 0.75048965
3.6718032 0.10344474 0.75351351
3.643971 0.080288745 0.74766743
3.6404779 0.057866167 0.74686104
3.6290112 0.035413422 0.74444193
3.6585441 0.013250534 0.75048965
3.6221318 0.0091537088 0.67102945
3.6181872 -0.013058021 0.6702984
3.6200051 -0.035277333 0.67066389
3.6285682 -0.057627395 0.67230868
3.6055391 -0.079397373 0.66810542
3.5794315 -0.10080448 0.66335392
3.5925021 -0.12323475 0.66591239
3.6123078 -0.14610597 0.66975015
3.6349137 -0.16936158 0.67413616
3.6455879 -0.19228092 0.6763292
32.769451 -1.9244331 6.0994453
33.043507 -2.1440487 6.1528082
33.158195 -2.3558846 6.1767488
33.349949 -2.5752621 6.2153091
33.664677 -2.8074551 6.2770786
34.182606 -3.2734907 6.3806977
34.225452 -3.4896505 6.3925767
34.435055 -3.7246406 6.4358888
34.760269 -3.9757376 6.5011306
34.952885 -4.2151933 6.5418839
35.364296 -4.4851131 6.6239386
35.489117 -4.7223773 6.6526303
35.718494 -4.9761257 6.701242
35.919815 -5.2290416 6.7449193
36.201015 -5.4970112 6.8039479
36.62302 -5.7911968 6.8898406
36.747841 -6.0422788 6.920177
36.98531 -6.3146319 6.9720778
37.020409 -6.5546474 6.9861498
45.334896 -9.1794109 8.5956316
45.249805 -9.4515791 8.590332
44.791126 -9.6429749 8.514308
44.728237 -9.9169884 8.5137596
44.61095 -10.178565 8.5031605
44.519897 -10.445589 8.4978609
48.528473 -11.700661 9.276742
48.408051 -11.986391 9.2676048
48.275467 -12.268421 9.2564573
48.250652 -12.577794 9.266326
43.852737 -11.719253 8.4351768
43.676643 -11.959807 8.4152575
43.586346 -12.223064 8.4121504
43.454769 -12.474271 8.4013681
43.334965 -12.728202 8.3931446
43.19767 -12.976324 8.381814
43.095619 -13.234498 8.3776112
42.949814 -13.478662 8.3651838
42.839153 -13.73324 8.3598843
42.722313 -13.985437 8.3536701
42.6646 -14.256973 8.3593359
42.622845 -14.534355 8.3684731
42.583935 -14.813375 8.3785248
42.46722 -15.065512 8.3735905
8.3088789 -3.0057535 1.6401544
45.91465 -16.925621 9.0938091
41.932377 -15.750612 8.3238821
41.730267 -15.967557 8.3030491
41.602192 -16.211885 8.2972002
41.531178 -16.478449 8.3030491
41.602493 -16.802923 8.3377714
41.371395 -17.30308 8.3333855
46.955975 -20.319218 9.5081043
40.740826 -17.927427 8.2714329
40.625572 -18.175062 8.2705193
40.507919 -18.421553 8.2694225
40.382519 -18.664396 8.2670469
40.26368 -18.910156 8.2663155
40.142452 -19.154736 8.2654018
40.040089 -19.408403 8.268692
39.930832 -19.658932 8.2708845
39.823528 -19.910606 8.2738085
43.599548 -35.140491 10.406688
42.716633 -34.863419 10.246781
41.353001 -34.175392 9.9697313
40.153275 -33.600697 9.7299633
38.817429 -32.889935 9.4549236
36.839531 -31.998951 9.0680418
36.590813 -32.178944 9.0552492
35.263336 -31.397354 8.7741795
33.455399 -30.157713 8.3701181
33.385193 -30.4678 8.3991756
31.916674 -29.853697 8.121212
30.476444 -28.859234 7.7995715
29.760107 -28.529299 7.6608639
29.616243 -28.74218 7.6690879
29.522083 -29.004663 7.6906524
29.406298 -29.247658 7.7070999
29.287945 -29.489626 7.7233648
29.175303 -29.738958 7.7416396
29.044277 -29.971073 7.7555285
28.918301 -30.209799 7.771245
28.776974 -30.433817 7.7833066
28.674923 -30.701063 7.8065162
28.552006 -30.947969 7.8246083
28.437733 -31.206146 7.8456244
28.311495 -31.453121 7.8638997
28.166964 -31.681351 7.8776059
28.072596 -31.968088 7.9059324
27.93969 -32.213264 7.9240246
27.837452 -32.49609 7.951437
27.730883 -32.776619 7.9783015
27.56266 -32.986137 7.987987
27.43421 -33.244877 8.0097342
27.327841 -33.532997 8.0386086
27.191847 -33.787361 8.0594425
27.064766 -34.055172 8.0835657
26.905676 -34.28479 8.0987339
26.806814 -34.593781 8.1327257
26.653193 -34.834911 8.1508179
26.504139 -35.084087 8.1709204
26.318346 -35.286247 8.1802406
26.238918 -35.633904 8.2233696
26.112854 -35.922264 8.2527924
25.963598 -36.181664 8.2756357
25.816689 -36.446995 8.299942
8.7305346 -12.48798 2.8300419
25.52998 -36.996532 8.3531227
25.509478 -37.456394 8.4214706
9.1293468 -13.584124 3.0400219
8.4083929 -12.678814 2.8256557
8.4327316 -12.886471 2.8603783
8.1247072 -12.583645 2.7819784
8.1382008 -12.775881 2.8134115
7.9942627 -12.721523 2.7905676
9.1158142 -14.70561 3.2138176
7.9129434 -12.941967 2.8174319
7.8526778 -13.022268 2.8243766
7.9123392 -13.305119 2.8751812
7.6241441 -13.001467 2.7993398
7.780952 -13.457386 2.8872426
7.7771139 -13.643242 2.9168482
7.8098192 -13.898118 2.9610739
7.7286825 -13.953517 2.9627185
6.2008219 -11.359248 2.4033198
8.0198908 -14.907919 3.1443725
6.5467815 -12.350908 2.5961213
7.8144965 -14.963383 3.1356003
5.5288577 -10.74742 2.2443271
5.478364 -10.811837 2.2507234
5.4496779 -10.920901 2.2664397
5.5273991 -11.248843 2.3274784
6.4487243 -13.329569 2.75018
7.1764226 -15.068675 3.1001468
5.1821108 -11.055804 2.2673535
5.1100574 -11.078465 2.2655261
21.132309 -46.557919 9.501708
4.9600935 -11.109818 2.2593126
4.8827386 -11.119339 2.2551093
4.810132 -11.139161 2.253099
5.1978207 -12.242644 2.4700236
5.2293997 -12.530164 2.5215592
4.9177151 -11.989877 2.4066093
6.4553804 -16.017475 3.2077868
4.5487003 -11.489886 2.2947662
4.5016317 -11.578057 2.3068275
5.0140705 -13.133817 2.6109242
5.2273779 -13.948702 2.7666276
5.1077518 -13.888242 2.7483525
5.0237737 -13.92302 2.7490835
4.2450714 -11.995227 2.362932
4.5037441 -12.97865 2.5513475
3.6808326 -10.821525 2.1224325
4.2169628 -12.651468 2.4766028
3.7690361 -11.543454 2.2549264
3.6517684 -11.66765 2.2702775
4.2323279 -13.819039 2.684207
4.1728525 -13.929509 2.7006545
4.4670401 -15.605387 3.0149851
6.6275554 -23.700426 4.5722008
4.1931038 -15.358375 2.9570532
3.4846213 -13.079099 2.513701
3.1416435 -12.089696 2.3196201
2.8503101 -11.251961 2.1553276
2.7576528 -11.173788 2.1370525
2.933974 -12.209523 2.3318644
2.9089322 -12.440779 2.3726177
3.4177117 -15.031493 2.8631196
2.4145083 -10.929938 2.0783896
2.3622472 -11.013761 2.0915477
2.3070447 -11.087725 2.1028783
2.2424679 -11.119019 2.1061678
2.1766515 -11.145113 2.1085434
2.1091383 -11.16309 2.1094573
2.0406032 -11.17582 2.1094573
1.9719911 -11.188131 2.1094573
1.891606 -11.131204 2.096482
1.7953175 -10.971837 2.0643179
2.0182564 -13.360159 2.509315
1.934128 -13.357697 2.5065737
4.2210398 -30.462353 5.7142076
4.1367006 -32.809982 6.1447673
3.9154117 -32.668797 6.1136999
3.3929133 -29.859283 5.5837235
3.2779052 -30.514938 5.7025113
3.1414094 -31.03627 5.7962623
2.7402132 -28.838097 5.3823328
2.5424168 -28.620312 5.3386555
2.1840358 -28.558191 5.3216596
2.0010393 -28.461212 5.3011918
1.5994143 -27.583582 5.1336098
1.4311528 -27.612513 5.1372647
1.0193465 -30.527966 5.6754646
-0.43288383 -45.251953 8.4095917
-0.70389044 -32.218494 5.9879675
-0.915995 -32.729523 6.0839114
