# .PCD v0.7 - Point Cloud Data file format
VERSION 0.7
FIELDS x y z
SIZE 4 4 4
TYPE F F F
COUNT 1 1 1
WIDTH 1535
HEIGHT 1
VIEWPOINT 0 0 0 1 0 0 0
POINTS 1535
DATA ascii
-58.316109 39.181965 14.457455
-58.089172 39.548973 14.461082
-57.83654 39.89854 14.458865
-57.59626 40.256592 14.460277
-54.402554 38.523392 13.717415
-56.919197 41.363483 14.479025
-56.702187 41.739822 14.488701
-56.427734 42.074078 14.484266
-56.1646 42.416565 14.483258
-55.877609 42.740749 14.476605
-55.588753 43.063011 14.469953
-55.382812 43.449837 14.485476
-55.075287 43.757156 14.474993
-54.798893 44.088745 14.473178
-54.711864 44.574486 14.522165
-54.454708 44.923691 14.526801
-54.2066 45.280834 14.534462
-54.1147 45.770721 14.58486
-53.888634 46.149685 14.599979
-53.617771 46.49102 14.603607
-53.382286 46.863728 14.617517
-53.109108 47.204052 14.621751
-52.864338 47.570312 14.634451
-52.674995 47.988117 14.663279
-52.391796 48.321709 14.666705
-52.201698 48.742538 14.696944
-51.984917 49.140648 14.720531
-51.690903 49.46682 14.722949
-51.407513 49.803509 14.728997
-51.261791 50.275738 14.775363
-51.142094 50.777729 14.830398
-50.861343 51.122517 14.83967
-50.305206 51.820122 14.861845
-49.410225 52.164032 14.785442
-48.887123 54.890522 15.125929
-11.007156 13.825215 3.6346493
-10.756251 13.681512 3.5794134
-10.728559 13.819982 3.5983629
-10.626279 13.863007 3.5925167
-10.497277 13.870152 3.577599
-10.362141 13.867608 3.5604637
-9.8494892 13.351593 3.4122946
-9.0933304 12.486205 3.1766348
-8.4631052 11.771929 2.9814949
-7.8981276 11.129496 2.8063126
-7.4194798 10.592112 2.6591513
-6.9137621 10.000148 2.4996929
-6.5011711 9.5278082 2.3714812
-6.2204771 9.2376642 2.2896354
-6.1588001 9.2683163 2.2878211
-6.1002035 9.3034735 2.2872164
-6.0430031 9.3407288 2.2872164
-5.9961157 9.394145 2.2912481
-5.9514089 9.4514809 2.296288
-5.8953705 9.491148 2.2970943
-5.8421397 9.5354948 2.2991102
-5.796185 9.5921202 2.3041499
-5.7527628 9.6535873 2.3103993
-5.6899476 9.6827927 2.3089881
-5.6319008 9.7200661 2.309593
-5.5784693 9.7654963 2.3122137
-5.5347843 9.828558 2.3190677
-5.4853063 9.8820314 2.3237042
-5.4273887 9.9206591 2.3249137
-5.3738513 9.9675684 2.3281393
-5.3208613 10.015924 2.3317678
-5.2647548 10.058797 2.334187
-5.2110157 10.106582 2.3378155
-5.1586618 10.157578 2.3422506
-5.1050014 10.20656 2.3462825
-5.0552616 10.264052 2.3523302
-5.003726 10.318674 2.3577731
-4.9453812 10.359789 2.3601921
-4.8838038 10.394371 2.3612001
-4.8281546 10.441922 2.365232
-4.7842731 10.515927 2.3753114
-4.7232594 10.553132 2.3771257
-4.6576285 10.580122 2.3767226
-4.597681 10.620186 2.3793433
-4.5374169 10.659913 2.381964
-4.480619 10.708336 2.3866005
-4.4267497 10.764614 2.3930514
-4.3745594 10.826082 2.400712
-4.3206973 10.884583 2.4077675
-4.2637911 10.936442 2.4134121
-4.203259 10.979778 2.4172423
-4.1427002 11.0237 2.4212742
-4.0834546 11.071886 2.4263139
-4.0274396 11.12989 2.4335713
-3.9692278 11.183007 2.4398205
-3.9101934 11.234903 2.4458683
-3.8541503 11.296691 2.4541335
-3.7962534 11.354498 2.4615924
-3.7332189 11.398055 2.4660273
-3.6718867 11.447795 2.4718735
-3.610671 11.499079 2.4781227
-3.546087 11.540679 2.4823563
-3.4845114 11.593175 2.4890087
-3.433471 11.682938 2.5037248
-3.3717256 11.738617 2.5111837
-3.3057215 11.780775 2.5158203
-3.2393267 11.822563 2.5204568
-3.1745672 11.87155 2.5267062
-3.1130364 11.934402 2.5359793
-3.0503705 11.995047 2.5448494
-2.9868419 12.054419 2.5535178
-2.9192531 12.099178 2.5591624
-2.8599584 12.180751 2.5726688
-2.7925775 12.230536 2.5795228
-2.7289357 12.299076 2.5904088
-2.6589885 12.341442 2.5958519
-2.5920303 12.39971 2.6047218
-2.5281529 12.475858 2.6174221
-2.4589112 12.52862 2.625284
-2.3878376 12.574265 2.6317351
-2.3228388 12.655152 2.6456447
-2.2538602 12.718354 2.655926
-2.186173 12.792768 2.6686261
-2.1203609 12.88326 2.6847534
-2.0458641 12.92505 2.6908011
-1.9704931 12.963506 2.696244
-1.895009 13.003461 2.7020903
-1.823438 13.074018 2.7143872
-1.7500376 13.136417 2.7250714
-1.6769266 13.20618 2.7373686
-1.6010293 13.259007 2.7462385
-1.5256609 13.321129 2.7571244
-1.4476919 13.365295 2.7643816
-1.3703327 13.419724 2.7738564
-1.2903026 13.452254 2.7788963
-1.1725532 13.067746 2.6978567
-1.0947134 13.103001 2.7037029
-1.0217731 13.20615 2.7236605
-0.94308716 13.245389 2.7305145
-0.86599177 13.315435 2.7438195
-0.78674841 13.362542 2.7524879
-0.69871062 13.25268 2.7289016
-1.5216782 54.100433 11.136649
-1.1847657 53.88451 11.090485
-0.18625402 52.085182 10.717542
0.13223591 51.655357 10.629044
0.45030096 51.781879 10.655452
0.75784898 51.09259 10.514338
1.0681083 50.933235 10.482689
1.9208398 48.757652 10.040399
2.1897151 48.080578 9.9035177
2.4634018 47.65443 9.8186483
2.986881 46.665627 9.6216946
3.2159085 45.830566 9.4533663
3.4903488 45.72208 9.4352226
3.7151692 45.02528 9.2959232
4.268899 44.991901 9.2991486
4.5788674 45.301064 9.3686981
5.0124197 46.723198 9.6690683
5.3563395 47.196667 9.773694
5.6940317 47.565536 9.857152
6.0584798 48.106949 9.9768972
6.3997502 48.418438 10.04947
6.7613206 48.844933 10.146435
7.1446333 49.381245 10.266785
7.504807 49.716125 10.345808
7.8278227 49.784283 10.369798
8.1095934 49.591286 10.339761
9.5988894 4.7276678 2.1997259
9.6876469 4.697741 2.213434
9.5872345 4.5766072 2.1840019
9.41922 4.4256468 2.1394503
9.2594986 4.281446 2.0971162
2.8195174 0.68042696 0.5944584
2.9371111 0.68975455 0.61844772
2.9374683 0.67084777 0.61764133
2.9558725 0.6559934 0.62066519
2.9550545 0.63681281 0.61965722
2.868784 0.5998311 0.60070771
2.8368917 0.57502025 0.59324884
2.8297942 0.55552769 0.59103137
2.8177531 0.5352304 0.58780593
2.8036435 0.51474833 0.58417726
2.7922823 0.49497232 0.58115339
2.774992 0.47436535 0.57691997
2.7855821 0.45860177 0.5785327
2.7883434 0.44150111 0.5785327
2.7832532 0.42320645 0.57691997
2.7857978 0.40612072 0.57691997
2.7882371 0.38901979 0.57691997
2.7925134 0.37216282 0.5773232
2.7996027 0.35563812 0.57833111
2.813401 0.33986223 0.58075023
2.8222451 0.32337317 0.58216137
2.8309927 0.30678838 0.58357251
2.8386683 0.29000887 0.58478206
2.8403943 0.27258566 0.58478206
2.8449402 0.25541478 0.58538681
2.8845203 0.24113357 0.59324884
2.8996174 0.22448756 0.59607112
2.8794463 0.2051615 0.59163612
2.9060636 0.18914209 0.59687752
2.9042358 0.17113461 0.59627271
2.9188368 0.13607445 0.5988934
2.868726 0.11610574 0.58841068
2.8018405 0.096186966 0.57450092
2.5254073 -0.18008216 0.46835929
2.683054 -0.20783339 0.49796486
2.6807485 -0.22421072 0.49778211
2.6744263 -0.24021678 0.49686834
2.6611578 -0.25549778 0.49467534
2.6526933 -0.27112359 0.4933961
2.4994736 -0.27101067 0.4650698
2.4635758 -0.28243247 0.45867354
2.4442267 -0.29542491 0.45538405
2.4257872 -0.30831426 0.45227727
2.4082565 -0.32111824 0.44935328
2.3965034 -0.33453256 0.44752577
2.3885682 -0.34838125 0.44642925
2.3756933 -0.36140731 0.44441903
2.373431 -0.37597749 0.44441903
2.3710794 -0.39053351 0.44441903
2.3696077 -0.40524027 0.44460177
2.371917 -0.4206292 0.44551551
2.3702583 -0.43535244 0.44569826
2.3675425 -0.4498879 0.44569826
2.3676319 -0.4649739 0.4462465
2.3695524 -0.48046818 0.44716027
2.3694468 -0.49560145 0.44770852
2.3673224 -0.51033765 0.44789127
2.3603072 -0.52400249 0.44716027
2.3369184 -0.5338828 0.44332251
2.3230696 -0.54574162 0.44131225
2.3034291 -0.55606806 0.43820551
2.2942479 -0.56877345 0.43710899
2.2888088 -0.58235568 0.4367435
2.2842412 -0.59614062 0.43656075
2.2900386 -0.61268336 0.43838826
2.2976151 -0.629839 0.44058126
2.2795076 -0.63994324 0.43784001
2.4295728 -0.69813305 0.4676283
17.608391 -7.2383127 3.5365546
17.54097 -7.3367362 3.5319858
17.463959 -7.4307561 3.5255895
17.38916 -7.525279 3.5197415
40.181992 -17.68153 8.1579447
16.913658 -7.8177748 3.4612615
16.808418 -7.89466 3.4495654
40.164581 -19.774006 8.319313
40.002922 -20.000294 8.3110895
39.5919 -20.0994 8.2511473
38.401917 -21.61738 8.1891956
9.0112247 -9.8891821 2.4846437
8.929985 -9.9216356 2.4789784
8.5227098 -9.5868273 2.3821208
8.3430605 -9.5015354 2.3481293
8.2652769 -9.5302677 2.3426466
8.1944923 -9.566617 2.3391745
8.1280174 -9.6077108 2.3369815
8.0191097 -9.5978012 2.3225441
7.9575648 -9.6437922 2.3218131
7.9255705 -9.7259703 2.3298542
7.870059 -9.7797785 2.3311334
7.8043981 -9.8209572 2.3294888
7.7306371 -9.8516445 2.3254681
7.6592031 -9.8849039 2.3221786
7.5876522 -9.9176598 2.3188891
7.524878 -9.9616766 2.3183408
7.4524441 -9.9926872 2.3148687
7.4014831 -10.052477 2.3181581
7.3622088 -10.128716 2.3252854
7.3068004 -10.183285 2.3274784
7.229404 -10.207067 2.322727
7.1660748 -10.250428 2.3225441
7.1080704 -10.301489 2.3241889
7.0447278 -10.344909 2.3241889
6.9844103 -10.392836 2.3252854
6.9313779 -10.451882 2.3289404
6.8595786 -10.482698 2.3263819
6.7860622 -10.51055 2.3232751
6.7166891 -10.544528 2.3216305
6.6680803 -10.611346 2.3272955
6.6002541 -10.647883 2.3263819
6.53018 -10.680633 2.3247371
6.4579215 -10.709555 2.3223615
6.383543 -10.734613 2.3192546
6.3160648 -10.771036 2.3187063
6.257731 -10.823206 2.3216305
6.1989937 -10.875064 2.3245544
6.1297407 -10.90861 2.3236406
6.0655494 -10.951177 2.3247371
6.0020094 -10.995091 2.3261991
5.9330344 -11.029115 2.3256509
5.8588023 -11.053151 2.3230925
5.7995191 -11.105449 2.3265646
5.7375655 -11.153065 2.3291233
5.6721344 -11.194199 2.3304024
5.6059756 -11.23407 2.3314989
5.5386734 -11.271785 2.3322299
5.4796839 -11.326797 2.336616
5.4062757 -11.352218 2.3349712
5.3102274 -11.329095 2.323458
5.2340236 -11.34718 2.320534
5.168364 -11.388035 2.3223615
5.1380763 -11.508408 2.3404536
5.0780396 -11.564023 2.3453879
5.0151744 -11.613916 2.3492258
4.9472771 -11.652616 2.3508704
4.876821 -11.685474 2.3514187
4.8083863 -11.723364 2.3530633
4.7400379 -11.761765 2.3548911
4.6703138 -11.797028 2.3561702
4.6046109 -11.842872 2.3596425
4.5371184 -11.88468 2.3623836
4.4682503 -11.923343 2.3645768
4.3997579 -11.963452 2.3671353
4.3316083 -12.005021 2.3700593
4.260818 -12.039714 2.3717041
4.1958895 -12.091638 2.376821
4.1273174 -12.133909 2.3801105
4.0586948 -12.176727 2.3835828
3.9848197 -12.204206 2.384131
3.9206417 -12.262138 2.3907101
3.8576651 -12.325371 2.3983855
3.7891641 -12.372311 2.4029543
3.7171285 -12.408512 2.4055128
3.6434085 -12.439577 2.4071577
3.572695 -12.481547 2.4109952
3.5045159 -12.533533 2.4168434
3.4417901 -12.606964 2.4268947
3.3706992 -12.651596 2.4314632
3.2939963 -12.675846 2.4321942
3.2231598 -12.723457 2.437494
3.152334 -12.772585 2.4431593
3.0787287 -12.811761 2.4469972
3.0054328 -12.853386 2.4513831
2.9326141 -12.898429 2.4565001
2.8589311 -12.941139 2.4612517
2.7860715 -12.9892 2.4670997
2.7089233 -13.018562 2.4694755
2.6336582 -13.058068 2.4738615
2.5342577 -12.975561 2.4552209
2.4624445 -13.032408 2.4630792
2.4108746 -13.202984 2.492502
2.3386946 -13.267876 2.5020049
2.2616892 -13.308146 2.5069392
2.1853895 -13.354761 2.5131528
2.1076856 -13.395113 2.5182698
2.0305967 -13.441817 2.5246661
1.9555507 -13.505593 2.5343518
1.8777736 -13.554344 2.5412962
1.800117 -13.607521 2.5491545
1.721755 -13.659279 2.5568302
1.6424745 -13.707657 2.5639572
1.5616658 -13.746783 2.5694399
1.481804 -13.798141 2.5772982
1.4015687 -13.850989 2.5855219
1.3206472 -13.902394 2.5935628
1.2389736 -13.951365 2.6012385
1.1576397 -14.010635 2.6109242
1.074725 -14.057668 2.618417
0.99100083 -14.100285 2.6251786
0.90811604 -14.163006 2.6357782
0.82387239 -14.214443 2.6443675
0.738828 -14.26145 2.6522257
0.65400076 -14.324643 2.6631908
0.56714332 -14.35491 2.6681249
0.48016894 -14.391528 2.6743386
0.39394575 -14.470862 2.6885931
0.30624771 -14.525102 2.6982789
0.21755981 -14.556199 2.7037613
0.1284931 -14.585771 2.7090611
0.039143916 -14.641341 2.719295
-0.050902527 -14.702261 2.7306256
-0.1413289 -14.724283 2.7348289
-0.23227416 -14.761478 2.7419562
-0.32385284 -14.805973 2.7505455
-0.41725042 -14.895104 2.7675412
-0.51001132 -14.93255 2.775034
-1.2717783 -31.578241 5.8722863
-1.4603201 -31.457884 5.8514528
-1.538931 -29.271671 5.4462957
-1.7192587 -29.274437 5.4486713
-1.8599043 -28.662905 5.3368282
-2.0028634 -28.188066 5.2505698
-2.1629958 -28.009586 5.2196851
-2.31162 -27.717535 5.1677842
-2.4637578 -27.503067 5.1305032
-2.6177557 -27.333776 5.1018109
-2.7797401 -27.26145 5.0913944
-2.9425211 -27.202827 5.0837188
-3.1159697 -27.24189 5.094501
-3.2789447 -27.188095 5.0881047
-3.3514619 -26.424248 4.9488492
-3.5157392 -26.419754 4.9519558
-3.7536042 -26.942015 5.0541134
-3.8910906 -26.727787 5.0182943
-4.060329 -26.7384 5.0248733
-4.2419734 -26.824659 5.0458894
-4.390058 -26.698204 5.0270662
-4.420609 -25.890606 4.8799524
-4.4650707 -25.217268 4.7580576
-4.6174121 -25.176825 4.755682
-4.7776713 -25.178928 4.7615299
-5.0117211 -25.555315 4.8384681
-5.1543846 -25.454702 4.8253098
-5.2672582 -25.215681 4.7860184
-5.3999476 -25.081007 4.7666469
-5.5222454 -24.905344 4.7396002
-5.6233482 -24.644777 4.6964707
-5.7549233 -24.526537 4.6805716
-5.8612943 -24.30821 4.6456661
-5.9819813 -24.157269 4.6237364
-6.1032171 -24.014339 4.6034508
-6.1993666 -23.780455 4.5658045
-6.3053141 -23.592846 4.5371127
-6.4232159 -23.456041 4.5182896
-6.4995928 -23.175741 4.4718709
-6.6237712 -23.073053 4.4598093
-6.7347445 -22.928213 4.4397068
-6.8509784 -22.805479 4.4239902
-6.9451814 -22.614519 4.3951159
-7.0361238 -22.419512 4.36551
-7.1300373 -22.240164 4.3390112
-7.2541313 -22.158621 4.3317013
-7.3338728 -21.945847 4.2988062
-7.4372964 -21.80924 4.2808967
-7.5402899 -21.67498 4.2635355
-7.6333709 -21.51619 4.2414227
-7.7110791 -21.319168 4.2118173
-7.8162432 -21.202267 4.1981106
-7.9174976 -21.077517 4.1829424
-8.0027609 -20.913759 4.1600986
-8.094882 -20.771738 4.1416411
-8.1793976 -20.613844 4.1200762
-8.2703829 -20.475752 4.1025324
-8.3603563 -20.338234 4.0851712
-8.44592 -20.193129 4.0663476
-8.526556 -20.0396 4.0458798
-8.6317863 -19.946301 4.0376558
-8.7524281 -19.88936 4.0369248
-8.9554014 -20.016569 4.0738406
-9.1684017 -20.159925 4.1144114
-9.3847332 -20.304092 4.15553
-9.5847864 -20.4072 4.1886077
-9.7805281 -20.496187 4.2191272
-10.00688 -20.643696 4.2620735
-10.366114 -21.054691 4.3600278
-10.736034 -21.472591 4.4601746
-10.837323 -21.346699 4.4477477
-10.971704 -21.286791 4.4492097
-11.217873 -21.440338 4.4956284
-11.455269 -21.570818 4.5376611
-11.928826 -22.133657 4.6714339
-12.146962 -22.211002 4.7034154
-1.8362072 -3.3079176 0.70100045
-1.8506824 -3.2863078 0.69880748
-1.8703245 -3.2740364 0.69862473
-1.8834801 -3.2505879 0.6960662
-1.8979123 -3.229645 0.69405597
-1.9116554 -3.207803 0.69186294
-1.9175776 -3.173291 0.68692869
-1.9303371 -3.1505659 0.68455297
-1.9423717 -3.1269686 0.68199444
-1.9526185 -3.1008465 0.67888767
-1.9663202 -3.0805192 0.67706019
-1.9771762 -3.0560126 0.67431891
-1.9845725 -3.0265555 0.67048115
-1.99005 -2.9946666 0.66609514
-1.9919175 -2.9579315 0.66061264
-2.0078135 -2.9424047 0.65988165
-2.0135326 -2.9122362 0.65586114
-2.0324917 -2.9014373 0.65622663
-2.0411546 -2.8760812 0.65330261
-2.0593371 -2.8643012 0.65348542
-2.0705085 -2.8428683 0.65147513
-2.075659 -2.8134937 0.64763737
-2.0893531 -2.7959788 0.64654088
-2.0975718 -2.7713454 0.6437996
-2.118125 -2.7631052 0.64489615
-2.1356421 -2.7508333 0.6450789
-2.1451902 -2.7284012 0.64288586
-2.1527076 -2.7036483 0.64014459
-2.1637037 -2.6834993 0.63849986
-2.1819935 -2.6724577 0.6390481
-2.1877031 -2.6461353 0.63594139
-2.1988509 -2.6266301 0.63447934
-2.2295439 -2.6303413 0.6386826
-2.2277172 -2.5957179 0.6335656
-2.2468259 -2.5857115 0.63447934
-2.2762835 -2.5873804 0.63831711
-2.2895017 -2.5704277 0.63758612
-2.2999642 -2.5504889 0.63612413
-2.3485427 -2.4489291 0.62844861
-2.3737953 -2.4450557 0.63118982
-2.3990884 -2.4409642 0.6339311
-2.4154074 -2.427592 0.6342966
-2.4651358 -2.4473667 0.64343411
-2.4906332 -2.4425228 0.64617538
-2.4792275 -2.3723428 0.63557583
-2.6712506 -2.4940794 0.67706019
-2.8086226 -2.5903101 0.70794499
-2.8905909 -2.633291 0.72457528
-3.122988 -2.8102014 0.77866936
-21.856339 -19.431538 5.4338684
-21.983282 -19.304201 5.4358788
-22.100574 -19.168308 5.4356961
-22.174467 -18.995241 5.4250965
-22.32888 -18.891209 5.4344168
-22.446638 -18.755737 5.4349651
-22.555233 -18.612648 5.4335032
-22.65377 -18.461479 5.4298482
-22.742878 -18.303022 5.4241829
-22.839361 -18.150896 5.4205279
-22.91782 -17.984922 5.4128523
-22.958576 -17.790363 5.3965874
-23.043879 -17.631235 5.3911047
-23.234781 -17.552328 5.4104767
-30.195223 -22.521065 6.9996734
-30.331259 -22.334202 6.9993076
-23.533251 -17.106647 5.405725
-23.631382 -16.957342 5.404263
-23.737392 -16.81373 5.4048114
-23.811106 -16.647482 5.398232
-23.729929 -16.374866 5.3569307
-23.812891 -16.217331 5.3530927
-23.832802 -16.017714 5.3353662
-17.45713 -11.577617 3.8914557
-17.469433 -11.432059 3.8784804
-17.525209 -11.315587 3.8753736
-17.598455 -11.210484 3.8762875
-17.720184 -11.135772 3.8879836
-17.702112 -10.973475 3.8691602
-17.780853 -10.871831 3.8717186
-17.843018 -10.759987 3.870805
-17.91293 -10.652814 3.8717186
-17.976259 -10.541707 3.8713531
-18.080606 -10.45434 3.8799424
-18.098289 -10.316909 3.870074
-18.185251 -10.219152 3.875191
-18.337055 -10.156923 3.894197
-18.407661 -10.048929 3.8960245
-18.566809 -9.98843 3.9166753
-18.625143 -9.8729372 3.916127
-18.693213 -9.7625656 3.9177718
-18.751888 -9.647233 3.9175889
-18.813362 -9.5333252 3.9181373
-18.877661 -9.4207821 3.9194164
-18.936874 -9.3056412 3.9197819
-19.003351 -9.1939812 3.9217923
-19.074495 -9.0843935 3.9248991
-19.154804 -8.9788685 3.930016
-19.234533 -8.8726997 3.935133
-19.319052 -8.7683277 3.9413466
-19.390444 -8.6576405 3.9450016
-19.447702 -8.5404768 3.9459152
-19.522303 -8.4307327 3.950484
-19.59267 -8.3188572 3.9543219
-19.666935 -8.2083282 3.9590733
-19.750586 -8.101306 3.9658351
-19.814512 -7.9858465 3.9687591
-19.894218 -7.8764229 3.9749727
-19.971495 -7.7656083 3.9808207
-20.028872 -7.6467776 3.982831
-20.126968 -7.5430613 3.9930649
-20.189482 -7.4255323 3.9963543
-20.245762 -7.3055167 3.9985473
-20.324499 -7.1932921 4.0053091
-20.36268 -7.0665135 4.0042129
-20.438232 -6.9525204 4.0106091
-20.475845 -6.8254275 4.0096951
-20.518274 -6.6999674 4.0098782
-20.579599 -6.5805316 4.0138984
-20.680576 -6.4732256 4.0257773
-20.736828 -6.3513932 4.0290666
-20.814022 -6.2356043 4.0365596
-20.878309 -6.1155133 4.0416765
-20.963644 -6.001092 4.0509968
-21.053095 -5.8871775 4.0612307
-21.139088 -5.7716141 4.0709167
-21.199755 -5.6486335 4.075851
-21.28064 -5.5305667 4.0848055
-29.219654 -7.4029884 5.6007195
-29.2798 -7.2273307 5.6036434
-29.33889 -7.0512133 5.6065674
-44.312046 -10.362999 8.4567413
-44.461079 -10.110533 8.4731894
-44.50116 -9.8328676 8.4691687
-44.617371 -9.5717964 8.4799509
-44.593655 -8.9957485 8.4538174
-44.307507 -8.3735256 8.3794384
-44.311623 -8.0930233 8.3706665
-41.684971 -7.0857902 7.8573208
-44.189178 -7.2328196 8.3209581
-44.007408 -6.9260783 8.2785597
-43.979084 -6.6453462 8.2654018
-43.336266 -4.6554661 8.0994644
-43.377689 -3.5855973 8.0883169
-43.4077 -3.320044 8.089962
-43.544941 -3.0619144 8.1118917
-43.462833 -2.7882483 8.0932512
-44.17894 -2.562109 8.2235527
-44.442234 -2.3038652 8.2697878
-44.583214 -2.0369647 8.2935457
-44.650867 -1.765584 8.3039627
-73.782036 16.358227 14.045429
-73.65152 16.804077 14.039947
-73.303909 17.198639 13.993528
-71.765244 17.302914 13.719769
-70.799507 17.992199 13.576309
-70.164001 18.750265 13.497544
-69.261528 18.965191 13.346044
-69.422173 19.467857 13.399773
-69.056656 19.8232 13.35244
-68.735626 20.188372 13.314063
-67.072594 21.501501 13.090194
-65.579422 22.812252 12.904154
-65.403 23.201719 12.897209
-65.235367 23.593893 12.892458
-65.062622 23.983866 12.887158
-64.699783 24.302082 12.844577
-64.363968 24.627647 12.807662
-64.109962 24.982491 12.787376
-63.88784 25.34856 12.773852
-63.603474 25.688547 12.748268
-63.320984 26.027494 12.723413
-63.172791 26.420845 12.725972
-62.984154 26.797192 12.720855
-62.857342 27.199942 12.728713
-62.76395 27.617979 12.743881
-62.548439 27.982496 12.734744
-62.320076 28.340527 12.723413
-62.148579 28.724033 12.724145
-61.662365 28.959805 12.66073
-61.408089 29.301624 12.645197
-61.115665 29.623835 12.622169
-60.888645 29.976564 12.613032
-60.647285 30.321468 12.601336
-60.407494 30.666319 12.590371
-60.200714 31.027388 12.586717
-59.86459 31.320532 12.55638
-59.58445 31.641153 12.538105
-59.300903 31.958588 12.519464
-59.069191 32.302982 12.512155
-58.704807 32.573231 12.477066
-58.472996 32.915462 12.470488
-58.262245 33.269238 12.468843
-57.938755 33.557613 12.44344
-57.677502 33.880615 12.431745
-57.52597 34.268093 12.444171
-57.179131 34.538582 12.414748
-56.904926 34.851292 12.401407
-56.664116 35.18372 12.395742
-56.330677 35.45742 12.370157
-56.054039 35.765377 12.357365
-55.80051 36.087284 12.350055
-55.579678 36.430073 12.35042
-55.286308 36.72472 12.33507
-55.064819 37.066555 12.336165
-54.752689 37.346664 12.317343
-54.508755 37.672417 12.314236
-54.236305 37.97797 12.305099
-53.8507 38.20253 12.270558
-53.647217 38.555183 12.277868
-53.415203 38.88768 12.279147
-53.237305 39.260216 12.293402
-52.885921 39.504349 12.268
-52.625282 39.81506 12.263979
-52.308193 40.082199 12.247167
-52.055054 40.397579 12.245705
-51.75518 40.676125 12.233643
-51.553085 41.031498 12.245156
-51.227627 41.288437 12.227795
-50.843834 41.496307 12.196727
-50.409409 41.659691 12.153598
-50.143791 41.960644 12.151405
-49.810375 42.203976 12.13313
-49.491528 42.458237 12.118692
-49.245663 42.774651 12.122531
-48.924686 43.025368 12.108276
-48.634068 43.301872 12.10188
-48.42807 43.654106 12.117048
-48.172375 43.962368 12.120337
-47.890163 44.246441 12.117414
-47.660137 44.579082 12.128196
-47.384281 44.869328 12.127831
-47.126526 45.176914 12.132582
-46.895004 45.510422 12.144644
-46.64994 45.831757 12.153781
-46.429886 46.178837 12.170046
-46.214256 46.531918 12.188138
-45.929935 46.816711 12.188686
-45.740334 47.199314 12.215002
-45.109421 48.296215 12.281889
-44.890232 48.656639 12.30327
-44.676266 49.024906 12.326845
-44.381847 49.306149 12.328856
-44.184303 49.696568 12.358461
-43.96093 50.060562 12.381671
-43.780487 50.476418 12.417855
-43.58316 50.876255 12.450202
-43.241589 51.108944 12.441978
-43.074848 52.197632 12.577396
-42.64003 52.981937 12.639348
-11.703451 14.726912 3.4943392
-11.651108 14.847171 3.5058525
-11.314081 14.601312 3.4312904
-11.211132 14.65328 3.4272699
-11.115085 14.71395 3.4254425
-10.682484 14.32321 3.3190818
-9.761919 13.257974 3.0581143
-9.0664454 12.473078 2.8640335
-8.2864141 11.548384 2.6397986
-7.8386183 11.067104 2.5186353
-7.3131123 10.460728 2.3702419
-6.9120688 10.017465 2.2600436
-6.3446345 9.3169737 2.0930097
-6.210566 9.2414913 2.0674248
-6.1597219 9.2884378 2.0694349
-6.0816159 9.2939749 2.0623076
-6.0426083 9.3591976 2.0685213
-9.0293531 14.174726 3.1217113
-8.9401159 14.226532 3.1209803
-8.8485098 14.274435 3.1195183
-8.763835 14.333493 3.1206148
-5.8029389 9.623497 2.0866134
-5.7467961 9.6639929 2.0877099
-5.7112651 9.7397795 2.096482
-5.6504111 9.7729387 2.0961165
-8.378952 14.698924 3.1427276
-8.279933 14.734632 3.1394382
-8.1779337 14.764519 3.1350522
-7.7819004 14.255241 3.0166299
-5.3796444 10.000539 2.1085434
-5.3204837 10.037703 2.1094573
-5.2587934 10.07016 2.1094573
-5.2229934 10.152943 2.1200569
-5.1579313 10.179538 2.1189604
-5.0971298 10.214514 2.1196914
-5.0421643 10.261479 2.1229808
-4.9846725 10.303729 2.1253564
-4.9192424 10.329682 2.1244428
-4.8745475 10.399731 2.1326666
-4.8094087 10.426765 2.1321182
-4.7587504 10.485623 2.138149
-4.6971283 10.520909 2.1394284
-4.6332755 10.551332 2.1397939
-4.5867677 10.621984 2.1483831
-4.533803 10.678886 2.1542311
-4.4769034 10.727372 2.1584344
-4.4199524 10.77647 2.1628203
-4.3666101 10.835303 2.1692166
-4.3061972 10.877433 2.1723235
-4.2507758 10.932972 2.1781714
-4.1997447 11.001099 2.1865778
-4.1470013 11.066247 2.1944361
-4.0895438 11.120089 2.2001014
-4.0222363 11.147747 2.2006497
-3.9576962 11.183339 2.2028427
-3.8970609 11.230632 2.2074115
-3.8391607 11.286909 2.2138076
-3.7735643 11.321446 2.2160008
-3.7119617 11.368687 2.2207522
-3.651119 11.419342 2.2262347
-3.5953746 11.487504 2.2351894
-3.5383549 11.553532 2.2437787
-3.4772737 11.607987 2.250175
-3.4170387 11.666845 2.2574849
-3.3594592 11.736741 2.266988
-3.2953248 11.785539 2.2724705
-3.2289047 11.827351 2.2766738
-3.1661458 11.88399 2.2838011
-3.1097383 11.966948 2.2960453
-3.0442209 12.017253 2.3020761
-2.9793811 12.071978 2.3090205
-2.9181199 12.143564 2.3192546
-2.8518376 12.196661 2.3260164
-2.7826154 12.238856 2.3307679
-2.715528 12.292179 2.3377125
-2.6478903 12.34514 2.3446569
-2.5823095 12.410242 2.3539772
-2.5166123 12.477896 2.3638458
-2.4488621 12.538454 2.3724351
-2.3793674 12.592853 2.3799276
-2.3153036 12.679751 2.3936341
-2.2478724 12.752781 2.4047818
-2.1763361 12.806073 2.4122746
-2.103754 12.856055 2.419219
-2.0288057 12.893972 2.4239705
-1.9577314 12.959644 2.4340219
-1.8914238 13.062876 2.4512005
-1.8170394 13.116111 2.4590585
-1.7440076 13.183543 2.4696581
-1.6676331 13.230087 2.4764199
-1.589934 13.269356 2.4819024
-1.5201424 13.381433 2.5010912
-1.4425231 13.432544 2.5089495
-1.3675026 13.514503 2.5226557
-1.2884605 13.563747 2.5303314
-1.2093875 13.618403 2.5391033
-1.1297731 13.673578 2.548058
-1.049527 13.728289 2.5570128
-0.97258377 13.838428 2.5763843
-0.89313191 13.929495 2.5922837
-0.8134529 14.034827 2.6109242
-0.72940898 14.079809 2.618417
-0.64434981 14.113484 2.6238995
-0.5580498 14.125031 2.6253614
-0.47018781 14.092814 2.6187825
-0.37488893 13.772096 2.5586576
-0.29116723 13.811487 2.5656021
-0.20715308 13.862166 2.5747397
-0.12309397 13.976235 2.5957558
-0.037506334 14.039649 2.6074519
0.048764247 14.075992 2.6142137
0.13689718 14.260253 2.6485708
0.71081406 45.266144 8.4128819
0.98352855 45.030926 8.3701181
1.5169507 44.455391 8.2659502
1.773325 44.038544 8.1902914
2.0317047 43.772469 8.1429596
2.2926135 43.613876 8.1159124
2.5525169 43.468452 8.0916061
2.8006039 43.165489 8.0382433
3.1681535 44.594006 8.3078003
3.4694138 44.932495 8.3746872
3.7671046 45.174896 8.4240294
4.0978041 45.749252 8.5356903
4.4153581 46.108849 8.6076937
4.7387743 46.47897 8.6820726
5.0607657 46.790154 8.7458525
5.4085355 47.289593 8.8452692
5.7546186 47.720135 8.9322577
6.0918407 48.035053 8.9980478
6.4551849 48.513294 9.0949059
6.8354754 49.066765 9.2063837
7.1934843 49.415981 9.2800322
7.5551486 49.756805 9.3525839
7.9617987 50.351406 9.473382
8.3412552 50.731377 9.5543404
8.6867933 50.880821 9.5923519
8.987174 50.760731 9.5799255
7.7975307 20.008656 3.9894099
9.7558851 4.7936926 2.0182648
9.6851082 4.6853538 1.997614
9.5645552 4.5548129 1.966912
9.354641 4.3846164 1.9181176
9.2358513 4.2600036 1.8883294
2.8882182 0.69349182 0.54986596
2.9536877 0.69008654 0.561562
2.9626598 0.67304021 0.56247574
2.9456139 0.65018201 0.55845523
2.9562769 0.6335395 0.55973446
2.9543333 0.61418617 0.55863798
2.9252789 0.58943659 0.55242443
2.8053312 0.54734683 0.52903241
2.7941461 0.52738458 0.52629113
2.7886248 0.50864017 0.5246464
2.5564151 0.4500353 0.48023808
2.5891752 0.43944895 0.48590332
2.6403351 0.43149504 0.49504086
2.634192 0.41391033 0.4933961
2.634738 0.39744562 0.49303061
2.6196129 0.3787348 0.48974109
2.6627893 0.36832252 0.49741662
2.7809839 0.36732656 0.51916391
2.8065958 0.35320792 0.52354991
2.7852821 0.33317193 0.51916391
2.810719 0.31874007 0.52354991
2.8243523 0.3027482 0.52574289
2.83496 0.28630385 0.52738768
2.8356848 0.26881045 0.52720493
2.864701 0.25384244 0.53232193
2.9416504 0.24249779 0.54639369
2.8989699 0.22106886 0.53816992
2.8963487 0.20300105 0.53743893
2.890672 0.18478486 0.53615969
2.894696 0.16721536 0.53670794
2.9005766 0.14970526 0.53762168
2.8906372 0.13141106 0.53561145
2.8422694 0.11172891 0.52647394
2.8831885 0.095633112 0.53396666
2.6876881 -0.18983133 0.45077527
2.6520581 -0.20367369 0.44497448
2.6655004 -0.2211668 0.44746053
2.6415012 -0.23550205 0.44364861
2.6792746 -0.25545231 0.45027804
2.5353949 -0.25743207 0.42624632
2.4494455 -0.26389313 0.411993
2.4448407 -0.27858251 0.4114958
2.4283986 -0.29181254 0.40900975
2.4167786 -0.30547002 0.40735239
2.3865085 -0.31653088 0.40254605
2.3747535 -0.32981095 0.40088868
2.3736608 -0.34451768 0.40105441
2.3744273 -0.35951883 0.40155163
2.374125 -0.37438864 0.4018831
2.3756757 -0.38958761 0.40254605
2.3771291 -0.4048197 0.40320897
2.3794563 -0.42025587 0.40403765
2.3797429 -0.43538067 0.40453488
2.3838093 -0.45125878 0.40569502
2.3868024 -0.46701372 0.40668944
2.3877583 -0.48243159 0.40735239
2.3876495 -0.49767745 0.40784961
2.3864791 -0.51273286 0.40818107
2.3852139 -0.52779263 0.40851253
2.3857768 -0.54329425 0.40917549
2.3996813 -0.56197172 0.41215873
2.4220748 -0.58291757 0.41663361
2.430898 -0.60084528 0.41878819
2.4386361 -0.61866057 0.42077702
2.4147525 -0.62839502 0.41729656
2.3860776 -0.63658845 0.41298741
70.066422 -24.82926 12.490842
70.25222 -25.381355 12.551501
40.507511 -16.344311 7.3389344
42.594913 -18.105221 7.7763124
42.535522 -18.388935 7.7859249
40.517723 -19.316534 7.5416298
40.247543 -19.797495 7.5359945
38.289185 -19.421328 7.2133064
39.549294 -20.366558 7.474175
39.305599 -20.547169 7.4518008
38.268169 -20.606689 7.3024726
38.816887 -21.210428 7.4319124
66.592461 -37.456226 12.83839
9.2128248 -10.102434 2.2957499
9.1632042 -10.172696 2.2988989
8.5034494 -9.5575209 2.1479132
8.358717 -9.5117331 2.1260359
8.276926 -9.5360308 2.1200695
8.2111979 -9.5784016 2.1182466
8.1369781 -9.6105404 2.1142688
8.0291462 -9.6020336 2.1015072
7.9543796 -9.6321087 2.0973637
7.9244213 -9.7166538 2.1051533
7.9023838 -9.8119459 2.1152632
7.8309808 -9.8463564 2.1122799
7.7606726 -9.8818111 2.1096282
7.6962667 -9.9245682 2.1086338
7.6262326 -9.9598598 2.1061478
7.5590301 -9.9985991 2.1044903
7.5063848 -10.056646 2.1069763
7.4474626 -10.106485 2.107805
7.3679066 -10.128067 2.102833
7.2791624 -10.136238 2.0952091
7.1746283 -10.121175 2.0829446
7.1270905 -10.186016 2.0872538
7.1048036 -10.287982 2.0991869
7.042099 -10.332197 2.0993526
6.9752674 -10.370303 2.0983582
6.9229574 -10.430161 2.1018386
6.858829 -10.472444 2.1018386
6.7912307 -10.509361 2.1008441
6.7234378 -10.545845 2.0998497
6.6664782 -10.599422 2.1023357
6.6080742 -10.651022 2.1044903
6.5359054 -10.680432 2.1023357
6.4671907 -10.715269 2.1013412
6.3998079 -10.752207 2.1008441
6.3247285 -10.775964 2.0978608
6.2639222 -10.823958 2.099684
6.2027659 -10.871611 2.1015072
6.136909 -10.911184 2.1018386
6.0688877 -10.94691 2.1015072
6.0034957 -10.987404 2.10217
5.9373674 -11.026638 2.1026673
5.8645134 -11.053279 2.1008441
5.8011498 -11.097795 2.1025014
5.7406211 -11.148086 2.105319
5.6756778 -11.190136 2.1066449
5.6126385 -11.236219 2.1087995
5.5461998 -11.275757 2.1097939
5.4794879 -11.3149 2.1107883
5.3976512 -11.322494 2.1059821
5.3201175 -11.338436 2.102833
5.2330828 -11.333262 2.0958722
5.166708 -11.372342 2.097198
5.1491413 -11.520874 2.1187437
5.069623 -11.532391 2.1150975
5.0038528 -11.575048 2.1172521
4.9485512 -11.642745 2.1240473
4.8956475 -11.717477 2.1321683
4.8266554 -11.754593 2.1334941
4.7533326 -11.781244 2.132997
4.6816816 -11.812022 2.1333284
4.6180592 -11.863501 2.1374719
4.5469394 -11.896219 2.1383004
4.475246 -11.927588 2.1389635
4.406064 -11.965928 2.1409523
4.3355751 -12.001085 2.1424439
4.2710781 -12.05349 2.1470845
4.204483 -12.100895 2.1508965
4.1396923 -12.15447 2.1558685
4.0709677 -12.197416 2.1590176
4.0040169 -12.246537 2.1633267
3.9348121 -12.289659 2.1666415
3.8675878 -12.33992 2.1712821
3.798449 -12.385103 2.1750939
3.7280512 -12.427069 2.1784086
3.6572809 -12.468636 2.1817234
3.5845106 -12.504114 2.1840436
3.514101 -12.548664 2.1880214
3.4456208 -12.601381 2.1934907
3.3738286 -12.643249 2.1971369
3.2974298 -12.668484 2.1979656
3.2303069 -12.730536 2.2052579
3.1573396 -12.771179 2.208904
3.0899954 -12.836333 2.2168593
3.0174723 -12.881937 2.2215002
2.9418774 -12.915594 2.2241518
2.8674748 -12.955548 2.2279637
2.7897916 -12.981577 2.2294555
2.7145138 -13.019689 2.2331016
2.6410215 -13.067998 2.2385709
2.5426049 -12.991048 2.2226603
2.4819257 -13.107176 2.2398968
2.4192066 -13.219164 2.2564704
2.3454268 -13.275517 2.263597
2.2695558 -13.322713 2.269232
2.1959076 -13.38602 2.2776847
2.1192627 -13.43431 2.2836511
2.0441751 -13.495812 2.2919378
1.9655786 -13.537379 2.29691
1.8857346 -13.572628 2.3008876
1.8056614 -13.608383 2.3050311
1.7244784 -13.637795 2.3081801
1.645003 -13.683369 2.3141465
1.5633578 -13.71378 2.317627
1.486051 -13.786847 2.3283999
1.4085038 -13.865365 2.340167
1.3276145 -13.917924 2.3476253
1.246133 -13.97001 2.3550835
1.1637357 -14.017688 2.3618786
1.080196 -14.057014 2.367348
0.99774647 -14.117481 2.3764634
0.91307217 -14.153845 2.3816011
0.82999927 -14.224158 2.3925397
0.74501848 -14.273299 2.3999979
0.6591484 -14.315038 2.4062958
0.57251889 -14.34936 2.4114337
0.48519376 -14.374286 2.4150798
0.39774749 -14.404593 2.4197204
0.31043413 -14.457047 2.4281731
0.22371581 -14.58884 2.4500501
0.13453129 -14.626424 2.4561825
0.044936057 -14.677269 2.4646349
-0.045235455 -14.713757 2.4707673
-0.13594399 -14.75955 2.4785569
-0.22706473 -14.794922 2.484689
-0.31883657 -14.839588 2.4924786
-0.41252735 -14.932974 2.5085549
-0.50591117 -14.9824 2.517339
-1.2629584 -31.63892 5.3194399
-1.4462655 -31.396114 5.2799945
-1.5302107 -29.30571 4.9297943
-1.709711 -29.290846 4.9289656
-1.8482488 -28.64209 4.8215685
-1.9938442 -28.204264 4.7498045
-2.1593821 -28.094154 4.733397
-2.3040564 -27.74721 4.6772122
-2.454109 -27.50663 4.6390929
-2.6027014 -27.279984 4.6034598
-2.7631607 -27.195807 4.5920238
-2.9273362 -27.153828 4.5878806
-3.1173556 -27.341118 4.622685
-3.1980541 -26.597908 4.500206
-3.3498116 -26.487772 4.4849582
-3.5147395 -26.485294 4.4881072
-3.6910293 -26.562862 4.5050125
-3.9195657 -26.99157 4.581748
-4.0876198 -26.983587 4.5845656
-4.2320552 -26.824545 4.5618601
-4.3687863 -26.628742 4.5330219
-4.4345365 -26.028831 4.4354033
-4.466495 -25.278614 4.3120956
-4.6124625 -25.20126 4.3036432
-4.7782011 -25.23159 4.3137531
-4.9884357 -25.485363 4.3623137
-5.1384654 -25.423342 4.3570099
-5.2704082 -25.276451 4.3372874
-5.3978415 -25.115404 4.3152447
-5.5222192 -24.947973 4.2922072
-5.6197758 -24.670351 4.2502761
-5.7543988 -24.564352 4.2380114
-5.8486938 -24.29464 4.1975718
-5.9742193 -24.163519 4.1811638
-6.098114 -24.030819 4.1645904
-6.1915402 -23.785852 4.1286259
-6.2923622 -23.578764 4.0992904
-6.4127293 -23.451244 4.0838771
-6.5357575 -23.337385 4.0709496
-6.625833 -23.111986 4.038631
-6.7303243 -22.944092 4.0164223
-6.8327217 -22.774847 3.9940479
-6.9208627 -22.564672 3.9645469
-7.0385394 -22.45591 3.9529455
-7.1458197 -22.31744 3.9362061
-7.2449245 -22.157883 3.9158206
-7.3389072 -21.987661 3.8936119
-7.4263062 -21.803125 3.8689172
-7.5291972 -21.668653 3.8531723
-7.6373072 -21.55233 3.8407421
-7.7245026 -21.380781 3.8185334
-7.8132911 -21.218229 3.7979822
-7.9097304 -21.080326 3.7819057
-7.9913931 -20.907038 3.7595313
-8.0898314 -20.781334 3.7457752
-8.1812162 -20.640545 3.7293673
-8.2744999 -20.50765 3.7144511
-8.3619661 -20.363443 3.697546
-8.4392309 -20.198009 3.6768291
-8.5236559 -20.053274 3.6599238
-8.6246252 -19.949905 3.6506426
-8.7579851 -19.921888 3.6552832
-8.9368 -19.994722 3.678652
-9.1747627 -20.193598 3.7255554
-9.3605108 -20.271221 3.7504158
-9.57269 -20.400887 3.7852204
-9.8054829 -20.567871 3.8273175
-10.035953 -20.722996 3.8675914
-10.252586 -20.843317 3.9017329
-10.468427 -20.956461 3.9348803
-10.725742 -21.146008 3.9827778
-10.952362 -21.268297 4.0184112
-11.187736 -21.401705 4.0565305
-1.796576 -3.3863473 0.64220047
-1.797683 -3.3387921 0.63523954
-1.8105695 -3.3138523 0.63258779
-1.8184361 -3.280256 0.62827867
-1.82886 -3.2518458 0.62496394
-1.8552901 -3.2061126 0.62048906
-1.8614491 -3.1717052 0.61601418
-1.8748223 -3.1500549 0.61402535
-1.8880002 -3.1283603 0.61203653
-1.8994383 -3.1040995 0.60955048
-1.9116899 -3.0814927 0.60739589
-1.9158599 -3.0463312 0.60275531
-1.9202013 -3.0120668 0.59828043
-1.9343648 -2.9936018 0.59695452
-1.9510758 -2.9792016 0.5964573
-1.9698645 -2.9679954 0.59662306
-1.9869378 -2.9542162 0.5962916
-1.9933633 -2.9248567 0.59281111
-1.9972619 -2.8922839 0.58866769
-2.010448 -2.8735106 0.58734185
-2.0337451 -2.8691657 0.58899921
-2.0524621 -2.8582349 0.58933067
-2.0664804 -2.8408027 0.58833623
-2.0674908 -2.8058405 0.58369565
-2.0740502 -2.7788768 0.58071238
-2.0880883 -2.7621653 0.57988369
-2.0990016 -2.7414711 0.57822633
-2.1103444 -2.7215266 0.57673472
-2.1221306 -2.702322 0.57540882
-2.1380579 -2.688478 0.57524312
-2.1526582 -2.6730046 0.57474589
-2.1596694 -2.6482823 0.57225984
-2.1677148 -2.6250961 0.57010525
-2.1812508 -2.6087198 0.56944233
-2.193393 -2.590771 0.56844789
-2.2047553 -2.5720232 0.56728774
-2.2211421 -2.5591912 0.5674535
-2.2355011 -2.5440328 0.56712204
-2.2451689 -2.5236373 0.56563038
-2.2540112 -2.5024867 0.56397301
-2.2733107 -2.4929812 0.56496745
-2.2932475 -2.4840572 0.5661276
-2.3158538 -2.4778645 0.56795073
-2.3249137 -2.4571612 0.56645906
-2.3392644 -2.4421375 0.56629336
-2.3610709 -2.4348173 0.56795073
-2.3759661 -2.4202843 0.56795073
-2.387296 -2.4021628 0.56712204
-2.405488 -2.3909452 0.56795073
-2.4370027 -2.3927212 0.57192838
-2.455178 -2.3811555 0.57275707
-2.4462411 -2.3435342 0.56728774
-2.6398861 -2.3489215 0.59181672
-3.1542819 -2.7720845 0.70368856
-3.3239093 -2.8851926 0.73766452
-22.204096 -19.034397 4.9130549
-22.362617 -18.933483 4.9223361
-22.464752 -18.784525 4.9193525
-22.568184 -18.636913 4.9168668
-22.647722 -18.470037 4.9094086
-22.765234 -18.334438 4.9104028
-22.83408 -18.160032 4.9011216
-22.898542 -17.98304 4.8911777
-22.973385 -17.815002 4.8837194
-23.069735 -17.664112 4.8810678
-23.214659 -17.550179 4.8888574
-30.414101 -22.700926 6.3761735
-30.54726 -22.509789 6.3750134
-23.516224 -17.107138 4.885211
-23.613539 -16.957344 4.8837194
-23.690592 -16.793316 4.8782501
-23.748747 -16.616543 4.8691349
-23.702566 -16.368521 4.8389707
-23.752848 -16.188896 4.8288608
-23.724079 -15.956987 4.8030062
-17.443834 -11.57809 3.5165622
-17.479898 -11.448146 3.5096011
-17.526621 -11.325689 3.5049605
-17.617405 -11.231718 3.5092697
-17.692669 -11.127608 3.5105956
-17.688545 -10.974128 3.4963424
-17.758072 -10.866931 3.4968395
-17.828638 -10.760313 3.4976683
-17.901104 -10.65475 3.4989941
-17.964443 -10.543713 3.4986627
-18.040751 -10.440201 3.500983
-18.105326 -10.329799 3.5011487
-18.223379 -10.249451 3.5117557
-18.335087 -10.164696 3.5212028
-18.411825 -10.06004 3.5240202
-18.554825 -9.9908257 3.5395994
-18.63146 -9.885107 3.5425828
-18.693512 -9.7715139 3.5429142
-18.76539 -9.6629496 3.5452344
-18.826088 -9.5485172 3.5455661
-18.892262 -9.4367886 3.5470576
-18.959543 -9.3254776 3.5488808
-19.021732 -9.2115479 3.549875
-19.107271 -9.1086636 3.5553443
-19.183334 -9.000886 3.5591564
-19.268644 -8.8970652 3.5647914
-19.330954 -8.7823391 3.566283
-19.386276 -8.6643658 3.5666144
-19.471577 -8.5595379 3.5725811
-19.511057 -8.4344225 3.5702608
-19.599655 -8.3303623 3.5770559
-19.680428 -8.2224894 3.582525
-19.753315 -8.1109428 3.5866685
-19.819174 -7.9962268 3.5896518
-19.887117 -7.8820992 3.5931323
-19.94154 -7.7624297 3.5942924
-20.022877 -7.6529508 3.6004245
-20.088848 -7.5372238 3.6039052
-20.16433 -7.4247231 3.6092086
-20.252172 -7.3162699 3.6168325
-20.313416 -7.1977954 3.6198158
-20.382351 -7.081758 3.6242907
-20.448757 -6.964509 3.6284339
-20.502331 -6.8426533 3.6304228
-20.557055 -6.721015 3.6327431
-20.610115 -6.5986614 3.6348977
-20.639866 -6.4688315 3.6330748
-20.696138 -6.347271 3.6360579
-20.821598 -6.2462311 3.6513057
-20.883188 -6.1252933 3.6554489
-21.000011 -6.0198679 3.6693709
-21.078339 -5.9026008 3.6766632
-21.137941 -5.7796578 3.6808066
-21.201591 -5.6574764 3.6857789
-21.256901 -5.5327444 3.689425
-29.208012 -7.41113 5.0622172
-29.248148 -7.2305903 5.0613885
-29.336067 -7.0616069 5.0690126
-44.316414 -10.380234 7.6473694
-44.450424 -10.124324 7.6596341
-44.620514 -9.8754711 7.6783619
-44.727516 -9.6116505 7.6864829
-44.843571 -9.3491039 7.6964273
-45.04702 -9.1034641 7.7216191
-45.166874 -8.8395796 7.7327237
-45.379169 -8.5923624 7.7599044
-45.574608 -8.3400316 7.7844334
-45.69873 -8.0732727 7.797029
-45.889343 -7.8168955 7.8212266
-46.05225 -7.5541725 7.8409491
-46.172741 -7.2832904 7.8537107
-46.332592 -7.017416 7.8734336
-46.467495 -6.7464528 7.8891783
-46.578342 -6.4709773 7.9011116
-46.829308 -6.213201 7.9370761
-47.050484 -5.9490008 7.9682345
-47.185974 -5.6721973 7.9851398
-47.279659 -5.3893757 7.9952497
-47.518719 -5.1214685 8.03022
-47.694458 -4.8445511 8.0547485
-47.8568 -4.5645466 8.0772886
-47.951679 -4.2768617 8.0887251
-47.130184 -2.4596074 7.9294524
-47.055328 -1.8770142 7.9123816
-45.300732 -1.5286918 7.6155481
-46.763447 -1.0037273 7.8588486
-46.313694 -0.42558053 7.7817812
-46.249355 0.14258777 7.7706771
-46.280151 0.42666593 7.7761464
-46.718414 0.71741295 7.8503962
-47.616203 2.1935422 8.0088396
-47.622528 2.4867487 8.0123205
-55.894234 4.6415024 9.4238949
-82.738686 8.920083 13.983627
-80.944786 9.7329473 13.699555
-75.974472 10.557345 12.88894
-75.481773 10.961383 12.816513
-75.165436 11.386805 12.774417
-75.463341 11.906046 12.837231
-74.904236 12.289343 12.754694
-74.434669 12.681799 12.687737
-73.711594 13.024514 12.577853
-72.990051 13.359371 12.468468
-72.658661 13.760001 12.426039
-72.404465 14.172605 12.397202
-72.031952 14.559162 12.348475
-71.498138 14.90847 12.272402
-71.519089 15.371346 12.291959
-71.195229 15.759376 12.252679
-70.852959 16.140289 12.210582
-70.65081 16.550886 12.193014
-70.084839 16.872593 12.112964
-69.72438 17.239109 12.068712
-69.549423 17.649382 12.056945
-69.56675 18.108839 12.078988
-70.085091 18.703686 12.188705
-69.947136 19.127386 12.184893
-69.749634 19.53414 12.171137
-69.388626 19.892986 12.129206
-69.097763 20.269239 12.099871
-68.671715 20.602715 12.047167
-68.444069 20.993036 12.029598
-68.299858 21.408182 12.027112
-69.315155 23.136013 12.278866
-66.873611 22.778053 11.870823
-66.564911 23.129688 11.840991
-66.307404 23.497173 11.820605
-66.125809 23.890514 11.814141
-65.860443 24.252529 11.793093
-65.616219 24.620846 11.776188
-65.183083 25.836809 11.781823
-64.188354 25.899376 11.630506
-63.928795 26.251907 11.61244
-63.722839 26.625423 11.604486
-63.501091 26.991613 11.594044
-63.302593 27.367044 11.588243
-63.030567 27.709702 11.569349
-61.687862 28.946161 11.449853
-61.457462 29.299511 11.440241
-61.180672 29.629631 11.422341
-60.968513 29.990107 11.416872
-60.73571 30.33984 11.407922
-60.507069 30.690969 11.400132
-59.318615 31.4741 11.283454
-59.276329 31.919304 11.312458
-59.002338 32.24033 11.297708
-58.736996 32.564934 11.284945
-58.500832 32.904903 11.278151
-58.244724 33.232937 11.267875
-58.039715 33.589691 11.267875
-56.938824 34.84539 11.216828
-56.604115 35.119759 11.193129
-56.365021 35.452236 11.188653
-56.109009 35.77356 11.181195
-55.848694 36.091473 11.17324
-55.597317 36.414566 11.167439
-55.320248 36.720112 11.156832
-55.069351 37.042347 11.15186
-54.780724 37.338448 11.139595
-54.51894 37.652016 11.133132
-54.265072 37.970566 11.128656
-54.008537 38.286846 11.124016
-53.769394 38.615215 11.123353
-53.552177 38.959496 11.127663
-53.30497 39.282082 11.126171
-52.206436 40.486561 11.100979
-51.939972 40.792732 11.097333
-51.669395 41.095318 11.093189
-51.379402 41.381886 11.085234
-51.151268 41.718178 11.091035
-51.036522 42.148682 11.122027
-50.760296 42.447124 11.118382
-50.535015 42.788376 11.126336
-50.282753 43.107273 11.128822
-49.616634 43.603897 11.09899
-49.328995 43.890472 11.094681
-49.071949 44.204205 11.097664
-48.823841 44.526398 11.103133
-48.592461 44.864613 11.112912
-48.397675 45.238022 11.13164
-48.140675 45.554466 11.136612
-47.908676 45.895382 11.147882
-47.624043 46.186424 11.147385
-47.358753 46.496422 11.15186
-47.048782 46.762501 11.146225
-46.745674 47.034916 11.142579
-46.480373 47.345486 11.148379
-46.22057 47.662357 11.156003
-45.96204 47.981384 11.164455
-45.767082 48.368515 11.188985
-45.507149 48.688774 11.198266
-45.235638 48.997517 11.205227
-44.952087 49.293827 11.209702
-44.66396 49.585575 11.213513
-44.379185 49.881535 11.218652
-44.086605 50.169201 11.222298
-43.827068 50.495369 11.234894
-43.567757 50.823235 11.248153
-43.305431 51.149059 11.261246
-43.026829 51.45694 11.270693
-42.749222 51.767124 11.280969
-42.453217 52.055965 11.286935
-13.170061 16.352724 3.5266721
-13.135769 16.516582 3.5445716
-13.048797 16.615486 3.5485492
-12.887981 16.619646 3.5324728
-11.467472 15.168596 3.1937082
-10.460469 14.014492 2.9369829
-9.7354479 13.211463 2.7559991
-8.9191751 12.260539 2.5460114
-8.1673117 11.373026 2.3511057
-7.8110838 11.019045 2.2679062
-7.2661672 10.384791 2.1280248
-6.802196 9.849782 2.0096893
-6.3461895 9.3111229 1.8916851
-6.2261944 9.2566013 1.8727913
-6.163826 9.2864141 1.8711339
-6.0980849 9.3108597 1.8684821
-6.0376287 9.343132 1.8674877
-5.9891987 9.3941383 1.8703052
-5.9230442 9.4173546 1.8676534
-9.094718 14.659175 2.8972063
-9.0071745 14.718909 2.8980348
-5.8032222 9.6151247 1.8853872
-5.7244444 9.6175013 1.8789234
-8.7427073 14.895817 2.9006867
-5.65588 9.7732344 1.8956628
-5.6065578 9.8265982 1.899309
-5.534555 9.8401852 1.8953314
-8.4357157 15.216287 2.921901
-8.3298979 15.24526 2.9175918
-5.3632445 9.9603624 1.8991432
-5.3255997 10.037512 1.9075959
-5.247921 10.039412 1.901795
-5.1957026 10.089835 1.9052755
-5.1573367 10.168139 1.9140595
-5.1107135 10.231353 1.9200261
-5.046968 10.26075 1.9196945
-4.9955192 10.315489 1.9241694
-4.9440126 10.370872 1.92881
-4.8895006 10.420653 1.9324563
-4.8217478 10.442401 1.9309646
-4.7624788 10.482565 1.9329535
-7.072938 15.825418 2.911128
-6.987608 15.895602 2.9161003
-6.9083338 15.980723 2.9238899
-6.8035903 16.007381 2.9210722
-6.6436558 15.901416 2.894223
-4.4404669 10.81405 1.9626203
-6.2022853 15.37266 2.7838428
-6.111114 15.418677 2.7853343
-6.0235462 15.474265 2.7886491
-4.2001448 10.988855 1.9750504
-4.1399145 11.033811 1.9785309
-4.0925789 11.114531 1.9884751
-4.0346913 11.168185 1.9936129
-3.9703701 11.204816 1.9957675
-3.9054277 11.240146 1.9977562
-3.8347964 11.25923 1.9969276
-5.0734324 15.201143 2.6911962
-4.9809842 15.234798 2.6916935
-4.9000401 15.304522 2.6986544
-4.8255062 15.396408 2.7095931
-3.5599036 11.607269 2.0383615
-3.4818151 11.606224 2.034384
-3.420527 11.661437 2.0403504
-3.3663013 11.742877 2.0509577
-3.3058851 11.805096 2.05825
-3.2411911 11.853696 2.0632219
-3.1757703 11.900991 2.0680285
-3.1131201 11.960338 2.0749893
-3.0503457 12.021274 2.0822816
-2.9864671 12.079972 2.0892427
-2.920367 12.131626 2.0950434
-2.8544199 12.185804 2.1013412
-2.7874796 12.237705 2.1073079
-2.7238455 12.306573 2.1162577
-2.6586418 12.371264 2.1245444
-2.5883188 12.414374 2.129185
-2.5171757 12.455154 2.1334941
-2.4513116 12.524563 2.1427753
-2.3832223 12.585878 2.1507306
-2.3180232 12.666228 2.1620009
-2.2455792 12.710319 2.1671386
-2.1743374 12.763717 2.1739337
-2.1039612 12.825477 2.1822207
-2.0326016 12.884902 2.190176
-1.9642831 12.96831 2.2022746
-1.8936005 13.041603 2.2127161
-1.8216851 13.111584 2.2226603
-1.7454797 13.154775 2.2281294
-1.6714104 13.21807 2.2370791
-1.5996902 13.306407 2.2503381
-1.5251614 13.37868 2.2609453
-1.4492773 13.445636 2.2707236
-1.3728279 13.514123 2.2808335
-1.295218 13.578251 2.2902806
-1.2161717 13.634073 2.2984016
-1.1373863 13.700247 2.3083458
-1.0581367 13.769897 2.3189528
-0.9772408 13.827285 2.3275712
-0.89561695 13.88321 2.3360238
-0.81472188 13.962282 2.348454
-0.73443174 14.070424 2.3658562
-0.65107638 14.139685 2.3767948
-0.56591606 14.183815 2.38359
-0.48063773 14.239257 2.392374
-0.39698565 14.376991 2.4150798
-0.31081498 14.474793 2.4311562
-0.22308126 14.547425 2.4430892
-0.13427767 14.598812 2.4515419
-0.044716567 14.605279 2.4525361
0.045338962 14.747286 2.4764023
0.13633509 14.801953 2.4856834
0.22817038 14.866903 2.4967878
0.32167685 14.971704 2.5146873
0.40636995 14.710185 2.4710987
0.48906475 14.483682 2.4334764
0.58323669 14.613436 2.4558508
0.6751613 14.658838 2.4641378
0.77069938 14.761766 2.482203
0.86574417 14.83355 2.4951303
0.952299 14.759069 2.4835289
3.1557872 44.639187 7.5187583
3.4501119 44.885445 7.5636725
3.7612059 45.293892 7.6362653
4.0645576 45.555805 7.6844945
4.4033923 46.152409 7.7895708
4.7244778 46.498329 7.8527164
5.0432067 46.779282 7.9052548
5.3887987 47.261864 7.9922662
5.7266078 47.626408 8.059721
6.0849304 48.113804 8.1483898
6.4237585 48.405014 8.2042427
6.8094168 49.003506 8.3126345
7.1648164 49.338486 8.3767738
7.5601797 49.905918 8.4808559
7.9444833 50.35442 8.5652161
