# .PCD v0.7 - Point Cloud Data file format
VERSION 0.7
FIELDS x y z
SIZE 4 4 4
TYPE F F F
COUNT 1 1 1
WIDTH 1522
HEIGHT 1
VIEWPOINT 0 0 0 1 0 0 0
POINTS 1522
DATA ascii
17.651505 -68.502571 7.9084258
16.993126 -67.663071 7.799304
16.22481 -66.323845 7.6332879
15.590999 -65.470848 7.5239434
14.85949 -64.143051 7.3607054
14.297069 -63.484547 7.274919
13.41811 -61.33522 7.0190053
12.966987 -61.06546 6.9788899
12.487006 -60.633823 6.9206619
11.780977 -59.036907 6.7299767
11.322185 -58.609467 6.6731935
10.669407 -57.109901 6.4948425
10.169978 -56.349838 6.4011664
9.7299061 -55.870735 6.3398271
9.2391787 -55.049255 6.2400398
8.7828379 -54.372036 6.1570315
8.2839308 -53.361355 6.0366864
7.8446226 -52.661186 5.9519005
7.3934436 -51.81205 5.850668
6.9809332 -51.164207 5.7725492
6.5797348 -50.536934 5.6970973
6.1838098 -49.884987 5.6192007
5.7845149 -49.131416 5.5301919
5.4157443 -48.563496 5.4624076
5.0562453 -48.012691 5.3968458
4.6943007 -47.364388 5.3206158
4.3520923 -46.838154 5.2583876
4.0023484 -46.146164 5.177824
3.682014 -45.709225 5.1261525
3.3461068 -44.986664 5.0426998
3.056684 -44.811024 5.0208087
2.7827792 -44.846786 5.022809
2.5109363 -44.923546 5.0295873
2.2466021 -45.166401 5.0551453
1.9764811 -45.341171 5.0732584
1.7025139 -45.466656 5.0860372
1.4286364 -45.640141 5.1043725
1.150768 -45.735477 5.114151
0.87499911 -45.998035 5.1428208
0.59456426 -46.143642 5.1585999
0.31230149 -46.276608 5.1731572
0.028448656 -46.438648 5.1911588
-0.25743023 -46.607891 5.2101607
-0.54572046 -46.804176 5.2323852
-0.83383173 -46.852615 5.2382746
-1.1114591 -46.435299 5.1922698
-1.3875804 -46.135555 5.1596003
-1.6717514 -46.156963 5.1630449
-1.9601479 -46.268955 5.1768241
-2.2521479 -46.423813 5.1956038
-2.5503516 -46.654224 5.2230506
-2.8444703 -46.767651 5.237608
-3.1426666 -46.917885 5.2564983
-3.4454949 -47.10289 5.279501
-3.8762624 -48.869068 5.4800763
-4.1906881 -49.015667 5.4993
-4.5150409 -49.24733 5.5283031
-4.8434587 -49.487732 5.5585284
-5.16471 -49.627094 5.577641
-5.4892693 -49.777218 5.5981989
-5.8187385 -49.949902 5.6215343
-6.1637259 -50.227921 5.6569824
-6.4860358 -50.299545 5.6694279
-6.8314228 -50.531605 5.7002087
-22.407347 -77.447266 9.0135345
-2.3178954 -7.6560221 0.89306968
-2.3410368 -7.5647535 0.88406879
-2.3529618 -7.4412737 0.87128973
-2.3668201 -7.3283401 0.85973305
-2.4058297 -7.2957463 0.85762173
-2.3954036 -7.1169538 0.83828652
-2.4161153 -7.0353851 0.83039683
-2.4447856 -6.9791574 0.82550746
-2.4594889 -6.8854079 0.8161732
-2.4795938 -6.8094869 0.8089503
-2.502317 -6.7428975 0.80283856
-2.529588 -6.6902323 0.79839373
-2.5505941 -6.6226487 0.79217088
-2.5719552 -6.5578365 0.78628141
-2.5999863 -6.5114732 0.78261435
-2.6226828 -6.4530449 0.77750278
-2.6504567 -6.4083605 0.77405798
-2.6735425 -6.3535028 0.76939082
-2.6984012 -6.3040867 0.76539046
-2.7326691 -6.2773871 0.76416808
-2.765907 -6.2486877 0.76272351
-2.8139818 -6.2533498 0.76539046
-2.8613908 -6.2558498 0.76783514
-2.9189878 -6.2796321 0.77294677
-2.9693456 -6.2867656 0.7760582
-3.0211899 -6.296205 0.77950293
-3.0797915 -6.318644 0.78461456
-3.134814 -6.3325834 0.78872609
-3.1861064 -6.3380928 0.79183751
-3.2411981 -6.3502917 0.79583788
-3.2956443 -6.3602872 0.79961604
-3.3452466 -6.3601766 0.80217183
-3.3926315 -6.3553128 0.80417204
-3.4448154 -6.3588443 0.80728346
-3.5163162 -6.3968115 0.81483978
-3.5748594 -6.4098353 0.81928462
-3.6376085 -6.4293003 0.82461852
-3.6987519 -6.4447865 0.82950789
-3.7567227 -6.4537506 0.83361936
-3.8159521 -6.4639564 0.83795315
-3.8667705 -6.4591813 0.84039783
-3.954282 -6.5143447 0.85073215
-3.9665756 -6.4450998 0.84484273
-4.8539925 -6.7232671 0.92585069
-4.953228 -6.7727766 0.93685174
-5.0544338 -6.822916 0.94807506
-5.1099205 -6.8100581 0.9506309
-5.1588249 -6.7880712 0.95196438
-5.2573533 -6.8303223 0.96240979
-6.0336232 -7.1787944 1.0471959
-6.0538039 -7.0259075 1.0356393
-8.2632341 -9.1275625 1.3753393
-8.3325129 -9.091342 1.3775617
-8.458437 -9.1158113 1.3891184
-8.5713625 -9.124588 1.3984526
-8.7477179 -9.1985769 1.4180101
-41.313011 -42.391827 6.6172991
-41.506737 -42.071037 6.6068535
-10.73615 -9.9849977 1.6380318
-10.762086 -9.8866606 1.6326979
-10.776183 -9.7783642 1.6256973
-10.789357 -9.670269 1.6186966
-10.817238 -9.5762157 1.6140294
-10.851105 -9.4880733 1.6103624
-10.84218 -9.3634996 1.6004726
-10.882796 -9.2826071 1.5980278
-10.896986 -9.1797991 1.591805
-10.906507 -9.0739889 1.5850266
-10.943551 -8.9917545 1.5823597
-10.969965 -8.9012661 1.5782481
-10.987151 -8.8039579 1.5729142
-11.063564 -8.754261 1.5761368
-11.116288 -8.6855993 1.5760257
-11.185896 -8.6299763 1.5783592
-11.256821 -8.5750303 1.5809151
-11.452975 -8.6139269 1.6010282
-11.6229 -8.6305895 1.6173631
-12.445296 -8.8906546 1.7088165
-12.713213 -8.9647589 1.7380416
-12.881357 -8.9655008 1.7534876
-4.9750051 -3.4170046 0.67349255
-4.9465241 -3.3529515 0.66682523
-4.9612222 -3.3186686 0.66604733
-4.9798331 -3.2870696 0.66582513
-5.0024066 -3.2580795 0.6661585
-5.0080914 -3.218189 0.66426939
-5.0436902 -3.1975114 0.6663807
-5.0337257 -3.148057 0.66249144
-5.0199628 -3.0967584 0.65815771
-5.0032139 -3.044198 0.65349054
-4.997088 -2.9986095 0.65026802
-4.9897366 -2.9527049 0.64693439
-5.0120516 -2.9245374 0.64748996
-5.0169811 -2.8862939 0.64582312
-5.0112581 -2.8422155 0.64282286
-5.0260015 -2.8099582 0.64248949
-5.0222602 -2.7675526 0.63982254
-5.0443864 -2.7395308 0.64048928
-5.046206 -2.7005539 0.63860023
-5.0661974 -2.6713948 0.6390447
-5.067502 -2.6324687 0.63715565
-5.0782509 -2.5986087 0.63648891
-5.0878887 -2.5642686 0.63571101
-5.1017466 -2.5321178 0.63548881
-5.1100445 -2.4972746 0.6345998
-5.1539273 -2.4796641 0.6381557
-5.1573696 -2.4424624 0.63671112
-5.1677556 -2.4086719 0.63615555
-5.1752114 -2.3736024 0.63526654
-5.1588807 -2.3279016 0.63148838
-5.2321067 -2.3224182 0.63871133
-5.2826881 -2.3061795 0.64315623
-5.2857814 -2.2690167 0.64182276
-5.4726458 -2.3095922 0.66282481
-5.6124687 -2.328151 0.67804855
-5.8060956 -2.3668437 0.69971734
-6.1240187 -2.4527705 0.73627651
-6.3932667 -2.5152285 0.76683503
-6.6533051 -2.5705302 0.79617125
-54.563988 -20.702354 6.5240674
-54.613617 -20.338724 6.5149555
-54.903065 -19.682762 6.5201783
-54.968426 -19.326395 6.5137334
-56.756405 -17.255039 6.6316338
-59.987125 -17.436035 6.9836683
-56.566406 -15.318366 6.5514035
-56.686237 -14.978101 6.5545149
-55.376804 -13.18713 6.3637185
-60.800056 -11.745389 6.9226623
-5.6679068 -0.91493368 0.64060038
-5.3571968 -0.83104455 0.60481912
-5.0918818 -0.75788718 0.57426053
-5.0265837 -0.71666104 0.5663709
-5.0171008 -0.68392384 0.56481516
-4.9945946 -0.64966202 0.5618149
-5.0014458 -0.61937034 0.56214827
-4.9992299 -0.58797306 0.56148154
-4.9908915 -0.55596536 0.56014806
-5.0060687 -0.52658057 0.56148154
-4.9963493 -0.49457958 0.56003696
-4.99929 -0.46391326 0.56003696
-5.000062 -0.43305767 0.55981469
-5.0036159 -0.40244955 0.55992579
-5.005991 -0.37174037 0.55992579
-5.0091691 -0.34108484 0.56003696
-5.0121593 -0.3104043 0.56014806
-5.0189309 -0.2799218 0.56070369
-5.0275021 -0.24946664 0.56148154
-5.0329094 -0.21878695 0.56192601
-5.0589852 -0.18883154 0.56470406
-5.0600486 -0.15778662 0.56470406
-5.0629086 -0.12678581 0.56492633
-5.0655785 -0.095755838 0.56514853
-5.0799828 -0.064851694 0.56670427
-5.0922103 -0.033760939 0.56803775
-5.1042471 -0.0025225687 0.56937116
-5.1160927 0.028862245 0.57070464
-5.137681 0.060508046 0.57314932
-5.1531115 0.092313841 0.57492727
-5.1733122 0.12443008 0.57726085
-5.1664906 0.15599142 0.57659411
-5.1763616 0.18808499 0.57781649
-5.1880178 0.22038965 0.57926106
-5.2044353 0.25308511 0.58126122
-5.2246156 0.28620726 0.5837059
-5.3001356 0.32296437 0.59237343
-5.1612148 0.34631553 0.57703859
-63.150475 15.365936 7.2658072
-62.819744 15.694358 7.2386932
-68.78215 22.20846 8.0804424
-73.464798 24.219109 8.6479435
-54.737385 20.308113 6.5267344
-11.573133 4.6205044 1.3920076
-11.621904 4.7228527 1.4013418
-11.617503 4.804327 1.4043422
-11.68399 4.9159842 1.4160099
-27.597902 13.659225 3.4417646
-27.529554 13.836338 3.4437649
-42.537624 25.460609 5.5418601
-42.653316 25.886644 5.5775299
-42.471672 26.134331 5.5746408
-21.231884 14.740203 2.8887103
-21.01342 14.78044 2.8712642
-20.800928 14.822591 2.8545959
-20.648346 14.905738 2.8461506
-20.48189 14.9776 2.8358161
-20.219503 14.977001 2.8121471
-19.852983 15.086308 2.7867002
-19.550547 15.046615 2.7571418
-19.384172 15.108864 2.7466962
-19.27784 15.217052 2.7448072
-19.123556 15.286653 2.7361398
-18.261984 14.968943 2.6389079
-18.529221 15.379017 2.6911354
-18.387337 15.452779 2.6842458
-18.263412 15.540837 2.6800232
-18.465521 16.716005 2.7837
-18.423418 16.884722 2.792923
-46.044819 42.720604 7.0217834
-43.610497 44.639137 6.9765563
-43.303337 44.872272 6.971334
-42.965481 45.072392 6.9613328
-42.154655 44.768658 6.8743243
-41.240906 44.340256 6.769536
-40.476562 44.057503 6.6883059
-39.655151 43.698616 6.5967412
-39.102367 43.624382 6.549181
-38.065163 42.99514 6.4195018
-37.59129 42.988499 6.3839426
-36.944195 42.775349 6.3184919
-36.192791 42.428875 6.2343726
-35.637863 42.3013 6.1833673
-34.929504 41.980595 6.1050262
-34.362728 41.818661 6.0506878
-33.693428 41.52095 5.9775696
-33.091869 41.294949 5.9156747
-32.77866 41.422405 5.9050069
-32.675632 41.816952 5.9325652
-32.581741 42.228317 5.9624567
-32.407539 42.539696 5.9782362
-32.280926 42.917233 6.0033498
-32.152073 43.29641 6.0286856
-32.007442 43.658783 6.0516877
-31.853739 44.012955 6.0735788
-15.374453 21.52058 2.9559391
-31.613077 44.828545 6.1321402
-31.462322 45.201118 6.1565871
-31.268795 45.51619 6.1732554
-31.146753 45.93998 6.2047029
-31.010736 46.34911 6.2341504
-30.767374 46.601547 6.2425957
-30.337643 46.569622 6.2132592
-30.086254 46.809235 6.2204823
-29.97357 47.269085 6.2570415
-29.860054 47.735203 6.2943783
-29.839014 48.359005 6.3523841
-29.638344 48.699936 6.3731637
-29.60697 50.020386 6.4979539
-29.844973 51.864079 6.6894174
-15.626627 27.545929 3.5397742
-29.349371 52.482292 6.722198
-13.574255 24.627621 3.1429574
-13.411501 24.689489 3.1402905
-31.026028 57.959579 7.3494821
-13.10334 24.844299 3.1392906
-12.905745 24.837811 3.1284006
-13.249576 26.282835 3.2897496
-13.103084 26.393902 3.2935278
-12.718728 26.019352 3.2369666
-13.234173 27.500147 3.4110949
-12.647799 26.699772 3.3020842
-12.116697 25.989647 3.2049637
-12.947456 28.222338 3.4705453
-12.127215 26.868269 3.2947502
-11.856462 26.704201 3.2656362
-12.863274 29.457705 3.5927794
-12.038022 28.03573 3.4102061
-11.751364 27.838058 3.3773139
-11.651937 28.082207 3.3982048
-11.338316 27.807165 3.3564229
-11.190395 27.933409 3.3633125
-11.148347 28.330767 3.4028718
-10.981468 28.417177 3.4050944
-10.845325 28.585302 3.4172068
-10.652729 28.605675 3.4117618
-9.24862 25.309229 3.0116112
-9.1236715 25.450634 3.0217233
-9.266696 26.883562 3.1781831
-9.0471697 26.778915 3.1591814
-9.6920424 29.892246 3.5123272
-9.0856609 31.259575 3.6385617
-8.9208384 31.410334 3.6496739
-8.70961 31.398403 3.6420066
-8.6131668 31.807135 3.6832328
-10.826747 40.975727 4.7375588
-9.8834085 40.402557 4.6494389
-9.1011534 40.413784 4.6306591
-8.8804073 40.594105 4.6449938
-8.6177406 40.584641 4.6377711
-8.6087189 41.80286 4.7708955
-8.3501139 41.845154 4.769784
-8.0709562 41.78046 4.7566714
-7.5735245 41.964375 4.7666726
-0.1046259 0.7069031 0.078545168
2.8343439 25.699106 2.8895993
9.1188612 56.896854 6.4417262
9.3474674 56.117344 6.3598294
9.2416506 53.456005 6.064467
9.501112 53.016785 6.0211291
9.7145615 52.355579 5.9526782
10.042931 52.333046 5.9570117
10.384917 52.376698 5.9691243
10.741964 52.487244 5.9891262
11.09973 52.590511 6.0085726
11.441851 52.611729 6.0189071
11.773575 52.581261 6.0235739
12.079924 52.438305 6.015573
12.38542 52.295502 6.0077949
12.647094 51.976147 5.9799032
12.948433 51.828148 5.9719024
13.251394 51.68996 5.9652348
13.563506 51.589417 5.9631238
13.875919 51.490829 5.9614568
14.1916 51.404716 5.9614568
14.491879 51.264072 5.9553452
14.710868 50.84483 5.9170079
14.810186 50.036045 5.833333
15.00004 49.558044 5.7882175
15.109691 48.837513 5.714766
15.246415 48.22934 5.6544266
15.497172 47.995857 5.6380916
15.839605 48.046162 5.6553154
16.206373 48.162827 5.6806512
16.563227 48.242008 5.7018757
16.915091 48.299858 5.7208776
17.274302 48.372051 5.7418795
17.634012 48.438847 5.7625484
17.991043 48.491859 5.7818837
18.384876 48.636196 5.8124423
18.805794 48.841515 5.850668
19.1385 48.810326 5.8608913
19.478163 48.793503 5.8731146
19.937675 49.06805 5.9207859
20.693617 49.188858 5.9655681
21.059555 49.211716 5.9839034
21.470968 49.333984 6.0146842
21.853302 49.382168 6.0367975
22.251303 49.459225 6.0627999
22.653133 49.537769 6.0893583
23.583956 49.943523 6.1743665
23.925207 49.871349 6.1834784
24.399673 50.07024 6.226594
24.778734 50.065659 6.2448177
25.306812 50.353111 6.2999344
25.636078 50.237602 6.3050461
2.2661805 4.3730569 0.54936922
2.312397 4.3960128 0.55403632
2.3285644 4.3615761 0.55148053
2.3420305 4.3227382 0.54836911
2.3125081 4.2063856 0.53536785
2.3406942 4.1964569 0.53592348
2.3566132 4.1647158 0.533701
2.3841014 4.1536255 0.53414547
2.4075432 4.1354828 0.533701
2.4151928 4.0906777 0.52981174
2.4198318 4.0416722 0.52536684
2.4218988 3.9893663 0.52047747
2.4317486 3.9507313 0.51736605
2.4422684 3.9138126 0.5144769
2.4476469 3.8693552 0.51058763
2.4616892 3.8392038 0.50858742
2.4705813 3.8015258 0.50558716
2.4719992 3.7530937 0.50114226
2.4916716 3.7328949 0.50047553
2.5078492 3.7076569 0.49914205
2.5243731 3.683181 0.49791971
2.5525923 3.675786 0.49903095
2.5545161 3.6307909 0.49503055
2.5629051 3.5956237 0.49236363
2.5924807 3.5903056 0.49380821
2.6127019 3.5719242 0.49347484
2.6369357 3.5590205 0.49391931
2.615783 3.4855363 0.48591855
2.6347156 3.4662552 0.48547405
2.6789668 3.4799519 0.48969668
2.7094328 3.4752061 0.49136353
2.756566 3.4912796 0.49603066
2.7965512 3.4975886 0.49936432
2.8323402 3.4981303 0.5019201
2.8506012 3.4768424 0.50136453
2.8947296 3.4868166 0.50536489
2.9243815 3.4788802 0.50680947
2.9553328 3.4722245 0.50847632
3.0103126 3.4931774 0.51425463
3.0957093 3.5480361 0.52514464
3.1141322 3.5252497 0.524589
3.2059188 3.5846066 0.53636795
3.2985489 3.6429667 0.5481469
3.2684667 3.5655103 0.53947937
3.3247552 3.5825436 0.54514658
3.3772919 3.5946729 0.55014706
3.4095573 3.5846856 0.5518139
3.4714632 3.6052239 0.55825901
3.5281994 3.619442 0.56381506
3.6208353 3.6691794 0.57503843
3.6418762 3.6454871 0.57481617
3.7256491 3.6838717 0.5844838
3.7879913 3.6998341 0.59070665
3.9607947 3.8214474 0.61404222
4.01438 3.8258729 0.61870939
4.0638266 3.8256955 0.62270975
4.1003227 3.8128717 0.62470996
4.1946282 3.85286 0.63548881
4.2086229 3.8183675 0.63404423
14.235665 12.759412 2.1361918
14.260858 12.62505 2.1283021
14.260999 12.469927 2.1168566
14.262033 12.317228 2.1057444
14.2451 12.1508 2.0921876
14.228945 11.986966 2.078964
14.190692 11.806629 2.0627401
14.242138 11.702299 2.0597398
14.21104 11.531403 2.0449607
14.193894 11.373762 2.0324039
14.247829 11.274121 2.0301814
14.259573 11.141817 2.0220695
14.270231 11.009793 2.0139577
14.313011 10.903356 2.0105128
14.294662 10.751407 1.9986228
14.340417 10.648681 1.9958447
14.342971 10.514656 1.9871773
14.360522 10.392655 1.9807321
14.387631 10.278348 1.9757316
14.381394 10.141191 1.9662863
14.431929 10.044807 1.9647306
14.444144 9.9223022 1.9580632
14.466916 9.8078327 1.9529517
14.506173 9.7050648 1.9501736
14.533935 9.5950661 1.945951
14.549235 9.477499 1.9401726
14.579526 9.3703156 1.9365056
14.574639 9.2412977 1.9282825
14.602422 9.1337748 1.9245044
14.648888 9.0382643 1.923282
14.642946 8.9110098 1.9152813
14.699904 8.8225288 1.9156146
4.2525382 2.5163474 0.55114716
4.2498741 2.4796865 0.54881358
4.2348614 2.4362144 0.54492432
4.2497296 2.4101839 0.54492432
4.184639 2.3394358 0.53470111
4.1710639 2.2983634 0.53114522
4.1440439 2.2504303 0.52592248
4.1411271 2.2160492 0.52381116
4.1792598 2.2035799 0.52692258
4.2561955 2.2108884 0.53492337
4.2670269 2.1833727 0.53459001
4.3788466 2.206809 0.54692453
4.2374201 2.1030037 0.52758932
4.160068 2.0328813 0.516366
4.0981369 1.9715466 0.50714284
4.102972 1.94296 0.5062539
4.0877953 1.9051496 0.50292021
4.083149 1.8725719 0.50092
4.1371346 1.8666997 0.50614274
4.1312528 1.8336169 0.50403142
4.1305861 1.803063 0.50258684
4.1315269 1.773371 0.50136453
4.1285968 1.7421894 0.49969769
4.1043282 1.70235 0.49547502
4.110095 1.6752582 0.49491942
4.1239867 1.6514859 0.49536392
4.1035252 1.6141409 0.49169689
4.155067 1.6050529 0.49669737
4.1425366 1.5710664 0.49403045
4.162343 1.5494339 0.49525279
4.1848397 1.5286409 0.4968085
4.1660757 1.4928726 0.49347484
4.1948457 1.4742045 0.49580839
4.1859608 1.4422839 0.49369708
4.1919074 1.4156178 0.49336371
4.2033448 1.3908072 0.49369708
4.2051821 1.362844 0.49291924
4.2333565 1.3433311 0.49525279
4.2168446 1.3096627 0.49236363
4.2419162 1.2889675 0.49436381
4.2840381 1.2731122 0.49836421
4.291769 1.2468019 0.49836421
4.3270621 1.2283189 0.50158674
4.3527131 1.2067931 0.50369805
4.3370137 1.1738278 0.50103116
4.3950582 1.1606505 0.50692058
4.4752374 1.1525083 0.5153659
4.8889785 1.2271848 0.56225938
5.2873788 1.2928088 0.6072638
4.604938 1.095955 0.52792269
4.5099187 1.0441277 0.51625484
4.5026674 1.0133787 0.51469916
4.5039458 0.98466986 0.51414353
4.5147638 0.95804787 0.51469916
4.5663061 0.93974984 0.5199219
46.737591 9.3264713 5.3276167
46.804668 9.0415926 5.3288388
46.938393 8.7690182 5.3378401
47.160061 7.6177797 5.3401732
47.217701 7.3300977 5.341507
47.322739 7.0493164 5.3483963
47.406418 6.7647133 5.3530636
47.524822 6.4843206 5.3618422
47.587368 6.1956716 5.3645091
47.643227 5.9058876 5.3666205
47.698307 5.615767 5.3688431
47.726929 5.3224392 5.3682876
47.795258 5.0333438 5.3723989
47.849964 4.7424335 5.3751769
6.9595742 0.64608687 0.78016967
6.6881633 0.57949495 0.74927777
4.7856846 0.38489127 0.53547895
4.7671437 0.3539713 0.53314543
4.7682343 0.32464635 0.53303427
4.7760878 0.29575226 0.533701
4.7827735 0.26671857 0.53425664
1.6070753 0.079281218 0.178555
1.7167463 0.074181356 0.19077842
1.7032658 0.063125372 0.18922271
1.6966678 0.052455381 0.18844485
1.6880163 0.041818727 0.18744476
1.6743304 0.031195644 0.18588905
1.6685278 0.020844644 0.18522231
1.665643 0.010586195 0.18488894
1.668611 0.0032504532 0.1565809
1.6656129 -0.0069751437 0.15629856
1.6555837 -0.01709104 0.15535748
1.67237 -0.027529795 0.15695733
1.6681883 -0.037700288 0.1565809
1.6699158 -0.047992829 0.15676911
1.6735697 -0.058377642 0.15714554
1.67318 -0.068645373 0.15714554
1.660794 -0.078346126 0.15601625
1.6781765 -0.089491501 0.15771019
1.7491493 -0.10405169 0.16448599
1.7454977 -0.11458632 0.16420366
1.7477407 -0.12550859 0.16448599
1.7469378 -0.13623017 0.16448599
1.7430928 -0.14669579 0.16420366
1.7362108 -0.15685031 0.16363901
1.7322428 -0.16721323 0.16335669
1.7361358 -0.17834818 0.16382723
1.7013593 -0.18532811 0.16062754
1.6606294 -0.19120415 0.15686321
1.6653548 -0.20211035 0.15742786
1.667046 -0.21270333 0.15771019
1.6666962 -0.22306031 0.1578043
1.6652963 -0.23328279 0.1578043
1.6697437 -0.24436213 0.15836895
1.6760861 -0.25580546 0.15912181
1.6715353 -0.26561582 0.15883949
1.678714 -0.27732867 0.15968646
1.7064174 -0.29267618 0.16250971
1.7212522 -0.3061063 0.16410956
3.6500747 -0.67248756 0.34969115
3.643924 -0.69449848 0.34950292
3.6894102 -0.72665852 0.35430247
3.6878088 -0.74987787 0.35458478
3.6792407 -0.77167416 0.35420835
3.6773558 -0.79486614 0.35449067
3.649087 -0.81222254 0.35223207
3.6158924 -0.82815057 0.34950292
3.6339996 -0.85579997 0.35176152
3.7041547 -0.89634961 0.35910198
3.6947205 -0.91810042 0.35872555
3.6813002 -0.93878502 0.35797268
3.665839 -0.95883566 0.35703158
3.663733 -0.9823423 0.35740802
3.6797161 -1.0108709 0.35957253
3.6859028 -1.0369358 0.36079594
3.6871243 -1.0617368 0.36154881
3.7407031 -1.1020689 0.36747763
3.7948763 -1.1433849 0.37350056
3.8134782 -1.174562 0.37604147
3.8631768 -1.2158748 0.38168797
3.8594348 -1.240775 0.3820644
2.0347073 -0.66784328 0.20128234
2.0249074 -0.67841733 0.20071769
2.0178807 -0.68986273 0.20043537
2.0145497 -0.70255911 0.20052947
2.009263 -0.71457326 0.20043537
2.001097 -0.72553062 0.20005894
1.9975413 -0.73814064 0.20015304
1.9873846 -0.74827808 0.19958839
1.9799674 -0.75938863 0.19930607
1.9780524 -0.77261007 0.19958839
1.9723495 -0.78436458 0.19949429
1.9730362 -0.79869384 0.20005894
1.9763826 -0.81419891 0.2009059
1.9713497 -0.8263104 0.2009059
1.9717368 -0.84073424 0.20147055
1.9701945 -0.85440153 0.20184699
1.9703802 -0.86888498 0.20241164
1.9777294 -0.88666171 0.20372915
1.9731575 -0.89919305 0.20382327
1.9838631 -0.91881585 0.20551722
1.9826919 -0.93309128 0.20598775
1.9850124 -0.94910514 0.20683473
1.9827334 -0.96300715 0.20721117
1.9857152 -0.97956008 0.20815225
1.9894581 -0.99663168 0.20918743
1.990404 -1.0124315 0.2099403
1.9903461 -1.0278234 0.21059906
4.5515604 -2.386229 0.48464248
4.5218925 -2.4061611 0.48304263
4.479012 -2.4187231 0.48003116
4.4431334 -2.4346774 0.47777256
4.3889561 -2.4401233 0.47353768
4.3487549 -2.4528229 0.47080854
4.3120198 -2.4670992 0.46845585
4.2787189 -2.4830163 0.46647957
4.2419534 -2.496598 0.46412686
4.1940708 -2.5031896 0.46055076
4.1454158 -2.5087721 0.45688051
4.0926089 -2.5112495 0.45273975
4.0483818 -2.5184333 0.44954008
4.0235901 -2.5373843 0.44850487
3.9995575 -2.5566623 0.4475638
3.9612362 -2.5665379 0.44502288
3.8854983 -2.5514476 0.43824708
3.8507078 -2.5625539 0.43608257
3.8200548 -2.576113 0.43438864
3.7811613 -2.5837758 0.43175361
3.754596 -2.5995603 0.43053019
3.7051597 -2.5991066 0.42667174
3.6777811 -2.6137176 0.42535424
3.6810648 -2.6501961 0.42761284
3.6285388 -2.646333 0.42337796
3.5850084 -2.648433 0.42017826
3.5599225 -2.6638188 0.41914308
3.5569983 -2.6958356 0.42074293
3.5261757 -2.7066979 0.41904896
3.5239828 -2.7744007 0.4228133
3.5084498 -2.7972126 0.42300153
3.4734049 -2.8043027 0.42083704
3.5401425 -2.8942506 0.43109486
3.4786067 -2.8797295 0.42573068
3.4753673 -2.9131715 0.42751873
3.4741249 -2.9486148 0.42958909
3.471823 -2.9835029 0.43156537
3.4211564 -2.9766483 0.42751873
3.4404137 -3.1065066 0.43702367
3.4521484 -3.1557715 0.4409762
3.4392958 -3.1829803 0.44182318
3.4233329 -3.207427 0.44229373
3.4750943 -3.2962029 0.45161045
3.4785001 -3.34022 0.45471603
3.4700742 -3.3732982 0.45631588
3.485498 -3.4301419 0.46111539
3.4989429 -3.4858954 0.4657267
3.5104318 -3.5405276 0.47014979
3.5137181 -3.5876069 0.47353768
3.5137892 -3.6319966 0.47654915
3.5533392 -3.7182684 0.48501891
3.5591588 -3.7704084 0.48897144
3.5848386 -3.8446038 0.49574724
3.592205 -3.900214 0.50007623
3.6231401 -3.9825702 0.50779313
3.6704979 -4.0847044 0.51795679
3.6460264 -4.1078939 0.51805091
4.4889789 -5.1206474 0.64255619
4.4503069 -5.1398153 0.64152104
4.4173918 -5.1655116 0.64133281
4.3798323 -5.1856737 0.64048582
4.3485689 -5.2132149 0.64057994
4.3215628 -5.2459464 0.64133281
4.2786126 -5.2592354 0.63973296
4.2450156 -5.2838373 0.63954473
4.2075648 -5.303545 0.63879186
4.1479301 -5.2947783 0.63465112
4.1604385 -5.3784037 0.64161515
4.1775136 -5.4695001 0.6494261
4.162456 -5.5196714 0.65234351
4.1267262 -5.5427122 0.65206116
4.1392179 -5.6313024 0.65949571
4.1864405 -5.7694049 0.6726709
4.2071939 -5.8734922 0.68179941
4.281426 -6.055275 0.6998682
15.065267 -21.587673 2.4872673
15.337993 -22.268394 2.5548372
15.604597 -22.955721 2.6226892
16.115124 -24.022488 2.7332666
16.390562 -24.760136 2.8057299
16.721779 -25.600399 2.889298
17.231503 -26.737686 3.0057101
17.622644 -27.716648 3.1035826
18.06535 -28.801748 3.2126544
18.627905 -30.107481 3.3455353
19.18494 -31.437304 3.4802041
19.585154 -32.540478 3.5889933
20.261656 -34.136845 3.7513301
20.905193 -35.718624 3.911032
21.645987 -37.510445 4.0926609
21.596092 -37.960133 4.1271987
25.655058 -46.410801 5.0116286
25.479349 -46.768417 5.0332737
25.066643 -46.690556 5.0082407
24.963095 -47.190212 5.0453196
24.978209 -48.654102 5.1686954
24.251015 -48.699409 5.1414981
30.466965 -89.816521 8.9641781
26.28158 -80.720909 8.0234709
25.782463 -80.870216 8.0224361
22.313211 -71.501419 7.0791883
6.1949334 -20.287745 2.0040212
20.299671 -67.971306 6.7044492
19.736015 -67.593811 6.6551361
19.332367 -67.753853 6.6590891
18.923758 -67.898048 6.6617241
17.132809 -64.523567 6.3094764
16.794979 -64.853004 6.3314977
16.559015 -65.59771 6.3941741
16.178551 -65.788956 6.4030199
15.732384 -65.710777 6.3858924
14.996207 -64.377846 6.2472711
14.290627 -63.098606 6.1144838
13.70123 -62.26725 6.0256457
13.057073 -61.124386 5.9071636
12.491496 -60.285042 5.8185134
7.5524063 -37.608219 3.6248486
7.344306 -37.771122 3.6361415
7.138907 -37.956367 3.6496933
6.9227877 -38.09251 3.6586335
9.8390169 -56.093819 5.3822274
9.3801231 -55.475815 5.3172927
8.902957 -54.693157 5.2369242
8.3632593 -53.443493 5.1122303
7.9281149 -52.781013 5.044096
7.4792929 -51.96151 4.9612808
7.0531874 -51.228264 4.8870292
6.6737289 -50.776058 4.8398809
6.3216062 -50.493023 4.8091078
5.867126 -49.31588 4.6934485
5.4905791 -48.696037 4.6311488
5.1210189 -48.065536 4.5680962
4.7619891 -47.458118 4.5074906
4.4231129 -46.980946 4.4594951
4.0740485 -46.316948 4.3939958
3.7430387 -45.769543 4.3397894
3.4070432 -45.062984 4.2707138
3.1079283 -44.758274 4.2399406
2.8345582 -44.797363 4.2419167
2.5652533 -44.912315 4.2512336
2.2982922 -45.097229 4.2673259
1.4915925 -45.863243 4.3364959
0.65641117 -46.539936 4.3986073
0.37130284 -46.601826 4.4041595
0.085201465 -46.520596 4.3963485
-0.20081995 -46.653645 4.4089589
-0.48872048 -46.808826 4.4238281
-0.77764148 -46.90847 4.4336157
-1.6777174 -47.936878 4.5329938
-1.9769374 -48.050022 4.5447574
-2.2712591 -48.027046 4.5438161
-2.5815794 -48.305473 4.5715785
-2.8852725 -48.411957 4.5832477
-3.1865149 -48.457912 4.5893645
-3.4911435 -48.539726 4.5990577
-3.8151124 -48.852871 4.6308665
-4.1290922 -48.998184 4.6469588
-4.4506488 -49.203938 4.6689806
-4.7763219 -49.422447 4.6924133
-5.1021953 -49.613056 4.7133994
-5.4244347 -49.745106 4.7290215
-5.7643313 -50.012531 4.7577243
-6.0880227 -50.115574 4.7709937
-6.4390502 -50.418961 4.8035555
-6.7687817 -50.531452 4.8181419
-14.641905 -88.56572 8.4844141
-17.937809 -85.503258 8.2572365
-19.061922 -88.165833 8.5255394
-22.362329 -77.6437 7.6366858
-2.2544057 -7.6512828 0.75285119
-2.2863734 -7.587738 0.74795753
-2.3211637 -7.5355086 0.7441932
-2.3341758 -7.4157166 0.73374718
-2.3619583 -7.3462844 0.72828889
-2.3771758 -7.2408481 0.71925449
-2.3972003 -7.153441 0.71200818
-2.4081891 -7.0425134 0.70240909
-2.4333203 -6.9759035 0.69723314
-2.4523864 -6.8942456 0.69055146
-2.479368 -6.8369522 0.68631661
-2.4974556 -6.7571774 0.6798231
-2.5241325 -6.7025962 0.67587054
-2.5388229 -6.6181984 0.66890657
-2.5623558 -6.5589132 0.66448343
-2.5790014 -6.4838634 0.6584605
-2.6082749 -6.4420786 0.6558255
-2.6386507 -6.403862 0.6535669
-2.6682706 -6.3645978 0.65121418
-2.7041481 -6.3407798 0.65046132
-2.7259679 -6.2847948 0.64641464
-2.7777379 -6.2980094 0.64952022
-2.8212178 -6.291748 0.65064955
-2.8672028 -6.2906246 0.65234351
-2.9095137 -6.2810435 0.65319043
-2.956903 -6.2819886 0.65516675
-3.0108562 -6.2960601 0.65855461
-3.0650923 -6.3097048 0.66194254
-3.1116798 -6.3068495 0.66363651
-3.1596851 -6.3063293 0.66561276
-3.2114122 -6.3125553 0.66834188
-3.2669895 -6.3254595 0.67182392
-3.3233075 -6.3388 0.67540002
-3.3845887 -6.3604746 0.67991722
-3.4386909 -6.3676186 0.68292868
-3.4973135 -6.3821945 0.68678713
-3.5591466 -6.4015102 0.69121021
-3.618902 -6.4159708 0.69516277
-3.6760013 -6.4247522 0.69855064
-3.7363422 -6.4382396 0.7025032
-3.8116314 -6.4761086 0.70918489
-3.8676248 -6.4799547 0.71219635
-3.924839 -6.4850597 0.71539605
-3.9760122 -6.4795227 0.71746641
-4.039887 -6.4938889 0.72179544
-4.1168327 -6.5279241 0.728383
-4.1852307 -6.5469971 0.73337072
-4.2540164 -6.5654745 0.7383585
-4.3128023 -6.5675426 0.74155813
-4.3866663 -6.5915122 0.74729878
-4.4587579 -6.6115193 0.75266296
-4.5222721 -6.6177368 0.7565214
-4.5899968 -6.6291518 0.7610386
-4.669466 -6.6562834 0.76743793
-4.7373281 -6.6656461 0.77186102
-4.8083878 -6.6784649 0.77675468
-4.8932762 -6.7091613 0.78381282
-4.9899602 -6.7542782 0.79265898
-5.0593448 -6.7609963 0.79708207
-5.1398239 -6.7813964 0.80319911
-5.1964927 -6.7694745 0.80555183
-5.2635965 -6.770472 0.80950439
-5.3111992 -6.7458696 0.81044543
-5.8713212 -7.09201 0.86916906
-5.9846449 -6.963861 0.86681634
-6.0617547 -6.8809314 0.86568701
-43.118896 -47.164658 6.0395737
-8.5816879 -9.158864 1.1852789
-41.364197 -42.54763 5.6081815
-41.638451 -42.307217 5.6100636
-46.612251 -46.783184 6.2415304
-10.256499 -9.9221783 1.347804
-10.389071 -9.8065014 1.3493097
-10.524776 -9.8131781 1.3590969
-7.9100046 -7.1958513 1.0096728
-7.9362354 -7.1312118 1.0074141
-7.9113388 -7.0215845 0.99875617
-7.9991922 -7.0122843 1.0044026
-12.582499 -10.626831 1.5556892
-12.682635 -10.57876 1.5600182
-10.983889 -8.7137861 1.3241827
-11.16176 -8.7438421 1.3391459
-10.855324 -8.3968248 1.2961384
-11.161408 -8.5246353 1.3264413
-11.353406 -8.5614843 1.3430043
-11.456034 -8.5291147 1.3489332
-11.781699 -8.6597166 1.3810241
-12.026391 -8.7264137 1.4034219
-12.280431 -8.7962265 1.4267608
-4.8472943 -3.4273636 0.56002325
-4.8470058 -3.3827431 0.55757642
-4.8701305 -3.3546331 0.55785877
-4.8972092 -3.3291647 0.55861163
-4.9249854 -3.304045 0.55945855
-4.9526372 -3.2787094 0.56030554
-4.9801636 -3.2531586 0.56115252
-4.9866409 -3.2139111 0.55964679
-4.9642611 -3.1565449 0.55494136
-4.9050965 -2.9935853 0.54204851
-4.9148426 -2.9582982 0.54110748
-4.9277654 -2.9250369 0.54054278
-4.9112515 -2.8746307 0.53677845
-4.9365578 -2.8489199 0.53762543
-4.9426966 -2.8121762 0.53640205
-4.9320717 -2.7662125 0.53339058
-4.9350114 -2.7281916 0.53188485
-4.9638972 -2.7045276 0.53320235
-4.9540844 -2.6598916 0.53037912
-4.9518313 -2.6196678 0.52840286
-4.9775238 -2.594296 0.52943802
-4.9977765 -2.565979 0.5299086
-5.0143156 -2.5357141 0.53000265
-5.0208678 -2.5004613 0.52906162
-5.0271773 -2.4652238 0.52812052
-5.0368299 -2.4317343 0.52755588
-5.0444622 -2.3973649 0.52680302
-5.0708008 -2.3718505 0.5280264
-5.0771194 -2.3369458 0.52717942
-5.0913625 -2.3057492 0.52717942
-5.11269 -2.2777066 0.52793229
-5.1511908 -2.2570798 0.53047323
-5.3267765 -2.2951531 0.54713041
-5.2848396 -2.2387393 0.54138976
-5.3389163 -2.2231071 0.54553056
-5.4952755 -2.2487442 0.56011736
-5.8452001 -2.3501577 0.59437275
-5.9437733 -2.3475251 0.60293663
-6.3247032 -2.4532084 0.64010942
-6.6448035 -2.5305626 0.67097694
-6.8980041 -2.5786302 0.69497454
-7.1997042 -2.6411679 0.72377169
-57.807648 -20.403584 5.7936687
-56.936172 -17.767927 5.6368842
-56.978424 -17.398178 5.6303911
-57.069798 -17.043962 5.6289792
-60.085194 -17.543674 5.9157271
-56.177959 -15.657308 5.5116262
-9.0251541 -2.4559896 0.88300294
-9.0785427 -2.4107857 0.88676727
-9.1153307 -2.3607757 0.88893181
-9.0688314 -2.2894499 0.88300294
-55.713142 -13.338796 5.4141302
-60.718174 -11.80606 5.8458991
-6.3032641 -1.1057923 0.60378361
-5.5207009 -0.93365145 0.52812052
-5.1794572 -0.84329748 0.49490029
-4.9760122 -0.77887082 0.4749493
-4.9363947 -0.74166942 0.47071445
-4.9674587 -0.71519583 0.47325537
-4.9480834 -0.68144375 0.47099677
-4.945262 -0.65016198 0.47033802
-4.9531097 -0.62030083 0.47071445
-4.9676967 -0.59119111 0.47174963
-4.882194 -0.55066013 0.46327987
-4.9003305 -0.52227521 0.46469152
-4.9212737 -0.49398655 0.46638545
-4.9438243 -0.43504065 0.4679853
-4.9477983 -0.37426451 0.46789119
-4.9559603 -0.3443121 0.46845585
-4.9689093 -0.31458792 0.46949103
-4.93894 -0.28227684 0.46647957
-4.9743838 -0.25368941 0.46967924
-4.9907656 -0.22383086 0.47109088
-4.9771228 -0.19262697 0.46967924
-4.9841809 -0.16227841 0.4702439
-5.0000114 -0.13208677 0.47165552
-5.0007272 -0.10140479 0.47165552
-5.0052376 -0.070775136 0.47203195
-5.0125461 -0.040117741 0.4726907
-5.0286269 -0.0093896845 0.47419643
-5.0475054 0.021547072 0.47598451
-5.0711708 0.052767135 0.47824311
-5.0836921 0.084096842 0.47946653
-5.1009955 0.11569525 0.48116046
-5.1250682 0.1477102 0.48351318
-5.1529188 0.1801642 0.48624232
-5.1745954 0.21271993 0.48840681
-5.1761761 0.24460773 0.48868912
-5.1797376 0.34043074 0.48953611
-5.231173 0.3760635 0.49461794
-5.1046996 0.39846486 0.48285443
-58.724445 5.6753311 5.575808
-60.776245 6.6273656 5.7779527
-69.718307 11.086923 6.6719818
-63.323208 15.326601 6.1574917
-63.195126 15.706691 6.1542921
-63.03968 16.07939 6.1486454
-63.110306 16.51049 6.1653028
-68.397896 21.992876 6.79037
-9.620944 3.4223983 0.96412432
-9.553009 3.5308847 0.96158338
-9.3364439 3.5160985 0.94191474
-9.2840195 3.5615518 0.93880922
-9.0663319 3.542006 0.91895235
-8.960247 3.5640831 0.91038847
-8.8514671 3.5838721 0.90154231
-8.6737509 3.5740139 0.885638
-8.5570908 3.5875182 0.87594485
-8.4680672 3.6114445 0.86907494
-8.4329615 3.657789 0.86775744
-8.3693686 3.6913838 0.86352253
-8.2366447 3.693377 0.85213542
-8.1821213 3.7293942 0.84884167
-8.073267 3.7397733 0.83990133
-8.0654812 3.7964475 0.84150118
-8.070775 3.8596101 0.84451264
-8.0612688 3.9160192 0.84601837
-8.0745859 3.9839106 0.84997094
-8.0820322 4.0494356 0.85335886
-8.1022863 4.1219735 0.85815835
-8.0750723 4.1706967 0.85797012
-8.0863619 4.2395825 0.86192268
-8.0883198 4.3040862 0.86493415
-7.9540129 4.295445 0.85335886
-43.744827 26.110882 4.8145661
-43.527576 26.344778 4.8083549
-41.214935 25.291878 4.5698843
-58.995567 37.715397 6.6177754
-21.821333 14.522706 2.4766331
-21.702925 14.636843 2.4733393
-21.453247 14.660759 2.4550824
-21.307228 14.753579 2.448683
-21.07612 14.785696 2.4324963
-20.888433 14.846106 2.4212976
-20.395006 14.875453 2.3850658
-20.244095 14.956536 2.3781018
-19.998903 14.965942 2.360033
-19.917805 15.096792 2.3613505
-19.20504 15.312924 2.3206956
-19.049528 15.381068 2.313261
-18.351309 15.00424 2.2395742
-8.0321703 6.649694 0.98454583
-7.9942689 6.7014112 0.98492229
-7.9325056 6.7329426 0.98238134
-18.262953 16.289303 2.3121319
-7.4161668 6.8637905 0.95405471
-7.3107085 6.8499436 0.9458673
-18.929893 18.178617 2.4797387
-18.82299 18.299286 2.4803975
-6.9246564 6.984302 0.92855138
-6.8851538 7.0302157 0.92902189
-6.8453484 7.0759077 0.92949247
-6.7811689 7.0961838 0.92666924
-42.204941 44.713154 5.8109846
-41.377834 44.37928 5.7344747
-40.616463 44.102135 5.6663404
-39.844658 43.800404 5.5960412
-39.111378 43.527908 5.530448
-38.260036 43.109585 5.44735
-37.666672 42.969212 5.4002962
-36.990467 42.723839 5.3408198
-36.283764 42.430946 5.2762613
-35.637955 42.197182 5.2198906
-35.053146 42.025146 5.171895
-34.338879 41.686176 5.1041374
-33.802246 41.551647 5.0621648
-33.141376 41.253784 5.0009947
-32.900002 41.471958 5.0028768
-32.714901 41.76239 5.0136051
-32.545139 42.074951 5.0270624
-32.680347 42.789715 5.0884213
-32.463932 43.051437 5.0957618
-32.221752 43.280167 5.0993376
-32.021618 43.566906 5.1098776
-31.8946 43.95676 5.1325579
-31.75588 44.335361 5.1539207
-31.65567 44.773251 5.1821532
-31.503412 45.142986 5.2024803
-31.37435 45.551075 5.227231
-31.182133 45.871994 5.2420058
-31.055374 46.293953 5.2683563
-30.911415 46.696152 5.292448
-30.748983 47.075817 5.3139987
-30.611099 47.498753 5.3404431
-30.483061 47.943607 5.3693342
-30.292522 48.295891 5.3878736
-30.187853 48.791565 5.4224114
-29.984364 49.133942 5.4399157
-29.854303 49.602745 5.4714417
-29.65711 49.966496 5.4913931
-29.479202 50.368347 5.5155787
-29.344246 50.850945 5.5486107
-29.185766 51.300884 5.5780668
-28.954687 51.629219 5.5943475
-28.813148 52.123936 5.6286969
-14.717772 27.014912 2.9068964
-14.492871 26.995068 2.8951328
-13.219494 24.989916 2.6712492
-14.203299 27.252991 2.9038849
-14.070821 27.407824 2.9111311
-13.877227 27.443893 2.9058611
-13.77514 27.662201 2.9199774
-13.579727 27.694359 2.9145191
-13.446331 27.853369 2.9225183
-13.304657 27.997393 2.9290118
-12.938439 28.111526 2.924118
-12.750101 28.155922 2.920542
-12.246129 27.490635 2.8436556
-11.644142 26.576778 2.7416422
-11.969854 28.258669 2.8998382
-11.689091 28.07424 2.8734879
-10.256238 25.065153 2.5588839
-10.109304 25.145163 2.5606718
-9.9749384 25.257647 2.5658479
-10.994075 28.346151 2.8728292
-11.011257 28.915485 2.9236476
-9.451869 25.285902 2.5506022
-10.512965 28.659613 2.8844986
-9.9509277 27.650999 2.7767446
-8.9086256 25.239672 2.5289574
-10.229797 29.559525 2.9556444
-9.3206701 27.476871 2.7415481
-9.1195555 27.436237 2.7318549
-9.7764568 31.327721 3.1010418
-9.4901419 31.079569 3.0706449
-8.7232504 29.875832 2.9408693
-8.5244741 29.875183 2.9355993
-7.9220271 29.834585 2.9167776
-9.9880781 40.615505 3.9525337
-9.4575014 39.501598 3.8383803
-9.3055153 39.947697 3.8761179
-9.1769943 40.51963 3.9260893
-9.0848026 41.286903 3.9949765
-8.3497677 41.578896 4.0076814
-8.1330605 41.827732 4.0267854
-7.8646641 41.815208 4.0208564
5.3882918 32.593395 3.1216514
9.357378 54.520279 5.2278895
9.6425428 54.185432 5.2013512
9.9396515 53.934322 5.1830001
10.284196 53.944691 5.1899638
10.38311 52.703545 5.0765634
11.036881 54.264168 5.2333479
11.392732 54.305527 5.2439823
11.746138 54.328987 5.2531109
12.110644 54.396801 5.2667565
12.48376 54.494202 5.2835078
12.841406 54.516388 5.293201
13.227429 54.650414 5.3139987
13.592525 54.688995 5.3257623
13.881576 54.423203 5.3080697
13.998047 53.506767 5.2269487
14.206181 52.972736 5.183188
14.440473 52.555298 5.1509089
14.426947 51.272564 5.0337443
14.655034 50.883636 5.0042882
14.812767 50.26944 4.9527168
15.107434 50.132797 4.9482937
15.078281 48.946903 4.8402576
15.200168 48.287491 4.7841687
15.430343 47.988598 4.7638416
15.755559 47.987602 4.7732525
17.331917 51.715897 5.1546736
16.556194 48.413307 4.8354578
16.871632 48.364388 4.8408222
17.214788 48.391273 4.8539972
17.562641 48.426056 4.8682075
17.917089 48.473331 4.8839235
18.283655 48.546951 4.9025574
18.666418 48.656006 4.9250493
19.008453 48.652756 4.9364362
19.456388 48.911705 4.9747381
19.809198 48.922436 4.9881015
20.210661 49.046658 5.0133228
20.61285 49.164108 5.0381675
20.980915 49.193298 5.0542598
21.388145 49.307499 5.0793867
21.840553 49.516006 5.114583
22.163927 49.425575 5.1191945
22.55019 49.471638 5.1382046
22.966726 49.577145 5.1637077
23.577478 50.087437 5.231842
23.920017 50.016373 5.2396531
24.271704 49.961788 5.2494407
24.658863 49.976196 5.2667565
25.186705 50.266319 5.3135281
25.600748 50.319351 5.3356438
2.3436363 4.5378113 0.48163101
2.3372254 4.4580984 0.47466698
2.3322647 4.3830318 0.4681735
2.3340411 4.3222122 0.46318579
2.3174572 4.2292342 0.45471603
2.3157873 4.165339 0.44935185
2.3099978 4.0955558 0.44332892
2.3207452 4.0562453 0.44059977
2.333097 4.0204029 0.43824708
2.3370166 3.970835 0.43438864
2.339396 3.919662 0.43034199
2.3505151 3.8839412 0.42798927
2.3664916 3.8567176 0.42657763
2.3774898 3.8218367 0.42431903
2.3950534 3.797914 0.42328385
2.4102681 3.7705646 0.42187223
2.4144101 3.7264621 0.41857845
2.4213817 3.6874449 0.4158493
2.447823 3.6783197 0.41650805
2.45977 3.6475487 0.41472
2.4764872 3.6241674 0.4137789
2.4907436 3.5974448 0.4124614
2.4887559 3.5478642 0.40850884
2.5139391 3.5373955 0.4090735
2.5315247 3.5162482 0.40841475
2.5430791 3.486975 0.4068149
2.5490453 3.4504864 0.40436807
2.5737481 3.4395633 0.40493274
2.590595 3.4181526 0.40427396
2.6139445 3.4053516 0.40465039
2.7001741 3.4733467 0.41472
2.7343688 3.4731395 0.41669628
2.7605932 3.4625237 0.41744915
2.7942958 3.4610116 0.41933131
2.7934234 3.4168255 0.4160375
2.8467155 3.4387305 0.42083704
2.8645635 3.4173839 0.4203665
2.8700163 3.3815267 0.4181079
2.8978488 3.3721583 0.41914308
2.9851439 3.4309199 0.42874214
3.0436521 3.4551189 0.43410632
4.0177336 4.5047593 0.56943405
3.2167926 3.4758277 0.44652861
3.2748182 3.495254 0.45161045
3.3551266 3.5372109 0.45970377
3.3933177 3.5337913 0.46196237
3.4524112 3.5514503 0.4670442
3.555145 3.6125078 0.47796077
3.6341612 3.6477513 0.48558354
3.7853434 3.7073667 0.4996998
3.8244777 3.699991 0.50186431
3.8902953 3.7177227 0.50751078
3.9579203 3.736151 0.51334548
4.0222759 3.7504933 0.51870966
4.0898838 3.7668827 0.5244503
4.1276488 3.7551153 0.52633244
4.2039309 3.7776265 0.53310823
4.2880883 3.8059492 0.54082513
4.410182 3.8661919 0.55324745
4.4496269 3.8527436 0.5552237
4.5518742 3.8926585 0.56501096
4.6684666 3.9430239 0.57649219
14.032023 11.704276 1.7261193
14.075145 11.594536 1.7226373
14.112814 11.48094 1.7185906
14.151949 11.369189 1.7148263
14.180105 11.249348 1.7098386
14.219081 11.138799 1.7062625
14.230461 11.007486 1.6994867
14.236812 10.873434 1.6922404
14.263517 10.755904 1.6875349
14.295706 10.643212 1.6835824
14.325446 10.529352 1.6794416
14.370444 10.427222 1.677183
14.376688 10.29769 1.6705014
14.404649 10.18457 1.6664547
14.412985 10.05839 1.6602435
14.449834 9.9528227 1.6574203
14.487577 9.8483019 1.6547853
14.516315 9.7381468 1.6512091
14.559192 9.6379023 1.6493269
4.2241688 2.7593617 0.47579628
4.2033625 2.7091224 0.4715614
4.1745396 2.6544352 0.46647957
4.1291804 2.5901542 0.45960966
4.1077442 2.5417216 0.45546889
4.0884199 2.4952064 0.45161045
4.0763578 2.4536452 0.44859898
4.0699334 2.4158835 0.44624627
3.9257247 2.2978337 0.42883623
3.7224529 2.1483092 0.40512094
3.7468138 2.1318281 0.40634435
3.7580872 2.1078238 0.40615612
3.6463532 2.015851 0.39269865
3.6254325 1.9753408 0.38912255
3.6234503 1.9455239 0.38761681
3.5323572 1.8687886 0.37660614
3.5093257 1.8291352 0.37293589
3.491256 1.7925633 0.36983034
3.4799783 1.7598766 0.36747763
3.4514992 1.7189643 0.36333686
3.4396346 1.6867964 0.36098415
3.4194367 1.650944 0.35778445
3.4088206 1.6201037 0.35561997
3.4105811 1.5953611 0.35477298
3.4139752 1.5714904 0.35411423
3.4308088 1.5537986 0.3548671
3.4320934 1.5290723 0.35402012
3.4368517 1.5059869 0.3535496
3.4313984 1.4785678 0.35204387
3.4248221 1.4508843 0.35044402
3.3665669 1.4019082 0.34357411
3.2709858 1.3386219 0.33293986
3.2634349 1.3122132 0.33134001
3.2667952 1.290336 0.3308695
3.2867177 1.2749469 0.33209288
3.3112257 1.2611333 0.33378685
3.3123736 1.2383523 0.33312809
3.335799 1.223833 0.33472794
3.3151431 1.1932287 0.33190468
3.3224022 1.1728649 0.33190468
3.339885 1.1560383 0.33293986
3.3968837 1.1524732 0.33792761
3.4501836 1.1469954 0.34253892
3.539515 1.1526185 0.35072634
3.5598001 1.1351123 0.35204387
3.6332235 1.1340086 0.35863143
3.6563001 1.1166368 0.36023128
3.6936085 1.1032975 0.36324275
3.7461803 1.0940067 0.36775994
3.8361123 1.0947649 0.37594736
3.8859129 1.0832341 0.38018224
4.0615578 1.1053752 0.39674529
4.1336951 1.0978067 0.40314466
4.2868462 1.1103588 0.41744915
4.3756275 1.104746 0.42544833
4.8531356 1.1936556 0.47127908
4.4353285 1.0620936 0.42996553
4.4592147 1.0389245 0.43165949
4.4742446 1.0135227 0.43250647
4.4910746 0.98840356 0.43354166
4.5038695 0.96228415 0.43420041
4.4853182 0.92958093 0.43184772
4.5368128 0.91125441 0.4362708
4.5491595 0.88472998 0.43692955
46.905861 8.8220968 4.5105019
55.77282 10.135844 5.3572884
55.834946 9.7936096 5.3573828
55.985313 9.1132898 5.3606763
47.248829 7.3938932 4.5195365
47.333675 7.1099038 4.5233946
47.399075 6.8225985 4.5255594
47.502178 6.5401893 4.5314879
47.577938 6.2533984 4.5349703
47.63517 5.9638214 4.5368524
47.681736 5.6727185 4.5378876
47.72554 5.3811574 4.5388284
56.941517 6.0666494 5.4118714
7.0510378 0.70767987 0.66871834
6.7797003 0.63846141 0.64255619
6.4829941 0.57041961 0.61404139
4.8322921 0.39536643 0.45716286
4.8346272 0.36570859 0.45716286
4.7871213 0.332589 0.45245743
4.7393932 0.30006632 0.447752
4.7321997 0.2704694 0.44690505
4.7377472 0.24163075 0.44728148
1.7325737 0.077835992 0.16279204
1.715112 0.066511348 0.16109809
1.7095176 0.05579222 0.16053344
1.7058469 0.045196768 0.16015701
1.7031059 0.034668606 0.15987468
1.695323 0.024105603 0.15912181
1.6795105 0.013576001 0.15761608
1.7460868 -0.00079428323 0.13037579
1.746049 -0.011508056 0.13037579
1.7419573 -0.022172164 0.13007587
1.7378004 -0.032786492 0.12977596
1.749529 -0.043743331 0.1306757
1.7681653 -0.05505994 0.1321003
1.7408884 -0.064915255 0.13007587
1.7225246 -0.074823938 0.12872626
1.7290049 -0.08573474 0.12925111
1.7374073 -0.096838102 0.12992592
1.7238414 -0.10670097 0.12895119
1.7211643 -0.1171416 0.12880124
1.734336 -0.12872826 0.12985094
1.7374895 -0.13968563 0.13015085
1.7326257 -0.15000153 0.12985094
1.7267079 -0.1601713 0.12947604
1.7465324 -0.1728172 0.1310506
1.721637 -0.18103689 0.12925111
1.7145473 -0.19093736 0.12880124
1.7153243 -0.20168616 0.12895119
1.709106 -0.21159671 0.12857629
1.7048088 -0.22169498 0.12835136
1.7113214 -0.23322551 0.12895119
1.7118325 -0.24400225 0.12910114
1.7103032 -0.25450125 0.12910114
1.7205348 -0.26681992 0.13000089
1.7109892 -0.27610406 0.12940106
1.7122133 -0.28709084 0.12962601
1.6996121 -0.29571536 0.12880124
1.73506 -0.31284827 0.13165043
3.4388738 -0.64120233 0.26211342
3.4436872 -0.66398829 0.26278824
3.4639986 -0.68997109 0.26466268
3.4557927 -0.71041036 0.26436278
3.4572217 -0.73284096 0.26481265
3.4438918 -0.75212705 0.26413783
3.4362931 -0.77258855 0.26391292
3.4470332 -0.79725099 0.26511255
3.4527485 -0.82092184 0.26593733
3.4544277 -0.84374702 0.26646218
3.4627275 -0.86832023 0.26751187
3.4689238 -0.89253026 0.26841164
3.4710958 -0.9158321 0.26901147
3.4702244 -0.93841374 0.26938635
3.4740114 -0.96234936 0.27013615
3.4910665 -0.99017346 0.27193564
3.505995 -1.0176873 0.27358517
3.4996846 -1.0391805 0.27358517
3.4980133 -1.0620823 0.27396005
3.5038126 -1.0873656 0.27493477
3.5084817 -1.1124589 0.27583453
3.4816663 -1.1275176 0.27425995
2.0288682 -0.67111319 0.15976745
2.0266018 -0.68418682 0.1599174
2.0195367 -0.6956355 0.15969247
2.0152307 -0.70801407 0.15969247
2.0080316 -0.71935791 0.15946753
1.9951489 -0.72858959 0.15879272
1.9878368 -0.73977536 0.15856779
1.9748675 -0.74877948 0.15789299
1.9702357 -0.76088297 0.15789299
1.9655299 -0.7729578 0.15789299
1.9653795 -0.78685516 0.15826787
1.9669795 -0.80153179 0.15879272
1.9703157 -0.81702089 0.15946753
1.9707787 -0.83141905 0.1599174
1.9711392 -0.84585357 0.16036728
1.9723105 -0.86072224 0.16089213
1.9742849 -0.87604123 0.16149196
1.9743272 -0.89059728 0.16194183
1.974265 -0.90518665 0.16239171
1.9750017 -0.92022961 0.16291656
1.9720223 -0.9336099 0.16314149
1.9680543 -0.94655633 0.16329145
1.9648976 -0.95992661 0.16351639
1.9589705 -0.97196496 0.16351639
1.9556419 -0.98531187 0.16374132
1.9602143 -1.0027393 0.16464107
2.0035908 -1.0404692 0.16883987
4.5363522 -2.3902287 0.38462865
4.4670773 -2.38887 0.37997997
4.4286699 -2.4033957 0.37795556
4.382391 -2.4132123 0.37525633
4.3431244 -2.4264419 0.37315691
4.2934504 -2.4333823 0.37015775
4.250772 -2.4437804 0.36775845
4.2055449 -2.45224 0.36513418
4.1955695 -2.4810433 0.36558405
4.1640167 -2.4969985 0.36415946
4.1204972 -2.505409 0.36168516
4.0795794 -2.5149498 0.3594358
4.0327802 -2.5203841 0.35666159
3.9902816 -2.5280077 0.35426226
3.9562333 -2.5405924 0.35261273
3.923018 -2.5533988 0.35103819
3.8847997 -2.5625997 0.34901375
3.7960887 -2.5714986 0.34384024
3.7670832 -2.5857155 0.34264058
3.7265842 -2.5917044 0.34039122
3.6967523 -2.604759 0.33911657
3.6750183 -2.6233382 0.33859172
3.6354167 -2.6288962 0.33641735
3.615195 -2.6482077 0.33604243
3.5948734 -2.6673696 0.33566755
3.5736556 -2.6857834 0.33521768
3.6523352 -2.7801239 0.34421512
3.6257298 -2.7951772 0.34331536
3.508678 -2.7394502 0.33379307
3.5152721 -2.7794783 0.33604243
3.4981515 -2.8009953 0.33604243
3.5033641 -2.8406167 0.33821681
3.4920349 -2.8671207 0.33881664
3.4805119 -2.8935924 0.33941647
3.3955505 -2.8583915 0.33281836
3.4295609 -2.923151 0.33791691
3.4289258 -2.9591212 0.33964142
3.4745409 -3.0358658 0.34601462
3.4110291 -3.0174918 0.3415159
3.435539 -3.0769448 0.34586465
3.4587071 -3.1361411 0.35013846
3.4702561 -3.1856225 0.35328755
3.492285 -3.2455435 0.35756135
3.4810216 -3.2751093 0.35846108
3.5034678 -3.3369782 0.36288482
3.5001566 -3.3750219 0.36468431
3.5222023 -3.4382224 0.36918303
3.5244486 -3.4828968 0.37165734
3.5312145 -3.5326636 0.3746565
3.5592237 -3.6046371 0.37997997
3.5635004 -3.6535313 0.38282916
3.5624669 -3.6975865 0.3851535
3.5782144 -3.7598224 0.38935232
3.6418314 -3.8739676 0.39887461
3.6431022 -3.9232745 0.40164882
3.649297 -3.9786198 0.40502286
3.6435652 -4.021626 0.40712228
3.6248059 -4.0505939 0.4077971
3.6599894 -4.1407428 0.41462016
4.388144 -5.0261512 0.50077069
4.3663397 -5.0635533 0.50182039
4.3358345 -5.0910087 0.50189537
4.2955279 -5.1068344 0.50084567
4.2532787 -5.1200562 0.49957106
4.2350659 -5.1622458 0.5011456
4.210217 -5.1966567 0.50197035
4.1439843 -5.1795702 0.49784654
4.1127429 -5.2056818 0.49792153
4.0942202 -5.2481151 0.49957106
