# .PCD v0.7 - Point Cloud Data file format
VERSION 0.7
FIELDS x y z
SIZE 4 4 4
TYPE F F F
COUNT 1 1 1
WIDTH 1429
HEIGHT 1
VIEWPOINT 0 0 0 1 0 0 0
POINTS 1429
DATA ascii
1.1272895 -2.6553252 -0.67957067
1.1049805 -2.6478224 -0.67588717
1.0816985 -2.6374452 -0.67151296
1.0691316 -2.6530592 -0.67381519
1.0567718 -2.6695225 -0.67634761
1.0379041 -2.6696074 -0.67473608
1.022892 -2.6795623 -0.67565691
1.0095038 -2.6939898 -0.67772889
0.99261898 -2.6992199 -0.6774987
0.97339684 -2.6979363 -0.67565691
0.95390326 -2.6956015 -0.67358494
0.93351829 -2.690371 -0.67082232
0.91417348 -2.6877563 -0.66875035
0.89889503 -2.6970079 -0.66967124
0.89168972 -2.7311511 -0.67680806
0.8695823 -2.7198861 -0.67266411
0.85839772 -2.7428167 -0.67703825
0.82787853 -2.7033675 -0.66598773
0.82216221 -2.7447538 -0.67496628
0.80749261 -2.7572181 -0.67680806
0.79832244 -2.7892535 -0.68348438
0.77254874 -2.763171 -0.67588717
0.75327402 -2.7594099 -0.67381519
0.73557711 -2.7611587 -0.67312455
0.71666396 -2.7580853 -0.67128277
0.70880395 -2.7982786 -0.68003112
0.68509477 -2.7761204 -0.67358494
0.66509348 -2.7679708 -0.67059213
0.64566094 -2.7615759 -0.66805971
0.62633204 -2.7550471 -0.66552728
0.60962546 -2.7597888 -0.66575748
0.5963518 -2.7806046 -0.66990143
0.58343995 -2.8042195 -0.67473608
0.56583804 -2.8058386 -0.67427564
0.54376394 -2.7844248 -0.6682899
0.52955782 -2.8030086 -0.67197341
0.51549339 -2.8234372 -0.67611736
0.49664006 -2.8179214 -0.67404538
0.47966614 -2.8228347 -0.67450583
0.45809639 -2.7997942 -0.6682899
0.43924591 -2.7919779 -0.66575748
0.4234136 -2.8032806 -0.66782945
0.40982783 -2.8308666 -0.67381519
0.38938144 -2.8111572 -0.66852015
0.37174267 -2.8105991 -0.66782945
0.36008313 -2.8572409 -0.67841959
0.34173504 -2.8526328 -0.67680806
0.3220306 -2.8353374 -0.67220366
0.30327791 -2.8246813 -0.66921079
0.28505954 -2.8177752 -0.66713881
0.26831615 -2.8252838 -0.66852015
0.25037369 -2.8200917 -0.66690862
0.23274514 -2.8176954 -0.66598773
0.21693303 -2.8384769 -0.67059213
0.19849072 -2.8251934 -0.66713881
0.18245713 -2.8467522 -0.67197341
0.16470538 -2.8429606 -0.67082232
0.14730844 -2.8448894 -0.67105258
0.1301596 -2.8525448 -0.67266411
0.11242447 -2.8474555 -0.67128277
0.095694371 -2.8704615 -0.67657781
0.078079753 -2.8709946 -0.67657781
0.060115457 -2.8548799 -0.67266411
0.042135492 -2.8240581 -0.66529703
0.024806604 -2.8242633 -0.66529703
0.007432071 -2.8068459 -0.66115308
-0.0098602939 -2.8263013 -0.66575748
-0.027201967 -2.8261876 -0.66575748
-0.044604331 -2.8298595 -0.66667837
-0.062138375 -2.8373158 -0.66852015
-0.07910876 -2.8213172 -0.66483665
-0.096651904 -2.8275867 -0.66644818
-0.11462867 -2.8424978 -0.67013168
-0.12957799 -2.7882762 -0.65746957
-0.14852844 -2.8224132 -0.66575748
-0.16275518 -2.76899 -0.65332562
-0.18138433 -2.7931876 -0.65931135
-0.19817403 -2.7871685 -0.65816027
-0.21549724 -2.7888107 -0.65885091
-0.23446842 -2.8097405 -0.66414595
-0.2536175 -2.8295724 -0.66921079
-0.27329746 -2.8521802 -0.67496628
-0.2898044 -2.8407686 -0.67266411
-0.30796313 -2.8457093 -0.67427564
-0.32309303 -2.823463 -0.66944098
-0.33994475 -2.8175628 -0.66852015
-0.35734919 -2.8163893 -0.66875035
-0.37603703 -2.8247545 -0.67128277
-0.38973296 -2.796371 -0.66506684
-0.40590155 -2.7871864 -0.66345531
-0.42080218 -2.7702119 -0.66000199
-0.43931335 -2.7771895 -0.66230422
-0.45697773 -2.7782826 -0.66322505
-0.47696692 -2.7926927 -0.66736901
-0.49494264 -2.7945044 -0.66852015
-0.51085025 -2.7847147 -0.66690862
-0.52611184 -2.7719672 -0.66460639
-0.54198593 -2.7629573 -0.66322505
-0.56163466 -2.7729325 -0.66644818
-0.57425791 -2.7484779 -0.66138333
-0.59500569 -2.7629776 -0.66575748
-0.60583484 -2.7317235 -0.6590811
-0.62366802 -2.7326987 -0.66023225
-0.64665198 -2.7553468 -0.66667837
-0.66400278 -2.7532191 -0.66713881
-0.68158585 -2.7519269 -0.66782945
-0.7013365 -2.7590103 -0.67059213
-0.71456808 -2.7405307 -0.66713881
-0.73086739 -2.7342143 -0.66667837
-0.75045919 -2.7400024 -0.66921079
-0.76804608 -2.738157 -0.66990143
-0.77838504 -2.7109451 -0.6643762
-0.79088861 -2.6921132 -0.66092288
-0.80907291 -2.6928012 -0.66230422
-0.8272953 -2.6933675 -0.6636855
-0.8452636 -2.692883 -0.66483665
-0.85909593 -2.679306 -0.66276467
-0.87279361 -2.6656611 -0.66069269
-0.88728195 -2.6547179 -0.65931135
-0.90889603 -2.664881 -0.66322505
-0.92267144 -2.6519012 -0.66138333
-0.94218075 -2.6553609 -0.6636855
-0.96342289 -2.6632559 -0.66713881
-0.98412371 -2.6691637 -0.67013168
-0.98918611 -2.633014 -0.66253442
-1.0088024 -2.635983 -0.66483665
-1.0270784 -2.6351836 -0.66621792
-1.0392789 -2.6188824 -0.6636855
-1.0545993 -2.6106517 -0.66322505
-1.070228 -2.6032317 -0.66299486
-1.0884347 -2.6020024 -0.6643762
-1.1032364 -2.5925887 -0.6636855
-1.1121645 -2.5696957 -0.65954155
-1.1204612 -2.5459006 -0.6551674
-1.1352665 -2.5372012 -0.65470695
-1.1713653 -2.5753622 -0.66644818
-1.1920463 -2.5787261 -0.66921079
-1.2066051 -2.5687208 -0.66852015
-1.2059941 -2.5270188 -0.65954155
-1.229969 -2.5370836 -0.66414595
-1.271741 -2.582742 -0.67818934
-1.2588338 -2.5174475 -0.66299486
-1.2746975 -2.5105436 -0.66322505
-1.2954295 -2.5130541 -0.66598773
-1.3027022 -2.4895389 -0.66184378
-1.3188663 -2.4832175 -0.66230422
-1.3326927 -2.4725087 -0.66161352
-1.3548445 -2.4770911 -0.66506684
-1.3728518 -2.4738362 -0.66644818
-1.3808427 -2.452647 -0.66299486
-1.3968313 -2.4458182 -0.66345531
-1.4040064 -2.4237289 -0.6597718
-1.4173726 -2.4125514 -0.6590811
-1.4391233 -2.4155128 -0.66230422
-1.4639832 -2.4232948 -0.66690862
-1.4742491 -2.4067984 -0.66483665
-1.5033664 -2.4208534 -0.67128277
-1.4995251 -2.381938 -0.66299486
-1.5282485 -2.39484 -0.66921079
-1.5349853 -2.3731618 -0.66575748
-1.5511187 -2.3661401 -0.66644818
-1.5677621 -2.3598199 -0.66736901
-1.5713414 -2.3340123 -0.66276467
-1.5894725 -2.3299537 -0.6643762
-1.6031854 -2.3193564 -0.66414595
-1.6313443 -2.329402 -0.66990143
-1.6456064 -2.3193483 -0.66990143
-1.6637832 -2.3147385 -0.67151296
-1.6756634 -2.3013396 -0.67059213
-1.6810869 -2.279268 -0.66713881
-1.6932931 -2.2665715 -0.66644818
-1.7189139 -2.2716582 -0.67105258
-1.7304522 -2.2579789 -0.67013168
-1.7478547 -2.2519307 -0.67151296
-1.7520163 -2.2289233 -0.66782945
-1.7692965 -2.2226992 -0.66921079
-1.7865663 -2.2163467 -0.67059213
-1.7915158 -2.1947894 -0.66736901
-1.8012289 -2.1792552 -0.66598773
-1.8064462 -2.1584613 -0.66299486
-1.8297235 -2.1592143 -0.66667837
-1.8530778 -2.1597626 -0.67036188
-1.8573592 -2.1380675 -0.66713881
-1.8807273 -2.1383212 -0.67082232
-1.9002846 -2.1340079 -0.67312455
-1.8599054 -2.0630453 -0.65424651
-1.9328902 -2.1177149 -0.67542672
-1.9399034 -2.0993831 -0.67335474
-1.9414457 -2.0753605 -0.66944098
-1.959497 -2.069061 -0.67128277
-1.9755234 -2.0605106 -0.67243385
-1.9711833 -2.0308943 -0.66667837
-1.9877002 -2.0229256 -0.66805971
-2.0021343 -2.0127606 -0.66875035
-2.0054693 -1.9915247 -0.66575748
-2.0607266 -2.0214281 -0.68003112
-2.0339508 -1.9708271 -0.66713881
-2.0642853 -1.9758031 -0.67312455
-2.0678835 -1.9550779 -0.67036188
-2.085531 -1.9476658 -0.67220366
-2.1124644 -1.9486877 -0.67703825
-2.1085553 -1.9212711 -0.67197341
-2.1051133 -1.8946276 -0.66713881
-2.118881 -1.8836147 -0.66782945
-2.1325927 -1.8725041 -0.66852015
-2.1388953 -1.8549209 -0.66690862
-2.1502366 -1.8417619 -0.66690862
-2.1823013 -1.8461298 -0.67335474
-2.2115123 -1.8476776 -0.67888004
-2.2055426 -1.8198299 -0.67358494
-2.2219484 -1.8105652 -0.67519653
-2.2421145 -1.8042178 -0.67795914
-2.2363801 -1.7771088 -0.6728943
-2.2395859 -1.7573465 -0.67059213
-2.2549424 -1.7471473 -0.67197341
-2.2772145 -1.7421466 -0.67542672
-2.2870846 -1.7275547 -0.67519653
-2.2999821 -1.715234 -0.67588717
-2.2994914 -1.6930127 -0.67266411
-2.2933044 -1.6668578 -0.66782945
-2.3026981 -1.6521877 -0.66759926
-2.3374126 -1.6554612 -0.67473608
-2.3555024 -1.6466627 -0.67703825
-2.3767762 -1.6399148 -0.68026131
-2.3843806 -1.6236573 -0.67957067
-2.3660269 -1.5900016 -0.67151296
-2.3660057 -1.569001 -0.66875035
-2.3788457 -1.5565851 -0.66967124
-2.3744528 -1.5329877 -0.66575748
-2.3862767 -1.5199575 -0.66644818
-2.4252229 -1.5239235 -0.67473608
-2.4494171 -1.5182408 -0.67888004
-2.4736323 -1.5123184 -0.68302399
-2.4853654 -1.4986193 -0.68371463
-2.475275 -1.4719033 -0.67841959
-2.4825809 -1.4557033 -0.67795914
-2.4889383 -1.4389821 -0.67726851
-2.5011029 -1.4256104 -0.67818934
-2.5293171 -1.4211993 -0.68348438
-2.5396926 -1.4065958 -0.68394482
-2.5277743 -1.3797979 -0.67841959
-2.5344789 -1.36334 -0.67795914
-2.5479558 -1.3504969 -0.67934042
-2.5389414 -1.3258302 -0.67473608
-2.5669327 -1.3204632 -0.68003112
-2.5810635 -1.3077662 -0.68164265
-2.5820727 -1.2884291 -0.67980087
-2.6126394 -1.2837173 -0.6857866
-2.5889289 -1.2524091 -0.6774987
-2.6027153 -1.2394283 -0.67911023
-2.6085088 -1.2226093 -0.67864978
-2.6354032 -1.2155457 -0.68371463
-2.648129 -1.2017647 -0.68509597
-2.6412349 -1.1791475 -0.6814124
-2.6430738 -1.1605719 -0.68003112
-2.6438911 -1.1416327 -0.67841959
-2.6400969 -1.1208261 -0.67565691
-2.6469243 -1.1046057 -0.67565691
-2.6473494 -1.0857595 -0.67404538
-2.6656961 -1.0742227 -0.67703825
-2.6885245 -1.064292 -0.68118221
-2.6886551 -1.0453075 -0.67957067
-2.6959274 -1.0291375 -0.67980087
-2.7158608 -1.0176971 -0.68325418
-2.7001333 -0.99295473 -0.67772889
-2.7308912 -0.98528326 -0.68394482
-2.7497294 -0.97305197 -0.68716794
-2.7501318 -0.95424807 -0.6857866
-2.7476432 -0.93453622 -0.68371463
-2.7293215 -0.90966147 -0.67772889
-2.7700057 -0.90437132 -0.68647724
-2.7458405 -0.87787759 -0.67911023
-2.7836814 -0.87118268 -0.68716794
-2.7815304 -0.85180706 -0.68532616
-2.7922981 -0.83639884 -0.6867075
-2.8095186 -0.82280433 -0.68970031
-2.7967381 -0.80046391 -0.68532616
-2.8250275 -0.78983688 -0.69108164
-2.833576 -0.77351272 -0.69200253
-2.84109 -0.75686288 -0.69269317
-2.8145983 -0.73134273 -0.68509597
-2.8256364 -0.71573097 -0.6867075
-2.8214715 -0.69628209 -0.68463552
-2.8275831 -0.67941135 -0.68509597
-2.8402271 -0.66404194 -0.68716794
-2.8518398 -0.64832723 -0.68900967
-2.8557642 -0.63081646 -0.68900967
-2.859581 -0.61328197 -0.68900967
-2.8728178 -0.59770572 -0.6913119
-2.8659377 -0.57795203 -0.68877947
-2.8913975 -0.56464398 -0.69407451
-2.8976765 -0.54743373 -0.69476515
-2.8483276 -0.52003545 -0.6821031
-2.8802164 -0.50761312 -0.68900967
-2.8698454 -0.48764986 -0.6857866
-2.8612587 -0.46814713 -0.68302399
-2.8881106 -0.45436063 -0.68877947
-2.9418428 -0.44432899 -0.70098108
-2.9406612 -0.42571244 -0.70006019
-2.9383984 -0.40699378 -0.6989091
-2.949523 -0.39010403 -0.70098108
-2.9171028 -0.36762157 -0.69269317
-2.8941813 -0.34670845 -0.6867075
-2.8894856 -0.32817546 -0.68509597
-2.9030559 -0.31168529 -0.68785858
-2.925246 -0.29592156 -0.69269317
-2.9095685 -0.27631259 -0.68854922
-2.9102399 -0.25836864 -0.68831903
-2.9331069 -0.24226727 -0.69338387
-2.9170725 -0.22293232 -0.68923992
-2.9077072 -0.20428011 -0.6867075
-2.9458096 -0.1887967 -0.69545585
-2.9886878 -0.17313428 -0.70535529
-2.9751163 -0.15403932 -0.70190197
-2.9672563 -0.13538304 -0.69983
-2.9553902 -0.11667585 -0.69683713
-2.918119 -0.097278714 -0.68785858
-2.9488173 -0.080188967 -0.6949954
-2.9687121 -0.062501766 -0.6995998
-2.9515252 -0.044025254 -0.69545585
-2.9692557 -0.026066396 -0.6995998
-2.9596281 -0.0078220554 -0.69729757
-2.9683788 0.010369414 -0.69936955
-2.9546359 0.028450433 -0.69614649
-2.9368913 0.046301484 -0.69200253
-2.9482269 0.064577825 -0.69476515
-2.9458296 0.082611851 -0.6943047
-2.9724991 0.10161898 -0.70075089
-2.9484835 0.1189127 -0.6952256
-2.9253404 0.13596085 -0.68993056
-2.9331973 0.15436892 -0.69200253
-2.960367 0.17402242 -0.69867891
-2.9796364 0.19350983 -0.7035135
-2.9706273 0.21123601 -0.70167178
-2.9489002 0.22788309 -0.69683713
-2.9309607 0.24459562 -0.69292343
-2.9313433 0.26274896 -0.69338387
-2.9558306 0.28323904 -0.6995998
-2.9608135 0.3020623 -0.70121133
-2.9724493 0.32169092 -0.70443439
-2.9385142 0.3362695 -0.69683713
-2.9673116 0.35802656 -0.70420414
-2.9853323 0.37880117 -0.70903879
-2.9887395 0.3978827 -0.71042007
-2.9688931 0.41379419 -0.70627612
-2.9412611 0.42835459 -0.70029044
-2.9270322 0.44463891 -0.69752783
-2.9357829 0.46441615 -0.70029044
-2.9453611 0.48447543 -0.70328331
-2.9634361 0.50614494 -0.7083481
-2.9660239 0.52533758 -0.70972943
-2.9120157 0.53421575 -0.69752783
-2.8895619 0.54844254 -0.69292343
-2.8976014 0.56841117 -0.69568604
-2.9283943 0.5931375 -0.70397395
-2.9437506 0.61507696 -0.70857835
-2.9579961 0.63702214 -0.71295249
-2.9492815 0.65410608 -0.71180141
-2.9319305 0.66915756 -0.70857835
-2.9391377 0.6898042 -0.71134096
-2.93485 0.70782542 -0.71134096
-2.9323409 0.72628808 -0.71180141
-2.8995357 0.73707187 -0.70489484
-2.9147327 0.7600072 -0.70972943
-2.8865118 0.77159262 -0.70397395
-2.9023709 0.79494679 -0.70903879
-2.8843215 0.80905968 -0.70581573
-2.897074 0.83184671 -0.71018988
-2.8825786 0.84686327 -0.70788771
-2.9062188 0.87321794 -0.71502447
-2.8710392 0.88188738 -0.70765746
-2.8767154 0.90298545 -0.71042007
-2.8905799 0.92686117 -0.71525472
-2.845072 0.93155545 -0.70535529
-2.7922335 0.93325818 -0.69361407
-2.8813188 0.9827382 -0.7173267
-2.867882 0.99784029 -0.71548492
-2.825022 1.0023984 -0.70627612
-2.8325443 1.0246804 -0.70972943
-2.8097692 1.0359801 -0.70558548
-2.8416193 1.0675788 -0.71525472
-2.8377416 1.0860382 -0.71594536
-2.8137977 1.0967138 -0.71157122
-2.8305318 1.1232932 -0.71755689
-2.8154657 1.1373587 -0.71548492
-2.8309345 1.1638652 -0.7212404
-2.8327172 1.1849699 -0.72354263
-2.8012171 1.1920384 -0.7173267
-2.7858126 1.2057245 -0.71525472
-2.7819247 1.2243634 -0.71617556
-2.7663658 1.2378322 -0.71410358
-2.7232871 1.2386637 -0.70489484
-2.6555722 1.227578 -0.68923992
-2.6955512 1.2661957 -0.70167178
-2.682462 1.2801961 -0.70029044
-2.7052031 1.3114923 -0.7083481
-2.706708 1.3327961 -0.71088052
-2.6906462 1.3454612 -0.70880854
-2.702296 1.3720803 -0.71410358
-2.6886365 1.3859596 -0.7127223
-2.6662867 1.3952106 -0.70903879
-2.6860359 1.4266102 -0.716636
-2.6703792 1.4393702 -0.71479428
-2.6546674 1.4519917 -0.71295249
-2.6593218 1.4758096 -0.716636
-2.6222343 1.4763417 -0.70903879
-2.5615819 1.4629598 -0.6949954
-2.6241281 1.5201182 -0.71456403
-2.6130736 1.535205 -0.71410358
-2.5877213 1.5417445 -0.70972943
-2.5815439 1.5596066 -0.71065032
-2.5677769 1.5728753 -0.70949924
-2.5547709 1.5865475 -0.70857835
-2.5276949 1.5913043 -0.70374376
-2.5121412 1.603119 -0.70213217
-2.5357568 1.6401752 -0.71157122
-2.5337832 1.6610396 -0.71387339
-2.5203016 1.6744009 -0.71295249
-2.4994867 1.6827676 -0.70995963
-2.4537454 1.6739392 -0.69983
-2.4490314 1.6928374 -0.70144153
-2.4385979 1.7078326 -0.70144153
-2.3717268 1.6827769 -0.68509597
-2.3439739 1.684801 -0.68003112
-2.2541413 1.6412902 -0.65677893
-2.2346308 1.648158 -0.65401632
-2.243185 1.6758182 -0.65954155
-2.2382917 1.6936615 -0.66115308
-2.2162724 1.6984832 -0.65769982
-2.2119586 1.7168239 -0.65954155
-2.2036777 1.7321684 -0.66023225
-2.205189 1.7553555 -0.66391575
-2.2027102 1.7755719 -0.66644818
-2.1962969 1.7927467 -0.66782945
-2.1897557 1.8099095 -0.66921079
-2.1830864 1.8270591 -0.67059213
-2.174804 1.8429368 -0.67151296
-2.163455 1.8562465 -0.67151296
-2.1512899 1.868848 -0.67128277
-2.1375904 1.8800845 -0.67059213
-2.1238341 1.8912234 -0.66990143
-2.1013491 1.8944443 -0.66644818
-2.0832174 1.9013973 -0.6643762
-2.0636499 1.9068785 -0.66184378
-2.0256188 1.8949049 -0.65332562
-2.0061822 1.8999366 -0.65079319
-1.9804388 1.8987398 -0.64618886
-1.9505969 1.893232 -0.64020312
-1.9556011 1.9215357 -0.64572841
-1.949293 1.9389896 -0.64757013
-1.9373589 1.9509139 -0.64757013
-1.9485191 1.9863865 -0.65539759
-1.8997298 1.9605626 -0.64296573
-1.9017935 1.9869468 -0.64780039
-1.8995932 2.0091865 -0.65125364
-1.8420681 1.9724373 -0.63559872
-1.7758305 1.9250447 -0.61672074
-1.4422041 1.5826902 -0.50368291
-1.3790894 1.532192 -0.4848049
-1.3250549 1.4904369 -0.46891975
-1.3126749 1.4948826 -0.46776867
-1.2951901 1.4933507 -0.4647758
-1.2847368 1.4997914 -0.46431535
-1.2761383 1.5083892 -0.46454558
-1.2624921 1.5109631 -0.46293405
-1.2476237 1.5119251 -0.46086207
-1.2321767 1.5120075 -0.45855987
-1.217996 1.5134737 -0.45671812
-1.2038437 1.5148232 -0.45487636
-1.1927242 1.5198845 -0.45418569
-1.1792043 1.5217891 -0.45257416
-1.1698446 1.5289959 -0.45257416
-1.1575085 1.5322623 -0.45142308
-1.1428497 1.5323144 -0.4493511
-1.1322722 1.5377306 -0.44889066
-1.1199552 1.540713 -0.44773954
-1.1059426 1.5412301 -0.44589779
-1.0942156 1.5448103 -0.44497693
-1.0841587 1.5506976 -0.4447467
-1.0718604 1.5533155 -0.44359559
-1.0606664 1.5574498 -0.44290495
-1.05109 1.5639286 -0.44290495
-1.0382477 1.5654821 -0.44152364
-1.0264915 1.5685658 -0.44060275
-1.0173755 1.5756524 -0.44083297
-1.0045519 1.5769402 -0.43945166
-0.99433941 1.5822504 -0.43922144
-0.98256171 1.5850129 -0.43830055
-0.97078764 1.5876908 -0.43737969
-0.95901781 1.590284 -0.4364588
-0.94874465 1.5953019 -0.43622857
-0.93746173 1.5985748 -0.4355379
-0.92763543 1.6042968 -0.4355379
-0.91729236 1.609113 -0.43530771
-0.90358877 1.6079236 -0.43346593
-0.89370573 1.6134377 -0.43346593
-0.88005966 1.6120572 -0.43162417
-0.87153447 1.6199981 -0.43231484
-0.86112225 1.6244553 -0.43208462
-0.85113865 1.6297085 -0.43208462
-0.84201306 1.6366311 -0.43254507
-0.83107549 1.6400306 -0.43208462
-0.82056242 1.6442283 -0.4318544
-0.80573845 1.6396244 -0.42932197
-0.79523903 1.6436614 -0.42909178
-0.78304714 1.6441166 -0.42794067
-0.76881516 1.6400785 -0.42563847
-0.75914484 1.6456487 -0.42586869
-0.74461031 1.6405276 -0.42333627
-0.73532343 1.6468428 -0.42379671
-0.72481358 1.6504327 -0.42356649
-0.7096591 1.6432343 -0.42057365
-0.70070362 1.6502451 -0.42126429
-0.69206351 1.6581057 -0.42218518
-0.67966145 1.6569186 -0.42080387
-0.67093664 1.6646684 -0.42172474
-0.66178411 1.6714684 -0.42241541
-0.6508106 1.6736835 -0.42195496
-0.63879395 1.6730994 -0.42080387
-0.63261265 1.687923 -0.42356649
-0.62022907 1.6862926 -0.42218518
-0.60987055 1.6900665 -0.42218518
-0.59624344 1.6846026 -0.41988298
-0.58430105 1.6836324 -0.4187319
-0.57552588 1.6917926 -0.41988298
-0.56821054 1.7045245 -0.42218518
-0.55864686 1.7107542 -0.42287585
-0.55080575 1.7224923 -0.42494783
-0.53993577 1.7249109 -0.42471761
-0.53133577 1.7347049 -0.42632914
-0.51761127 1.7276778 -0.42379671
-0.5078209 1.733623 -0.42448738
-0.49556795 1.7310928 -0.42310607
-0.48310322 1.7275404 -0.42149451
-0.47403124 1.736105 -0.42287585
-0.46311933 1.7380406 -0.42264563
-0.45342478 1.744617 -0.42356649
-0.4415172 1.7426494 -0.42241541
-0.43221459 1.7509948 -0.42379671
-0.42100805 1.7517214 -0.42333627
-0.40848008 1.7466908 -0.42149451
-0.39689234 1.7453685 -0.42057365
-0.3859657 1.7468207 -0.42034343
-0.37279239 1.7377378 -0.41758078
-0.36113214 1.7352288 -0.4164297
-0.35086277 1.7393198 -0.41689014
-0.33906531 1.7357092 -0.41550881
-0.32876995 1.7396694 -0.41596925
-0.31773996 1.7397394 -0.41550881
-0.30689031 1.7406979 -0.41527858
-0.2970185 1.7473452 -0.4164297
-0.2859773 1.747214 -0.41596925
-0.27570465 1.7518198 -0.41665992
-0.26538625 1.7563652 -0.41735056
-0.25446504 1.7569973 -0.41712034
-0.24274556 1.751778 -0.41550881
-0.23224729 1.755164 -0.41596925
-0.2226893 1.7662112 -0.41827145
-0.21161652 1.7656118 -0.41781101
-0.19979139 1.7581747 -0.41573903
-0.18879208 1.7574323 -0.41527858
-0.1778094 1.7566212 -0.41481817
-0.16665998 1.753804 -0.41389728
-0.15649746 1.7615789 -0.41550881
-0.14576569 1.7634758 -0.41573903
-0.1348684 1.7633668 -0.41550881
-0.12459094 1.7719271 -0.41735056
-0.11371625 1.7726582 -0.41735056
-0.1026687 1.770408 -0.41665992
-0.091853984 1.7719765 -0.41689014
-0.080625474 1.7647297 -0.41504836
-0.069757484 1.7642188 -0.41481817
-0.058801789 1.7607232 -0.41389728
-0.047970723 1.7600782 -0.41366705
-0.037149787 1.7593664 -0.41343683
-0.026411522 1.7634534 -0.41435772
-0.015582223 1.7626091 -0.4141275
-0.0047419243 1.7529402 -0.4118253
0.0059895939 1.7461243 -0.41021377
0.016627833 1.73827 -0.40837201
0.027355058 1.7420273 -0.40929288
0.038064823 1.7427995 -0.4095231
0.048812456 1.7444787 -0.40998355
0.059415452 1.7412286 -0.40929288
0.070098311 1.7408314 -0.40929288
0.081367023 1.7530055 -0.41228575
0.092429124 1.758304 -0.41366705
0.10327333 1.7586752 -0.41389728
0.11387295 1.7550952 -0.41320661
0.12512365 1.7611582 -0.41481817
0.13630289 1.7652085 -0.41596925
0.14729348 1.7662785 -0.4164297
0.15873714 1.7721262 -0.41804123
0.16970064 1.7720876 -0.41827145
0.18066961 1.771981 -0.41850168
0.19174847 1.7727741 -0.41896212
0.20240094 1.7696304 -0.41850168
0.21290541 1.7654568 -0.41781101
0.22312114 1.7592903 -0.41665992
0.23468275 1.7636759 -0.41804123
0.24576887 1.7641302 -0.41850168
0.2567291 1.7635521 -0.4187319
0.26754522 1.7619436 -0.4187319
0.27911195 1.7650746 -0.41988298
0.29088518 1.7690902 -0.42126429
0.29976758 1.7557613 -0.41850168
0.31172374 1.7605964 -0.42011321
0.32006112 1.7452503 -0.41689014
0.33130842 1.7461218 -0.41758078
0.34145397 1.7411913 -0.41689014
0.35367739 1.7466935 -0.4187319
0.36518472 1.7483007 -0.41965276
0.3761102 1.7469783 -0.41988298
0.38597921 1.7408375 -0.41896212
0.39881968 1.7479237 -0.42126429
0.40886995 1.7426015 -0.42057365
0.42229357 1.7514118 -0.42333627
0.4353725 1.7582335 -0.42563847
0.44711193 1.7593015 -0.42655936
0.45249486 1.7358091 -0.42149451
0.46866763 1.7536823 -0.42655936
0.48044783 1.7545278 -0.42748022
0.49120435 1.7515467 -0.42748022
0.50301701 1.7522411 -0.42840111
0.51266152 1.7453871 -0.42748022
0.53064424 1.7664393 -0.43346593
0.56662524 1.8450092 -0.45372528
0.57968456 1.8470684 -0.45510659
0.58387381 1.8212374 -0.44958133
0.60139859 1.8370413 -0.45441592
0.62963021 1.8840774 -0.467078
0.63677967 1.8672844 -0.46385494
0.65270329 1.876209 -0.467078
0.66257566 1.8675834 -0.46592692
0.64720166 1.7893618 -0.44727913
0.65884227 1.787183 -0.44773954
0.66979581 1.7831068 -0.44773954
0.681072 1.7798723 -0.44796976
0.69056636 1.7720331 -0.4470489
0.70034927 1.7650491 -0.44635823
0.71189535 1.7625231 -0.44681868
0.72380692 1.7608218 -0.44750935
0.73196816 1.7500635 -0.44589779
0.74612266 1.7535979 -0.44796976
0.75532204 1.7454145 -0.4470489
0.76562542 1.7398565 -0.44681868
0.78145462 1.746673 -0.44981152
0.79336625 1.7445024 -0.45050219
0.80609739 1.7440181 -0.4516533
0.82009387 1.7460853 -0.45349506
0.82785767 1.7348729 -0.45188349
0.83593953 1.7245069 -0.45050219
0.85123473 1.7289482 -0.45303461
0.87271023 1.7454512 -0.45879009
0.8900134 1.7530783 -0.46224338
0.91903776 1.7830467 -0.4716824
0.94891399 1.8135859 -0.48135161
0.96915489 1.8249173 -0.48595601
0.98679942 1.8309284 -0.48917907
1.0064222 1.8402064 -0.49332303
1.0899539 1.9641767 -0.52854663
1.033226 1.8353488 -0.495395
1.0135759 1.7748952 -0.48066095
0.98932111 1.7080175 -0.46408513
1.0525361 1.7916884 -0.48871863
1.1501899 1.9306542 -0.52877682
1.164531 1.9277247 -0.52992797
1.149393 1.8765644 -0.5177263
1.0155755 1.6355339 -0.45257416
0.98151702 1.5592754 -0.43300551
0.98425967 1.5425599 -0.43001264
1.0217215 1.5797957 -0.44221428
1.0377989 1.5832624 -0.44497693
1.0464169 1.5752437 -0.44451648
1.0544322 1.5663719 -0.44382581
1.061281 1.5558534 -0.44267473
1.0641665 1.5397066 -0.43991208
1.0641028 1.5195981 -0.43599835
1.068338 1.5058978 -0.43392637
1.0758539 1.4969438 -0.43323573
1.0947578 1.5036871 -0.43714947
1.0976089 1.4883274 -0.43461704
1.1177878 1.496376 -0.43899122
1.1357573 1.5011287 -0.4424445
1.1431707 1.4918145 -0.44175383
1.1594638 1.4939964 -0.44451648
1.1734205 1.492974 -0.44635823
1.1752856 1.4766102 -0.44359559
1.8030577 2.2368014 -0.67680806
1.790285 2.1932817 -0.66690862
1.8130097 2.1935058 -0.67036188
1.8233113 2.1786091 -0.66921079
1.8611836 2.1963325 -0.67818934
1.8746251 2.1848712 -0.67818934
1.8975699 2.1843464 -0.68164265
1.9225067 2.1858139 -0.6857866
1.9300573 2.1674361 -0.68371463
1.9276799 2.1382077 -0.67818934
1.9486365 2.1349638 -0.68095201
1.9570763 2.1179643 -0.67934042
1.9813379 2.1179962 -0.68325418
1.99965 2.1114511 -0.68509597
2.028733 2.1159987 -0.6906212
2.0525236 2.1146829 -0.6943047
2.1152544 2.1527157 -0.71111077
2.1119509 2.1231394 -0.70558548
2.1069837 2.0923142 -0.6995998
2.0968547 2.0568607 -0.69200253
2.1115327 2.0459871 -0.69269317
2.1479516 2.0558681 -0.70052063
2.1569898 2.0393074 -0.69936955
2.1943569 2.0492787 -0.70742726
2.2290654 2.0562286 -0.71456403
2.256747 2.0562749 -0.71939868
2.2780023 2.0502002 -0.72216129
2.2992678 2.043942 -0.72492391
2.2898262 2.0105355 -0.71801734
2.2800622 1.9773221 -0.71111077
2.2640646 1.9392414 -0.70236242
2.2989542 1.9447942 -0.70949924
2.3145783 1.933771 -0.71065032
2.3346574 1.9263445 -0.71318275
2.3562412 1.9199735 -0.71617556
2.3596373 1.8987697 -0.71364319
2.3681955 1.8818341 -0.7127223
2.3781667 1.8660663 -0.71226186
2.3864944 1.8490553 -0.71134096
2.4248486 1.8550699 -0.71939868
2.4827793 1.8753444 -0.73321182
2.5238853 1.8821794 -0.74196017
2.5361702 1.8672346 -0.74219042
2.545218 1.8499215 -0.74149972
2.5865684 1.8558242 -0.75024807
2.6145849 1.8517283 -0.75508267
2.6657789 1.8635249 -0.76659369
2.6827705 1.851001 -0.76820523
2.6972952 1.8366957 -0.76912612
2.7165916 1.8255379 -0.77142829
2.7358525 1.8142122 -0.77373046
2.740418 1.7931292 -0.77188873
2.7603624 1.7820859 -0.77442116
2.7827365 1.772433 -0.77764422
2.7795513 1.7465248 -0.77373046
2.8026233 1.737126 -0.77718377
2.7924716 1.7072085 -0.77142829
2.7987273 1.68753 -0.7702772
2.8282678 1.6817635 -0.77557224
2.8578427 1.6756976 -0.78086728
2.8082519 1.6235539 -0.76452172
2.8291523 1.6125557 -0.76751453
2.8339031 1.5923063 -0.76613325
2.866606 1.5876158 -0.77234918
2.9249837 1.5965687 -0.78547168
2.934725 1.5785912 -0.78547168
2.930598 1.5532639 -0.78178817
2.9435241 1.5370544 -0.78270906
2.9477074 1.5162939 -0.78132772
2.9387255 1.4889438 -0.77649313
2.9295194 1.4617614 -0.77165848
2.921838 1.4356064 -0.76728433
2.9340961 1.4193461 -0.76820523
2.9392352 1.3996428 -0.76728433
2.9460056 1.3807558 -0.76682389
2.9332132 1.3528734 -0.7612986
2.9113283 1.3211797 -0.75347114
2.984251 1.332245 -0.7702772
2.9763305 1.3068678 -0.76613325
3.0048425 1.2974517 -0.77142829
3.0243921 1.2839326 -0.77442116
3.0286207 1.2638522 -0.77350026
3.0255139 1.240815 -0.77073765
3.026752 1.219682 -0.76912612
3.0287497 1.1989386 -0.76774478
3.0215368 1.1746913 -0.76406127
3.0477803 1.1634158 -0.76889586
3.0493939 1.1426448 -0.76751453
2.9988053 1.1027577 -0.75301069
1.5728936 0.5676077 -0.39271706
1.5754294 0.55762136 -0.39248687
1.5714661 0.54539281 -0.39064509
1.5674123 0.53323406 -0.38880333
1.5660384 0.5220685 -0.38765225
1.5636616 0.510638 -0.38627094
1.5537882 0.49688631 -0.38304785
1.5828127 0.49547893 -0.389494
1.6062943 0.49202466 -0.39455885
1.5925027 0.4771347 -0.39041489
1.5935324 0.46680745 -0.38995445
1.6216279 0.46424851 -0.39617038
1.5841454 0.44302616 -0.38627094
3.1471391 0.85907882 -0.76889586
3.1053329 0.82723111 -0.7573849
3.0114522 0.78247374 -0.73321182
1.5869937 0.40210494 -0.38442916
1.5809278 0.39026213 -0.38235718
1.5738304 0.37828174 -0.38005501
1.5742266 0.36817485 -0.37959456
1.5679156 0.35656789 -0.37752259
1.5643724 0.34568176 -0.37614128
1.5579003 0.33424065 -0.3740693
1.5599219 0.32467526 -0.3740693
1.5637926 0.3154822 -0.37452972
1.5676091 0.30625388 -0.37499017
1.5732837 0.29735172 -0.37591106
1.576036 0.28786731 -0.37614128
1.586398 0.27971086 -0.37821326
3.1739757 0.53929955 -0.75876623
3.1685815 0.51840085 -0.75669426
3.1543989 0.4962284 -0.7525503
3.1506486 0.47584733 -0.75093871
3.1968489 0.46277657 -0.7612986
3.20734 0.4442198 -0.76314038
3.2003577 0.42325649 -0.76083821
3.1971016 0.40288195 -0.75945687
3.2033782 0.38371995 -0.76037776
3.1843998 0.36164311 -0.75531292
3.2146192 0.34510726 -0.7619893
3.2263582 0.32635477 -0.76429147
3.2515507 0.30875799 -0.76981676
3.2407827 0.28768346 -0.76682389
3.2250297 0.26635265 -0.76267993
3.2013752 0.24463353 -0.75669426
3.218348 0.22607544 -0.76037776
3.2216167 0.20644806 -0.76083821
3.2092216 0.18589 -0.75761509
3.2190485 0.16664717 -0.75968707
3.2044563 0.14618406 -0.75600356
3.2150168 0.12690213 -0.75830579
3.1972556 0.10655844 -0.75393158
3.1793664 0.086437508 -0.74955744
3.1720533 0.066764489 -0.74771565
3.1733766 0.047314305 -0.7479459
3.1784725 0.027884215 -0.74909699
2.9341111 0.0079453578 -0.7545861
2.9457233 -0.010095485 -0.7575866
2.9427013 -0.02814276 -0.75683647
2.9114935 -0.045718566 -0.74883515
2.9072864 -0.063498572 -0.74783498
2.9165206 -0.081604853 -0.7503354
2.9440277 -0.10045023 -0.7575866
2.9404535 -0.1183963 -0.75683647
2.9251635 -0.13576613 -0.75308585
2.8768969 -0.15123188 -0.74083382
2.9232774 -0.17165217 -0.75308585
2.9096081 -0.18877363 -0.74983531
2.8861814 -0.20504978 -0.74408436
2.8887305 -0.22305253 -0.74508452
2.8940616 -0.241335 -0.74683481
2.8886688 -0.25874341 -0.74583465
2.8581114 -0.27370048 -0.7383334
2.8708272 -0.29270235 -0.74208403
2.8641639 -0.30979237 -0.74083382
2.8458555 -0.3254939 -0.73658311
2.8524563 -0.34399104 -0.73883349
2.8416467 -0.36039242 -0.73658311
2.8624172 -0.3808817 -0.74258411
2.8830423 -0.40163925 -0.7485851
2.8651931 -0.4170934 -0.74458444
2.8616226 -0.43452087 -0.7443344
2.8560333 -0.45161825 -0.74358428
2.8522532 -0.46897715 -0.74333423
2.8512309 -0.48679495 -0.74383432
2.826261 -0.50040293 -0.73808336
2.5098007 -0.46034363 -0.65581954
1.750643 -0.33241013 -0.45703608
1.7590224 -0.34519288 -0.45978656
1.7635144 -0.35732317 -0.46153685
1.7641321 -0.36873043 -0.46228698
1.7713023 -0.38158378 -0.46478739
1.7745996 -0.39370134 -0.46628764
1.7693185 -0.40393716 -0.46553752
1.7677492 -0.41500685 -0.46578756
1.7614043 -0.42493877 -0.46478739
1.7521845 -0.43411094 -0.4630371
2.5715766 -0.65358543 -0.68207395
2.7652202 -0.72084272 -0.73483276
2.7570033 -0.73679709 -0.7338326
2.7533643 -0.75395542 -0.73408264
2.7542803 -0.77240294 -0.73558295
2.7271521 -0.7828815 -0.72958189
2.7120776 -0.796601 -0.72683144
2.7145576 -0.81545383 -0.72883177
2.7085774 -0.83181065 -0.72858173
2.7274432 -0.85594708 -0.73508281
2.7221398 -0.87266624 -0.73508281
2.7369795 -0.89597511 -0.74058378
2.7139812 -0.90692538 -0.73583299
2.6827037 -0.91481662 -0.72883177
2.7017329 -0.93984389 -0.73558295
2.6849642 -0.95252144 -0.73258239
2.5552297 -0.92421848 -0.69857669
1.5964452 -0.58878303 -0.4362826
1.5837376 -0.5951649 -0.43378219
1.5836735 -0.60625458 -0.43478236
1.5772171 -0.61490631 -0.43403223
1.568014 -0.62243098 -0.43253198
1.5722461 -0.63530213 -0.43478236
1.5656315 -0.64383352 -0.43403223
1.5589714 -0.65230781 -0.43328211
1.5611769 -0.66451323 -0.4350324
1.554404 -0.6729269 -0.43428227
1.5520184 -0.68323153 -0.43478236
2.3919261 -1.0701675 -0.67357248
2.5545557 -1.1617442 -0.72158056
2.5649588 -1.1855174 -0.72658139
2.5462422 -1.1958851 -0.72333086
2.543226 -1.2135699 -0.72458106
2.5244043 -1.2236642 -0.72133052
2.5142422 -1.2378482 -0.7205804
2.503135 -1.2515208 -0.71958023
2.4954088 -1.2668561 -0.71958023
2.4841454 -1.2803702 -0.71858007
2.4788165 -1.2969346 -0.71933019
2.4588387 -1.3057649 -0.71582961
2.4277644 -1.3084301 -0.70907849
2.412044 -1.3191226 -0.70682806
2.4386208 -1.3531508 -0.71707982
2.4294283 -1.3676138 -0.71682978
2.411741 -1.3772153 -0.71407932
2.3672132 -1.3711284 -0.70332748
2.3570859 -1.384647 -0.70282739
2.3735034 -1.4139441 -0.7103287
2.3548365 -1.4224758 -0.70732814
2.3584509 -1.4444807 -0.71107882
2.3487206 -1.4584142 -0.71082878
2.3561182 -1.4831104 -0.71582961
2.3330958 -1.4886886 -0.71157891
2.3222914 -1.5019249 -0.71107882
2.303313 -1.5097786 -0.70807827
2.2843263 -1.5174563 -0.70507777
2.2846124 -1.5379301 -0.70807827
2.2695329 -1.5481013 -0.70632797
2.2631776 -1.5641991 -0.70732814
2.2384655 -1.5675075 -0.70257735
2.2295954 -1.581773 -0.70282739
2.2151296 -1.5920345 -0.70132715
2.2084508 -1.6078751 -0.70232731
2.1977642 -1.6208211 -0.70207727
2.1901052 -1.6360136 -0.70282739
2.1715305 -1.6429968 -0.70007694
2.1721699 -1.6645327 -0.70357752
2.1642108 -1.6796099 -0.70432764
2.1294997 -1.6737171 -0.69632632
2.1229784 -1.6897659 -0.69757652
2.1140783 -1.7039753 -0.69807661
2.1065841 -1.7193633 -0.69907677
2.1027129 -1.7378064 -0.70132715
2.0942383 -1.7525394 -0.70207727
2.0509357 -1.7378231 -0.69107544
2.0424392 -1.7522656 -0.69182557
2.0360358 -1.7685733 -0.69332582
2.0215096 -1.7778367 -0.69207561
2.0141795 -1.7934254 -0.69332582
2.0060146 -1.8083429 -0.69432598
1.9877278 -1.8140923 -0.69182557
1.9815383 -1.830853 -0.69357586
1.96178 -1.835042 -0.69057536
1.9568121 -1.8530349 -0.69282573
1.9496 -1.8690262 -0.69432598
1.938095 -1.8809534 -0.69432598
1.9216816 -1.888061 -0.69257569
1.9038806 -1.8936731 -0.69032532
1.8881308 -1.9011981 -0.68882507
1.8784643 -1.9148208 -0.6895752
1.8673538 -1.927006 -0.68982524
1.8521463 -1.9349312 -0.68857503
1.8329197 -1.9385221 -0.68582457
1.8130581 -1.9412427 -0.68282408
1.807023 -1.9587344 -0.68507445
1.8243248 -2.0019832 -0.69632632
1.8120067 -2.0131395 -0.69632632
1.774524 -1.9960047 -0.6865747
1.7545748 -1.9981267 -0.6835742
1.7517999 -2.0198245 -0.68732482
1.7475644 -2.0400927 -0.69057536
1.7400181 -2.0566893 -0.69257569
1.7459956 -2.089613 -0.70007694
1.718347 -2.0823672 -0.69407594
1.6890178 -2.0726101 -0.68732482
1.679912 -2.0874598 -0.68882507
1.6893675 -2.1257696 -0.69807661
1.663138 -2.1193409 -0.69257569
1.6459501 -2.1241493 -0.6908254
1.6317085 -2.1326711 -0.69032532
1.6285166 -2.1557744 -0.69457603
1.6210487 -2.1734862 -0.69707644
1.5921766 -2.1623442 -0.69032532
1.5783091 -2.1712899 -0.69007528
1.5689094 -2.186439 -0.69182557
1.555464 -2.1960247 -0.69182557
1.5391853 -2.2015603 -0.69057536
1.5289484 -2.215744 -0.69207561
1.514779 -2.2242835 -0.69182557
1.4967804 -2.2271082 -0.68982524
1.4905815 -2.2475452 -0.69332582
1.4725198 -2.2501688 -0.69132549
1.4723455 -2.2803071 -0.69782656
1.4583261 -2.2892983 -0.69782656
1.4473439 -2.3031213 -0.69932681
1.4285921 -2.3045535 -0.69707644
1.400277 -2.2901495 -0.69007528
1.3776952 -2.2846048 -0.68582457
1.3567197 -2.2813661 -0.68232399
1.3608254 -2.3205466 -0.69157553
1.3485007 -2.3322051 -0.69257569
1.3298478 -2.332866 -0.69032532
1.3193048 -2.3477335 -0.69232565
1.3053439 -2.3566313 -0.69257569
1.2922518 -2.3671458 -0.69332582
1.2731137 -2.3665047 -0.6908254
1.264467 -2.3853915 -0.69407594
1.2511519 -2.3956795 -0.69482607
1.2244638 -2.3800681 -0.68807495
1.1958256 -2.3599019 -0.68007356
1.1951646 -2.3949149 -0.68807495
1.1740388 -2.3891697 -0.68432432
1.1576694 -2.3928425 -0.68332416
1.1467142 -2.4077675 -0.68557453
1.1282184 -2.4068687 -0.68332416
1.1109942 -2.4084716 -0.68182391
1.100199 -2.4240589 -0.68432432
1.090044 -2.4413722 -0.68732482
1.0766015 -2.4515603 -0.68832499
1.0534731 -2.4394553 -0.68307412
1.0350776 -2.4378531 -0.68082368
1.0197265 -2.443265 -0.68057364
1.0047158 -2.4494758 -0.68057364
0.98821855 -2.4520028 -0.67957348
0.98421037 -2.4859252 -0.68732482
0.96788514 -2.4892104 -0.6865747
0.95466685 -2.5005291 -0.68807495
0.92978579 -2.4809556 -0.68107373
0.9272539 -2.5211425 -0.69057536
0.90551883 -2.5094817 -0.68582457
0.88331544 -2.4958243 -0.68057364
0.86989069 -2.5066853 -0.68207395
0.85168529 -2.5037265 -0.67982352
0.8360002 -2.5079865 -0.67957348
0.81999427 -2.5112283 -0.67907339
0.80811155 -2.5272784 -0.68207395
0.78911591 -2.5211017 -0.67907339
0.77533448 -2.5314505 -0.68057364
0.76228994 -2.5445073 -0.68282408
0.74366653 -2.5389161 -0.68007356
0.73100758 -2.5536702 -0.68282408
0.71662962 -2.5627694 -0.68407428
0.70293319 -2.5745904 -0.68607461
0.69161367 -2.5956945 -0.69057536
0.67543 -2.5989523 -0.69032532
0.65732831 -2.5946009 -0.68807495
0.63675094 -2.5797861 -0.68307412
0.61932439 -2.5770547 -0.68132377
0.60041052 -2.5676081 -0.67782319
0.5844298 -2.5702996 -0.67757314
0.56551111 -2.5596564 -0.67382252
0.54938811 -2.5611849 -0.67332244
0.53701997 -2.5806217 -0.67757314
0.5184921 -2.570581 -0.67407256
0.51274502 -2.6250267 -0.68757486
0.49014819 -2.5938747 -0.67857331
0.47579077 -2.6054053 -0.68082368
0.45811212 -2.5987408 -0.67832327
0.44280782 -2.6053207 -0.67932343
0.42430782 -2.592701 -0.67532277
0.40703464 -2.5866477 -0.6730724
0.39231461 -2.5967553 -0.67507273
0.37581784 -2.5952809 -0.67407256
0.35935399 -2.5937016 -0.6730724
0.34254199 -2.589139 -0.67132211
0.32677022 -2.5921526 -0.67157215
0.31201327 -2.6037221 -0.67407256
0.29625031 -2.6075115 -0.67457265
0.27993447 -2.6063924 -0.67382252
0.26510933 -2.6196203 -0.67682302
0.24857159 -2.6163783 -0.67557281
0.23062351 -2.5966372 -0.6700719
0.21396676 -2.589319 -0.66782153
0.19911166 -2.6040986 -0.67132211
0.18381071 -2.6149297 -0.67382252
0.16745137 -2.6111772 -0.67257231
0.15249541 -2.6305208 -0.6773231
0.1346909 -2.5994985 -0.66907173
0.11864933 -2.5983415 -0.66857165
0.1031271 -2.609663 -0.67132211
0.087633044 -2.6257296 -0.67532277
0.071307495 -2.618475 -0.67332244
0.055549271 -2.6333833 -0.67707306
0.038845744 -2.5978541 -0.66782153
0.022931194 -2.6009481 -0.66857165
0.0070763761 -2.6368644 -0.67782319
-0.0091001419 -2.6358898 -0.67757314
-0.025137717 -2.6212614 -0.67382252
-0.041655768 -2.6491334 -0.68107373
-0.057930693 -2.649796 -0.68132377
-0.073624149 -2.6290655 -0.6760729
-0.089262269 -2.6140492 -0.67232227
-0.10638499 -2.6405411 -0.67932343
-0.12160204 -2.6185601 -0.67382252
-0.13903356 -2.6438713 -0.68057364
-0.153557 -2.613971 -0.6730724
-0.16884342 -2.6013849 -0.6700719
-0.18500724 -2.6031973 -0.67082202
-0.20134833 -2.6068401 -0.67207223
-0.21838309 -2.6180992 -0.67532277
-0.23142734 -2.5829563 -0.66657132
-0.24754797 -2.5843792 -0.66732144
-0.26585072 -2.6068931 -0.67357248
-0.28132179 -2.6003997 -0.67232227
-0.29650357 -2.5918908 -0.67057198
-0.31205437 -2.5871387 -0.66982186
-0.32755807 -2.5822935 -0.66907173
-0.34492657 -2.5917525 -0.67207223
-0.36202323 -2.5982184 -0.67432261
-0.3793515 -2.60553 -0.67682302
-0.39489612 -2.6002812 -0.6760729
-0.40903154 -2.5863328 -0.6730724
-0.42410886 -2.5789971 -0.67182219
-0.44041356 -2.5792096 -0.67257231
-0.45842272 -2.5888536 -0.67582285
-0.47464788 -2.5878968 -0.67632294
-0.49159965 -2.5906434 -0.67782319
-0.50860298 -2.5932794 -0.67932343
-0.52488935 -2.5920079 -0.67982352
-0.53663075 -2.5688341 -0.67457265
-0.54892194 -2.549401 -0.67032194
-0.57230145 -2.5809619 -0.67957348
-0.59156996 -2.5925062 -0.6835742
-0.60547751 -2.5803432 -0.68132377
-0.63308942 -2.6255279 -0.69432598
-0.63593411 -2.5680194 -0.68007356
-0.6490581 -2.553746 -0.6773231
-0.66861993 -2.564707 -0.68132377
-0.68084717 -2.5474596 -0.67782319
-0.700809 -2.5591106 -0.68207395
-0.70944482 -2.5295897 -0.67532277
-0.72548664 -2.5270503 -0.67582285
-0.74288726 -2.5290546 -0.67757314
-0.75421596 -2.5105383 -0.67382252
-0.7772752 -2.5308554 -0.68057364
-0.78757477 -2.5094087 -0.6760729
-0.80295742 -2.504529 -0.6760729
-0.81861079 -2.5004752 -0.67632294
-0.8327114 -2.4917316 -0.67532277
-0.84298784 -2.4719117 -0.67132211
-0.84955567 -2.4419997 -0.66457099
-0.86161178 -2.4285276 -0.66232061
-0.87452203 -2.4177315 -0.66082036
-0.8896752 -2.4132288 -0.66107041
-0.90548652 -2.4104438 -0.66182053
-0.92164296 -2.4084599 -0.6628207
-0.93394405 -2.3964438 -0.66107041
-0.95041525 -2.3951685 -0.66232061
-0.96219462 -2.3821089 -0.66032028
-0.98157567 -2.3878031 -0.66357082
-0.99583513 -2.380842 -0.66332078
-1.0108038 -2.3755779 -0.66357082
-1.0242079 -2.3666649 -0.6628207
-1.0511832 -2.3886981 -0.67082202
-1.0646347 -2.3795514 -0.6700719
-1.0788146 -2.3720927 -0.66982186
-1.0965974 -2.3724604 -0.67182219
-1.1156595 -2.3753285 -0.67457265
-1.1277125 -2.3631945 -0.6730724
-1.1341709 -2.3396747 -0.66832161
-1.1450858 -2.3257213 -0.66632128
-1.1623641 -2.3247142 -0.66807157
-1.1774826 -2.3192654 -0.66857165
-1.185927 -2.300807 -0.66532111
-1.1977789 -2.289197 -0.6640709
-1.22769 -2.3117378 -0.67282236
-1.2381781 -2.2973418 -0.67082202
-1.2508578 -2.2871523 -0.6700719
-1.2667464 -2.2828212 -0.67107207
-1.2802548 -2.2741618 -0.67082202
-1.2927449 -2.2637408 -0.6700719
-1.3046702 -2.2524142 -0.66907173
-1.3292513 -2.2627356 -0.67457265
-1.3465776 -2.2603605 -0.67632294
-1.3594207 -2.2503977 -0.67582285
-1.3615763 -2.2230208 -0.6700719
-1.3767227 -2.2170925 -0.67082202
-1.3887538 -2.2061446 -0.6700719
-1.3970579 -2.1894186 -0.66757149
-1.4178244 -2.192189 -0.67107207
-1.4354936 -2.1899273 -0.6730724
-1.4596151 -2.1972106 -0.67807323
-1.4736099 -2.1890166 -0.67832327
-1.4853776 -2.1775336 -0.67757314
-1.5003616 -2.1707683 -0.67832327
-1.5086561 -2.1543822 -0.6760729
-1.5268873 -2.1521931 -0.67832327
-1.5423238 -2.1459293 -0.67932343
-1.5497649 -2.1285965 -0.67682302
-1.5673926 -2.1252823 -0.67882335
-1.5896719 -2.1280382 -0.68282408
-1.5904348 -2.1020265 -0.67757314
-1.5962377 -2.0830042 -0.67457265
-1.6155168 -2.0815861 -0.6773231
-1.6282587 -2.0716343 -0.6773231
-1.6421449 -2.0631199 -0.67782319
-1.6438391 -2.0394332 -0.67332244
-1.6648908 -2.0398118 -0.67682302
-1.6835418 -2.0370228 -0.67932343
-1.6866909 -2.0155141 -0.67557281
-1.6802535 -1.9829612 -0.66807157
-1.689868 -1.969674 -0.6670714
-1.7044609 -1.9621925 -0.66807157
-1.7330891 -1.9706049 -0.67457265
-1.7387108 -1.952701 -0.67207223
-1.7590853 -1.9513468 -0.67532277
-1.7762457 -1.946239 -0.6773231
-1.7855265 -1.9324583 -0.67632294
-1.8112367 -1.9363186 -0.68157387
-1.8244147 -1.9265751 -0.68207395
-1.8147653 -1.8929734 -0.67407256
-1.8492678 -1.9054314 -0.68257403
-1.8446425 -1.8774692 -0.67657298
-1.8588583 -1.8688618 -0.67757314
-1.8812798 -1.8683399 -0.68157387
-1.8692138 -1.8337021 -0.6730724
-1.8790398 -1.8208504 -0.67257231
-1.897869 -1.816653 -0.67532277
-1.9230478 -1.8182814 -0.6803236
-1.9355831 -1.8077697 -0.68082368
-1.9423701 -1.7919189 -0.67932343
-1.9547595 -1.7812716 -0.67982352
-1.9527013 -1.7575815 -0.67532277
-1.9562143 -1.7391319 -0.67282236
-1.9719404 -1.7315693 -0.67457265
-1.9876471 -1.7238791 -0.67632294
-2.0055389 -1.7179513 -0.67882335
-2.0234327 -1.7118686 -0.68132377
-2.0227556 -1.6901059 -0.67757314
-2.0308478 -1.6758136 -0.67682302
-2.0455949 -1.6669918 -0.67832327
-2.0557847 -1.6544088 -0.67832327
-2.0727181 -1.647187 -0.68057364
-2.0896401 -1.6398191 -0.68282408
-2.0973668 -1.6251869 -0.68207395
-2.1196008 -1.6217035 -0.68607461
-2.080848 -1.5718881 -0.67032194
-2.09899 -1.5654601 -0.6730724
-2.1264853 -1.5657599 -0.67882335
-2.1391847 -1.5549604 -0.67982352
-2.1652029 -1.5536634 -0.68507445
-2.1588955 -1.529152 -0.68007356
-2.1872792 -1.5291959 -0.68607461
-2.1774979 -1.5025439 -0.68007356
-2.1794751 -1.4842482 -0.67782319
-2.2030039 -1.4805721 -0.68232399
-2.1918774 -1.4536436 -0.6760729
-2.205616 -1.4433492 -0.67757314
-2.2323229 -1.4413474 -0.68307412
-2.2182629 -1.413052 -0.6760729
-2.2236128 -1.3973527 -0.67507273
-2.2403731 -1.3887861 -0.67757314
-2.253808 -1.3780448 -0.67907339
-2.2589052 -1.3621891 -0.67807323
-2.3071604 -1.3720679 -0.69007528
-2.3222167 -1.3618054 -0.69207561
-2.3255002 -1.3446219 -0.69057536
-2.3227732 -1.3240913 -0.68732482
-2.3249462 -1.3064924 -0.68557453
-2.3413875 -1.2968957 -0.68807495
-2.3450525 -1.2801841 -0.68682474
-2.3341069 -1.255675 -0.68132377
-2.3357801 -1.2381537 -0.67957348
-2.3562052 -1.2305247 -0.68332416
-2.3619897 -1.2151577 -0.68282408
-2.3797641 -1.2058963 -0.68582457
-2.3931823 -1.1942995 -0.68757486
-2.4022031 -1.1804471 -0.68807495
-2.4041719 -1.163154 -0.6865747
-2.4156339 -1.150463 -0.6878249
-2.4130049 -1.1310965 -0.68507445
-2.4286909 -1.120327 -0.68757486
-2.4152431 -1.0961952 -0.68182391
-2.4413722 -1.090044 -0.68732482
-2.4240811 -1.0645263 -0.68057364
-2.4279008 -1.0484802 -0.67982352
-2.4467645 -1.0388638 -0.68332416
-2.4602404 -1.0268162 -0.68532449
-2.4682858 -1.0124365 -0.68582457
-2.4520028 -0.98821855 -0.67957348
-2.4472182 -0.96887517 -0.67657298
-2.4693592 -0.96016091 -0.68107373
-2.4625413 -0.94015336 -0.67757314
-2.5009003 -0.93726587 -0.6865747
-2.5156908 -0.92524731 -0.68907511
-2.5204098 -0.90946507 -0.68882507
-2.539633 -0.89883184 -0.69257569
-2.5432711 -0.88259679 -0.69207561
-2.5339735 -0.86198241 -0.68807495
-2.531867 -0.84396672 -0.68607461
-2.5710502 -0.83954388 -0.69532615
-2.5816863 -0.82552302 -0.6968264
-2.5682237 -0.80387765 -0.69182557
-2.5545936 -0.78242874 -0.68682474
-2.5751128 -0.77146679 -0.69107544
-2.5825853 -0.75646883 -0.69182557
-2.5815935 -0.73900807 -0.69032532
-2.5972683 -0.72628546 -0.69332582
-2.5970061 -0.709059 -0.69207561
-2.5938234 -0.69111466 -0.69007528
-2.613945 -0.67933017 -0.69432598
-2.6227567 -0.66446853 -0.69557619
-2.6371243 -0.65091777 -0.69832665
-2.6467166 -0.6360833 -0.6998269
-2.6609402 -0.62225896 -0.70257735
-2.6609318 -0.6050604 -0.70157719
-2.6608126 -0.58788544 -0.70057702
-2.6596365 -0.57053143 -0.69932681
-2.648869 -0.55123913 -0.69557619
-2.6341691 -0.53133392 -0.6908254
-2.6354792 -0.51478922 -0.69032532
-2.6071937 -0.4926683 -0.68207395
-2.6282637 -0.47997075 -0.68682474
-2.6216245 -0.4621518 -0.68432432
-2.6234565 -0.44589466 -0.68407428
-2.6299648 -0.43041545 -0.68507445
-2.6526413 -0.41743574 -0.69032532
-2.6752567 -0.40419385 -0.69557619
-2.6805613 -0.38818812 -0.69632632
-2.7020733 -0.37439543 -0.70132715
-2.6870427 -0.35551873 -0.6968264
-2.6853311 -0.33853933 -0.69582623
-2.6815898 -0.32136348 -0.69432598
-2.6950552 -0.30621791 -0.69732648
-2.6988089 -0.28988287 -0.69782656
-2.6889772 -0.27214518 -0.69482607
-2.6905966 -0.25564077 -0.69482607
-2.6959722 -0.23947036 -0.69582623
-2.7157245 -0.22444315 -0.70057702
-2.6929154 -0.2059243 -0.69432598
-2.6854358 -0.18878387 -0.69207561
-2.6894422 -0.17248939 -0.69282573
-2.7107487 -0.15716566 -0.69807661
-2.7155297 -0.1407312 -0.69907677
-2.7211781 -0.1242884 -0.70032698
-2.7286618 -0.10785849 -0.70207727
-2.7244337 -0.090951055 -0.70082706
-2.7346191 -0.074498445 -0.70332748
-2.7263126 -0.057531867 -0.7010771
-2.7227418 -0.040743593 -0.70007694
-2.7190678 -0.024001312 -0.69907677
-2.7172275 -0.0073113129 -0.69857669
-2.7181895 0.0093645295 -0.69882673
-2.719049 0.026051901 -0.69907677
-2.7256148 0.042840127 -0.70082706
-2.7117486 0.059270333 -0.69732648
-2.710366 0.075881317 -0.69707644
-2.7243645 0.093002521 -0.70082706
-2.7295473 0.10994963 -0.70232731
-2.7201164 0.12629361 -0.70007694
-2.7802057 0.14617033 -0.71582961
-2.7328606 0.16051234 -0.70382756
-2.7231283 0.17671554 -0.70157719
-2.7490356 0.19533633 -0.70857841
-2.7371662 0.21138281 -0.70582789
-2.7358174 0.22817376 -0.70582789
-2.7440097 0.24581783 -0.70832831
-2.7144983 0.25997964 -0.7010771
-2.7138155 0.27672857 -0.70132715
-2.704365 0.29254377 -0.69932681
-2.7333028 0.31264591 -0.70732814
-2.7342169 0.32975841 -0.70807827
-2.7177336 0.3447049 -0.70432764
-2.741482 0.36481664 -0.71107882
-2.739192 0.38163117 -0.71107882
-2.7339244 0.39801353 -0.7103287
-2.7352598 0.41536167 -0.71132886
-2.713532 0.42911676 -0.70632797
-2.7022491 0.44434667 -0.7040776
-2.7214241 0.46466208 -0.70982862
-2.7128012 0.48034009 -0.70832831
-2.7145648 0.49784869 -0.70957857
-2.6886277 0.51016879 -0.70357752
-2.6882973 0.52721465 -0.70432764
-2.7106352 0.54888225 -0.71107882
-2.7024772 0.56451523 -0.70982862
-2.7122147 0.58393675 -0.7133292
-2.6991274 0.59847379 -0.71082878
-2.6878524 0.61330265 -0.70882845
-2.6981788 0.63309795 -0.71257907
-2.6575325 0.64079875 -0.70282739
-2.6535506 0.65709299 -0.70282739
-2.6916993 0.68408501 -0.71407932
-2.6874511 0.70058805 -0.71407932
-2.7036819 0.72255981 -0.71958023
-2.6683784 0.73070383 -0.71132886
-2.6573184 0.74523431 -0.70957857
-2.6666563 0.76552957 -0.7133292
-2.6526184 0.77915084 -0.71082878
-2.6310952 0.790402 -0.70632797
-2.6224933 0.80539501 -0.70532781
-2.6221213 0.82291979 -0.70657802
-2.6363864 0.84519625 -0.71182895
-2.6458747 0.86617333 -0.71582961
-2.635 0.88055182 -0.71432936
-2.6185496 0.89295566 -0.71132886
-2.5837555 0.89883268 -0.70332748
-2.5763664 0.91402233 -0.70282739
-2.6034906 0.9416616 -0.71182895
-2.6076579 0.96130025 -0.7145794
-2.6116815 0.98102534 -0.71732986
-2.6047084 0.99668604 -0.71707982
-2.5931306 1.0105412 -0.71557957
-2.5814807 1.024292 -0.71407932
-2.491647 1.0064085 -0.6908254
-2.4863205 1.0220459 -0.69107544
-2.5514693 1.0671544 -0.71107882
-2.5234888 1.0736967 -0.70507777
-2.5239627 1.0922351 -0.7070781
-2.510123 1.104583 -0.70507777
-2.503298 1.1199641 -0.70507777
-2.4963789 1.1353029 -0.70507777
-2.5130985 1.1615618 -0.71182895
-2.505924 1.17696 -0.71182895
-2.4951594 1.1906468 -0.71082878
-2.4834499 1.2038237 -0.70957857
-2.4803605 1.2211766 -0.71082878
-2.5014029 1.2506552 -0.71908015
-2.4790032 1.2585322 -0.71482944
-2.4299185 1.2524363 -0.70282739
-2.4487863 1.2812312 -0.71057874
-2.4596939 1.3062189 -0.71607965
-2.3774707 1.2813395 -0.69432598
-2.2990468 1.2573593 -0.67357248
-2.2616527 1.2550066 -0.66482103
