# .PCD v0.7 - Point Cloud Data file format
VERSION 0.7
FIELDS x y z
SIZE 4 4 4
TYPE F F F
COUNT 1 1 1
WIDTH 1512
HEIGHT 1
VIEWPOINT 0 0 0 1 0 0 0
POINTS 1512
DATA ascii
-0.15926954 -15.795093 2.0695612
-0.25555581 -15.755154 2.0644908
-0.35062614 -15.681919 2.0551305
-0.44557038 -15.634872 2.0492802
-0.54032826 -15.598153 2.0448599
-0.62519455 -15.32904 2.0100179
-0.71826357 -15.304116 2.0072877
-0.81525606 -15.357838 2.0149581
-0.90865362 -15.33869 2.0131381
-0.99828732 -15.264557 2.0041676
-1.0889571 -15.216607 1.9987073
-1.1791528 -15.169109 1.993377
-1.2657388 -15.084521 1.9832364
-1.3550686 -15.04092 1.9785563
-1.4436259 -14.993831 1.9734859
-1.5160886 -14.794326 1.9483945
-1.6101576 -14.815303 1.9524248
-1.6919773 -14.72634 1.9420242
-1.784093 -14.730447 1.9439744
-1.8676794 -14.66611 1.936954
-1.9543513 -14.629804 1.9337038
-2.0413346 -14.597898 1.9311037
-2.1235564 -14.535062 1.9244733
-2.2065778 -14.481571 1.919143
-2.2899551 -14.433485 1.9145927
-2.3758922 -14.403509 1.9125127
-2.4546847 -14.332954 1.9051023
-2.5342619 -14.270763 1.8988619
-2.6183698 -14.236417 1.8963917
-2.6977038 -14.1782 1.8908014
-2.7769961 -14.122464 1.8856012
-2.8602438 -14.088641 1.883391
-2.9358644 -14.019392 1.8765007
-3.0136719 -13.963315 1.8714304
-3.0945597 -13.923266 1.8685702
-3.1750693 -13.882753 1.8657101
-3.2515666 -13.826332 1.8607699
-3.3295875 -13.778172 1.8569996
-3.4157381 -13.764218 1.8579097
-3.5789306 -14.052391 1.8997719
-3.7137067 -14.216274 1.9249933
-3.8755066 -14.471928 1.9628254
-4.1232276 -15.027315 2.0416098
-4.3902426 -15.624094 2.1263742
-4.5104208 -15.681668 2.1379449
-4.6199927 -15.699353 2.1441853
-4.760242 -15.816925 2.1642063
-4.9741254 -16.167435 2.2163391
-5.1796966 -16.475229 2.2628818
-5.402266 -16.82169 2.3150146
-5.6397824 -17.198059 2.3715675
-5.8795977 -17.564608 2.4270806
-6.1193104 -17.914772 2.4806435
-6.382134 -18.316011 2.5416167
-6.6740098 -18.781952 2.6119506
-6.9502225 -19.185318 2.673964
-7.2652879 -19.677137 2.748718
-7.57163 -20.125889 2.8178818
-7.9422913 -20.724367 2.9084966
-8.3032694 -21.274696 2.9928713
-8.6756849 -21.832411 3.0788059
-8.9310637 -22.07933 3.1213183
-9.0614653 -22.012197 3.1196282
-9.1856337 -21.930576 3.115988
-9.3122511 -21.855556 3.1133878
-9.4402647 -21.784359 3.1114378
-9.5569601 -21.68792 3.1059775
-9.6801262 -21.607153 3.1028574
-9.8051262 -21.531109 3.100517
-9.9191465 -21.431849 3.0949268
-10.042023 -21.352636 3.0923266
-10.171142 -21.287041 3.0918067
-10.297235 -21.215309 3.0905066
-10.421955 -21.141056 3.0889466
-10.534167 -21.042133 3.0838761
-10.658139 -20.967377 3.0824461
-10.778406 -20.885725 3.080106
-10.902676 -20.812172 3.079066
-11.02505 -20.735252 3.077636
-11.147364 -20.658487 3.0763359
-11.272483 -20.587091 3.0759459
-11.397628 -20.515804 3.0756857
-11.518914 -20.43771 3.0745158
-11.629829 -20.341682 3.0707455
-11.75343 -20.268225 3.0704856
-11.882096 -20.203419 3.0716555
-12.004823 -20.128428 3.0713956
-12.121432 -20.043358 3.0697055
-12.274249 -20.017632 3.077246
-13.566812 -21.823952 3.3678117
-13.736941 -21.798176 3.3767822
-13.929149 -21.805391 3.391083
-14.118188 -21.805239 3.4044735
-14.308291 -21.804413 3.4179943
-14.574683 -21.916008 3.449456
-14.771498 -21.919077 3.4641469
-14.962186 -21.910728 3.4772775
-15.248671 -22.038656 3.5123794
-15.472399 -22.071333 3.5326605
-15.730397 -22.148973 3.560482
-15.996877 -22.233931 3.5898638
-16.270826 -22.324457 3.6205454
-16.570038 -22.444359 3.6564274
-16.922989 -22.630503 3.70362
-17.248907 -22.77363 3.744312
-17.595318 -22.937202 3.7889044
-12.950781 -14.710928 2.5682683
-19.600164 -17.842665 3.4737673
-19.712225 -17.724718 3.4742875
-19.852488 -17.631744 3.4798777
-19.916325 -17.471024 3.4722073
-20.085346 -17.402378 3.4829979
-21.881493 -18.724762 3.7746038
-24.555586 -20.753405 4.2140274
-20.489803 -17.102791 3.4979486
-18.653351 -15.376721 3.1681209
-20.651232 -16.811876 3.4900184
-18.646681 -14.990726 3.135489
-18.49913 -14.686153 3.0954468
-21.019611 -16.477844 3.5004189
-22.708838 -17.578161 3.7638133
-19.602148 -14.981971 3.2333844
-17.891567 -13.501491 2.9373584
-21.152897 -15.759773 3.4571264
-18.134178 -13.338491 2.950099
-18.224506 -13.233378 2.951529
-22.28476 -15.973691 3.593504
-18.519079 -13.103232 2.9729803
-18.595066 -12.986516 2.9723301
-20.512861 -14.139395 3.265106
-22.511839 -15.314351 3.5684125
-18.696772 -12.55196 2.951139
-17.715405 -11.736093 2.78473
-17.742266 -11.597877 2.7777097
-20.878605 -13.465894 3.2560055
-20.965855 -13.340726 3.2567856
-22.673965 -14.232892 3.5086093
-21.286472 -13.180569 3.2812269
-22.343439 -13.646087 3.4312551
-22.125237 -13.327118 3.3851025
-22.20574 -13.190603 3.3849726
-19.105316 -11.190909 2.9016063
-19.271505 -11.129999 2.9164271
-19.156767 -10.907537 2.8888657
-19.263971 -10.812597 2.8949759
-19.809732 -10.959621 2.9668698
-19.845268 -10.820778 2.9621897
-21.055466 -11.313585 3.132499
-21.188457 -11.218045 3.1419895
-21.200626 -11.058477 3.1336689
-21.380085 -10.985734 3.1501799
-21.844307 -11.055368 3.2085531
-21.342905 -10.637622 3.1252184
-21.430027 -10.517385 3.1284688
-22.816338 -11.024542 3.3210092
-20.214388 -9.6147995 2.9334581
-20.283779 -9.4956293 2.9350181
-5.933742 -2.7337089 0.85503525
-5.9196992 -2.6833315 0.85061496
-21.28101 -9.488905 3.0535846
-5.3610516 -2.3512514 0.76598042
-5.3535266 -2.3088892 0.76286024
-5.3228631 -2.2570322 0.75648987
-5.2368536 -2.1827536 0.74231911
-5.1941786 -2.1276555 0.73438871
-5.1813807 -2.0853798 0.73074847
-5.1424427 -2.0331354 0.72346807
-5.1160007 -1.9864718 0.7180078
-5.0826955 -1.9377377 0.71163744
-5.0378432 -1.8853178 0.70370704
-5.0279093 -1.8465098 0.70071685
-4.994369 -1.7994934 0.69447649
-4.8809791 -1.7248806 0.6771856
-4.8511848 -1.6809418 0.67159528
-4.8191595 -1.6367962 0.66574496
-4.8996711 -1.6306757 0.67549551
-4.9331522 -1.6082634 0.67874569
-4.9429269 -1.5779638 0.67874569
-6.0039597 -1.876125 0.82318348
-6.0428557 -1.8476567 0.82695371
-4.7507463 -1.4208111 0.64858401
-4.6718206 -1.3660374 0.63662338
-4.6448402 -1.3272678 0.63181311
-6.2754731 -1.7515738 0.85269511
-6.3482842 -1.7299783 0.86114556
-6.4076486 -1.7039877 0.86777592
-6.4563737 -1.6745951 0.87297618
-6.4857531 -1.6398083 0.87557632
-6.4504437 -1.5888376 0.86946601
-6.4648919 -1.5503844 0.87011606
-4.3519335 -1.0155319 0.58436054
-4.3416448 -0.98508096 0.5821504
-6.66856 -1.4699647 0.89377731
-4.3165627 -0.92384446 0.57721013
-6.8394861 -1.4198593 0.91431844
-6.8636222 -1.3809952 0.91639858
-6.887538 -1.3418881 0.91847867
-4.2531652 -0.80165863 0.56589955
-4.2384944 -0.77199411 0.56329942
-4.2206912 -0.74202502 0.56030923
-4.229075 -0.71677595 0.56082928
-4.2069716 -0.68650311 0.55731905
-4.1973915 -0.65852576 0.55549896
-4.1837049 -0.63010156 0.55315882
-4.1698279 -0.60187018 0.55081874
-4.1302252 -0.57030791 0.54509842
-4.125783 -0.54391819 0.54405832
-4.1231399 -0.51785153 0.54327828
-4.1065493 -0.49019319 0.54067814
-4.072041 -0.46075228 0.53573787
-4.0550737 -0.43365037 0.53313774
-4.0359545 -0.40657541 0.53027761
-3.993953 -0.37760612 0.52442729
-3.9675519 -0.35056326 0.52065706
-3.9528296 -0.32483253 0.51844698
-3.940907 -0.29952103 0.51662683
-3.9495945 -0.27581763 0.51753688
-3.9264746 -0.25000432 0.51428676
-3.900218 -0.22431454 0.51064652
-3.8757756 -0.19905807 0.50726634
-3.8670187 -0.17482571 0.50596631
-3.8541481 -0.15055373 0.50414616
-3.8312159 -0.1261206 0.50102603
-3.8140767 -0.10213349 0.4986859
-3.8007534 -0.078443125 0.49686578
-3.7783604 -0.054791193 0.49387562
-3.7538388 -0.031400539 0.49062544
-3.7420626 -0.0083409334 0.48906535
-3.7301455 0.014572974 0.48750529
-3.7141221 0.037300285 0.48542517
-3.7019267 0.059895892 0.48386508
-3.6866207 0.082276724 0.48191497
-3.6672156 0.10435896 0.47944483
-3.6427238 0.12603448 0.47632468
-3.6349473 0.14810051 0.47541463
-3.6309991 0.17026186 0.47502461
-3.6150341 0.19174945 0.4730745
-3.5930042 0.2126957 0.47034433
-3.5738223 0.23357302 0.46800423
-3.563421 0.2548601 0.46683416
-3.5548704 0.27618206 0.46592411
-3.5373001 0.29666242 0.463844
-3.5146756 0.31649271 0.46111384
-3.500824 0.33691195 0.45955375
-3.4848819 0.356971 0.45773366
-3.4668548 0.37663281 0.45565355
-3.451673 0.3964265 0.45396346
-3.4383481 0.41628659 0.45253336
-3.4249101 0.43599814 0.4511033
-3.4182389 0.45647958 0.45058328
-3.4065363 0.47620893 0.44941321
-3.3858905 0.49452177 0.44707307
-3.3386836 0.50856638 0.44122276
-3.3325624 0.52857637 0.44083273
-3.32143 0.54772359 0.43979269
-3.3111656 0.56692147 0.43888265
-3.2978623 0.58549404 0.43758255
-3.2854314 0.60410398 0.43641251
-3.2631562 0.6207301 0.43394238
-3.2456656 0.6380623 0.43212226
-3.2446046 0.65855718 0.43251228
-3.2424438 0.67885983 0.43277231
-3.2333713 0.69769627 0.43212226
-3.2125752 0.71386546 0.42991215
-3.1994357 0.73157436 0.42874208
-3.1900606 0.75005698 0.42809206
-3.1767242 0.76752043 0.42692199
-3.1642566 0.78508747 0.42588192
-3.1536148 0.80301982 0.42510188
-3.1457503 0.82160312 0.42471185
-3.1339455 0.8390941 0.42380181
-3.1191761 0.85568416 0.42250174
-3.1033671 0.87185639 0.42107168
-3.0855718 0.88731885 0.41938159
-3.0696061 0.90315562 0.41795149
-3.05831 0.92025888 0.41717145
-3.0507104 0.93842387 0.41691145
-3.0439491 0.95682758 0.41678143
-3.0370767 0.97518373 0.41665143
-3.0310359 0.99380052 0.41665143
-3.0220604 1.0114356 0.4162614
-3.0092294 1.027716 0.41535136
-2.990695 1.0419197 0.41366127
-2.9786401 1.0582587 0.41288123
-2.9646327 1.0738134 0.41184115
-2.9524074 1.0899233 0.41106114
-2.9428802 1.106971 0.41067111
-2.9360323 1.1250073 0.41067111
-2.9336925 1.1448038 0.41132113
-2.9293773 1.1638815 0.41171116
-2.9083931 1.1762568 0.40976104
-2.8956201 1.1918155 0.40898103
-2.8827655 1.207262 0.40820098
-2.8725669 1.2237616 0.40781096
-2.8586357 1.2386045 0.40690091
-2.8500748 1.2557216 0.40677088
-2.8377919 1.2711587 0.40612087
-2.8281341 1.2877253 0.40586084
-2.8228788 1.3063036 0.40625086
-2.8157077 1.3240218 0.40638086
-2.803952 1.3395638 0.40586084
-2.7903278 1.3541456 0.4050808
-2.7792985 1.3699261 0.40469077
-2.765521 1.3842905 0.40391073
-2.7490201 1.3971897 0.40274069
-2.7333467 1.4103932 0.40170062
-2.7220063 1.4257579 0.40131059
-2.7044523 1.4377781 0.40001053
-2.6973245 1.4552869 0.40027055
-2.6935623 1.4746672 0.4010506
-2.6905303 1.4945375 0.40196064
-2.6657617 1.5022551 0.3996205
-2.7546203 1.5746862 0.41444132
-2.7346139 1.5855898 0.41288123
-2.6701353 1.5701693 0.40456077
-2.66556 1.5895708 0.40534082
-2.6421816 1.5976869 0.40326071
-2.6314836 1.6133505 0.40313071
-2.6181662 1.6273726 0.40261066
-2.6089704 1.6439354 0.40274069
-2.6005054 1.6609805 0.40300068
-2.5894327 1.6763668 0.40287068
-2.5757821 1.6900477 0.40235066
-2.56041 1.7025262 0.40157062
-2.5499153 1.7182046 0.40157062
-2.5425999 1.7360547 0.40209064
-2.5351613 1.7538798 0.40261066
-2.5251637 1.7699714 0.40274069
-2.5134473 1.7848581 0.40261066
-2.4984243 1.7973514 0.40196064
-2.4849451 1.8108956 0.40157062
-2.4666078 1.8208086 0.40040055
-2.4498308 1.8317525 0.39949051
-2.4401259 1.8479474 0.3997505
-2.4350348 1.8677129 0.40079057
-2.4352736 1.8917433 0.40274069
-2.4329712 1.9140075 0.40430075
-2.424283 1.9313713 0.4048208
-2.41856 1.9511911 0.40586084
-2.411149 1.9697584 0.40664089
-2.402837 1.987676 0.40729094
-2.3845153 1.9972885 0.40625086
-2.3631415 2.0041857 0.40469077
-2.3553128 2.0225239 0.40547082
-2.345103 2.0388894 0.40586084
-2.3474326 2.0663438 0.40846097
-2.3273079 2.0741112 0.40716091
-2.3108571 2.085031 0.40651089
-2.296556 2.0978332 0.40625086
-2.2872801 2.1152515 0.40690091
-2.2786007 2.1333122 0.40768093
-2.2690661 2.1506639 0.40833098
-2.2572579 2.1659193 0.408591
-2.2460592 2.1818013 0.40898103
-2.2382848 2.2011039 0.41002107
-2.2275474 2.2175946 0.41054109
-2.2138987 2.231221 0.41054109
-2.1987784 2.2433469 0.41028109
-2.1842825 2.2560837 0.41015106
-2.1745098 2.2737434 0.41093111
-2.1700492 2.2971344 0.41275123
-2.1545606 2.3089564 0.4124912
-2.1403525 2.3221331 0.4124912
-22.272522 24.770058 4.3661361
-22.060202 24.838791 4.3543053
-22.754765 25.939688 4.5227942
-22.482203 25.948427 4.5001731
-10.623427 12.414255 2.140805
-10.547695 12.479962 2.1409349
-10.239651 12.267372 2.0936124
-10.295998 12.489872 2.120784
-10.244206 12.58357 2.1259842
-10.157483 12.634599 2.1240342
-11.308425 14.244367 2.3831382
-11.298498 14.412587 2.3996491
-9.64645 12.46189 2.0647509
-11.002171 14.39496 2.3740377
-9.6379271 12.771652 2.0963426
-9.3005123 12.483088 2.0395296
-9.3206778 12.67171 2.0609808
-11.045815 15.211821 2.4633524
-10.353256 14.443621 2.3285353
-10.036509 14.184733 2.2767925
-10.708308 15.332897 2.4506118
-9.5251856 13.81864 2.1990483
-8.112359 11.924868 1.8895013
-9.2780743 13.820062 2.1809771
-8.6641331 13.078247 2.0553904
-8.4801044 12.972646 2.0305591
-8.317049 12.895282 2.0104079
-7.9439507 12.484308 1.9386441
-7.7933993 12.415248 1.9204431
-7.3824897 11.922473 1.8371085
-9.5288134 15.601901 2.395489
-7.2371612 12.014718 1.8374985
-7.5835896 12.76644 1.9454044
-7.4023819 12.637344 1.918753
-7.6569338 13.257795 2.0058577
-7.4150186 13.022773 1.9633454
-9.2911968 16.553352 2.4874039
-7.616076 13.766083 2.0612407
-7.2808514 13.35292 1.992597
-6.7121201 12.49161 1.8577796
-6.4924564 12.262665 1.8177375
-6.0397096 11.578763 1.7107416
-5.9322987 11.545052 1.7003411
-5.8376188 11.534347 1.6934507
-6.318265 12.676538 1.8555696
-6.1066942 12.442698 1.8157874
-6.3101859 13.059337 1.900162
-3.7066209 7.7926078 1.1298702
-3.627629 7.7487535 1.1202496
-3.5841639 7.7798719 1.1215497
-3.5584633 7.8504839 1.1285701
-6.3600616 14.263714 2.04616
-5.8670444 13.378091 1.9138128
-7.4417481 17.255985 2.4624424
-6.478054 15.278439 2.1743469
-6.3876185 15.326138 2.1755168
-5.8210711 14.211701 2.0120981
-5.7241359 14.223237 2.0087178
-6.267736 15.854206 2.2337601
-6.182539 15.923791 2.2381804
-5.9526291 15.614923 2.1895578
-5.2413125 14.006551 1.9593152
-5.1340809 13.980741 1.9512547
-5.0673552 14.06515 1.9586651
-4.9773245 14.085695 1.9572351
-5.1826081 14.958223 2.0741115
-4.8248205 14.206739 1.9656855
-5.0099277 15.054564 2.0787916
-4.9924388 15.315039 2.1105134
-4.9339504 15.456841 2.1258543
-4.8070807 15.384614 2.1118135
-5.0592947 16.547855 2.2673018
-23.309757 77.951134 10.666538
-22.372778 76.525276 10.452416
-4.3373723 15.180482 2.068521
-20.824594 74.617577 10.15613
-20.106997 73.792091 10.026773
-19.446695 73.135048 9.9210777
-18.509977 71.372818 9.6663933
-17.974003 71.098618 9.614131
-18.123543 73.587471 9.9355078
-16.544134 68.99498 9.3014641
-15.976752 68.479149 9.2185192
-15.370265 67.75592 9.1082735
-14.712014 66.749962 8.9607153
-14.102379 65.905289 8.8355188
-13.390422 64.510078 8.6372576
-12.956994 64.405365 8.6124268
-12.329327 63.291462 8.4531679
-11.779722 62.511406 8.3391514
-11.237496 61.712383 8.2231855
-10.751695 61.171787 8.1421909
-10.229557 60.371452 8.0271349
-9.7597961 59.825386 7.9464002
-9.2700853 59.103451 7.8427844
-1.5911027 10.566516 1.3995048
-1.529353 10.59767 1.402365
-1.4750087 10.684447 1.4126354
-1.4108474 10.704109 1.4140656
-1.3518113 10.765689 1.421086
-1.3014704 10.905708 1.438507
-6.2227426 55.017384 7.2582726
-5.8495307 54.722282 7.2144604
-5.4468002 54.093212 7.1269655
-5.0612469 53.55901 7.0523415
-4.6900444 53.108059 6.9890285
-4.3213215 52.615067 6.9205146
-3.9546213 52.064201 6.8447204
-3.6012652 51.602821 6.7810168
-3.2489364 51.063885 6.7074327
-2.9120615 50.674038 6.6537399
-2.5799921 50.280014 6.5997872
-2.2512133 49.847187 6.5410237
-1.9314386 49.504383 6.4943514
-1.6096048 48.966297 6.4223275
-1.2998513 48.628345 6.3768249
-0.99132663 48.143719 6.3123417
-0.68964368 47.715649 6.2555285
-0.39395195 47.369984 6.2097659
-0.10355968 47.496437 6.2261467
0.18895854 47.769836 6.2620287
0.48309618 47.869896 6.2754197
0.78220248 48.198143 6.3189716
1.0816072 48.356991 6.3405528
1.3823406 48.491173 6.3591442
1.6925904 48.849407 6.4073768
2.0025187 49.088745 6.4402685
2.3123786 49.260746 6.4645796
2.6281042 49.500088 6.4979916
2.950314 49.795803 6.5390739
3.2739856 50.054783 6.5756059
3.6020784 50.32748 6.6142178
3.9240334 50.474457 6.636579
4.2615256 50.78141 6.6802616
4.5935884 50.982422 6.7102933
4.9328399 51.228634 6.7465649
5.2842822 51.560375 6.7944078
5.6270151 51.770454 6.8265195
6.0182519 52.376205 6.9111538
6.3621669 52.525314 6.9358554
6.6932306 52.555122 6.945086
7.4634509 53.3685 7.0641723
7.7953601 53.353096 7.0683327
8.1575346 53.533627 7.0987544
8.4650354 53.351345 7.0813332
4.8275003 14.721161 2.029779
0.80073029 1.9800407 0.27845392
0.83249152 2.0227671 0.2852143
0.84450424 2.0167065 0.28508428
0.85064399 1.9968921 0.28300416
0.8620922 1.9898155 0.28274417
0.8754847 1.9872104 0.28313419
0.88725615 1.9808962 0.28300416
0.90555799 1.9889501 0.28495428
0.92190951 1.9923544 0.28625435
0.95563775 2.0324192 0.29288471
0.9625333 2.0148871 0.29119462
0.96751803 1.9937793 0.28898451
0.97929507 1.9869158 0.28885448
0.98747331 1.9728901 0.28768444
0.99641508 1.9606068 0.28677437
1.0047886 1.9474072 0.28573433
1.0139581 1.9359356 0.28495428
1.0225593 1.9235494 0.28404424
1.033401 1.9154938 0.28378421
1.0441823 1.9073776 0.28352422
1.0515324 1.8931341 0.28235415
1.0704312 1.8996028 0.28430423
1.0874802 1.9024674 0.28573433
1.0996305 1.8966166 0.28586432
1.1132578 1.8932524 0.28638434
1.127393 1.8906437 0.28703439
1.1399989 1.8853873 0.28729442
1.1536191 1.8817381 0.28781444
1.1698546 1.8822026 0.28898451
1.1871966 1.8842163 0.29041457
1.2019383 1.8819098 0.29119462
1.2258573 1.8936419 0.29418477
1.2456131 1.898519 0.29613489
1.2808484 1.9263417 0.30172518
1.3042804 1.9357129 0.30445534
1.2993586 1.9031093 0.30055514
1.3076265 1.8902086 0.29977509
1.3214766 1.8853972 0.30029511
1.3554112 1.90878 0.30536538
1.3653606 1.8980129 0.30497536
1.3763969 1.8887981 0.30484536
18.829683 25.505035 4.1552644
18.951384 25.342964 4.1477242
19.078392 25.189054 4.1416135
19.198191 25.026674 4.1342034
19.312458 24.858297 4.1258826
19.439486 24.707382 4.1205525
19.55056 24.537231 4.112102
19.662146 24.368969 4.1040416
19.776173 24.204868 4.0967612
19.908516 24.063969 4.0935111
20.025869 23.905636 4.0874009
20.159348 23.767187 4.0848007
20.273792 23.606939 4.0785604
20.398092 23.458902 4.0745301
20.520027 23.308741 4.0702395
20.632975 23.149086 4.0643892
20.735435 22.978619 4.0567188
20.8319 22.802643 4.0481386
20.960651 22.662745 4.0460587
21.079659 22.512716 4.0422883
21.207165 22.372158 4.040338
21.329622 22.226589 4.0376081
21.440727 22.069691 4.032928
21.573656 21.935596 4.0325379
21.683357 21.778217 4.0279875
21.767307 21.595881 4.018887
21.887369 21.450113 4.0166769
22.004324 21.301619 4.0140767
22.12315 21.155237 4.0119967
22.238842 21.006159 4.0095263
22.345566 20.849016 4.0056262
22.459949 20.699419 4.0032864
22.568939 20.545198 4.0001659
22.680569 20.393736 3.9976959
22.838634 20.283815 4.0035462
23.309141 20.195503 4.0422883
23.451469 19.820261 4.0244775
23.559702 19.66519 4.0222673
23.584288 19.441425 4.0060163
23.759266 19.342045 4.0155067
23.868227 19.188442 4.0139465
24.062103 18.862902 4.0073166
24.163279 18.703979 4.0049763
24.261045 18.542719 4.0022459
24.269102 18.314074 3.9849551
24.396919 18.176664 3.9875553
24.503199 18.023102 3.9867752
24.607708 17.868334 3.9858651
24.710436 17.712387 3.9848251
24.828365 17.567305 3.9863853
24.940567 17.418037 3.9871652
25.05187 17.268053 3.9879453
25.152433 17.110666 3.9871652
25.266005 16.962091 3.9885952
25.374565 16.810028 3.9893754
25.488852 16.661612 3.9911954
0.87988538 0.56771713 0.13570617
0.86662173 0.55166203 0.13310604
0.87166989 0.54738837 0.13336605
0.87332618 0.5409857 0.13310604
0.87409061 0.5340665 0.13271601
0.87650186 0.52818149 0.132586
0.87546384 0.52026165 0.13193597
0.87093973 0.5103699 0.13076591
0.86718601 0.5010494 0.12972586
0.86421263 0.49228489 0.1288158
0.85770595 0.48163465 0.12738572
0.8580423 0.47492287 0.1269957
0.85571712 0.4668012 0.12621567
0.85856521 0.4615418 0.12621567
0.85875219 0.45487326 0.12582564
0.85976887 0.4486784 0.12556563
0.85986 0.44203511 0.12517561
0.86963344 0.44033256 0.12621567
0.90692759 0.4522374 0.13128594
0.92036659 0.45190609 0.13284603
0.91776556 0.44366214 0.13206598
0.91241193 0.43418962 0.13089591
0.91056895 0.4264811 0.13024588
0.92217422 0.42503449 0.13154595
0.91754013 0.41609353 0.13050589
0.91917038 0.41005203 0.13037589
0.90895665 0.39882946 0.12855579
0.88225198 0.38068053 0.12439556
0.88091975 0.37371179 0.12387554
0.89143312 0.37173241 0.1250456
0.89186215 0.36550406 0.12478559
0.89500791 0.36039498 0.12491559
0.89812446 0.35526106 0.1250456
0.89751452 0.34866703 0.12465557
0.80698895 0.30783594 0.11165487
0.75685936 0.28341946 0.10437448
0.71949285 0.26441541 0.098914184
0.7080422 0.25529084 0.097094081
0.70492095 0.24928993 0.096444048
0.7017529 0.24333699 0.095794007
0.70562696 0.23502013 0.09592402
0.71601439 0.22875531 0.096964076
0.72119015 0.2255404 0.097484104
0.72161222 0.22082113 0.097354092
0.72580343 0.21724142 0.097744115
0.72807443 0.21306212 0.09787412
0.73032141 0.20886312 0.098004133
0.73187286 0.19962455 0.09787412
0.73404217 0.1953849 0.098004133
0.73638457 0.18636236 0.098004133
0.74136519 0.18278892 0.098524161
0.74258685 0.17345218 0.098394156
0.74460411 0.16911183 0.098524161
0.74272293 0.16389963 0.098134138
0.73111027 0.15664224 0.096444048
0.72234946 0.15013817 0.095143974
0.68826371 0.13866328 0.09046372
0.69786054 0.1361438 0.091633782
25.581842 4.6584344 3.4078538
25.716387 4.5200877 3.4220245
25.89712 4.388216 3.4424357
26.126122 4.2622771 3.4693472
26.325161 4.1290827 3.4923584
26.471579 3.9857819 3.5084794
27.04299 3.7330325 3.577903
0.90710515 0.097160123 0.11802522
0.91064376 0.091890402 0.11841524
0.8993451 0.085181735 0.11685515
5.9261475 0.45030564 0.77768105
5.9406681 0.41476333 0.77924109
5.9282584 0.37735993 0.777291
5.9185839 0.34029517 0.77573091
5.8938246 0.30260125 0.77222073
5.8609023 0.26486617 0.76767051
5.8386393 0.22797175 0.76455033
5.8250637 0.19165368 0.76260018
5.7973862 0.15513994 0.75883001
5.7784028 0.11915677 0.75622988
5.7532482 0.083326466 0.7528497
5.7209325 0.047751658 0.74855947
5.680655 0.0028841079 0.63382196
5.6666532 -0.031895146 0.63226628
5.6464753 -0.066433035 0.6300438
5.6280761 -0.10075986 0.62804359
5.6104622 -0.13488716 0.62615454
5.5668139 -0.1680257 0.62137628
5.5448222 -0.20142479 0.61904275
5.5246162 -0.23464444 0.61693144
5.5022273 -0.26752746 0.61459786
5.4855971 -0.30047002 0.61293101
5.4816666 -0.3340027 0.61270881
5.4636483 -0.36656883 0.6109308
5.427597 -0.39762169 0.6071527
5.4101949 -0.42973879 0.60548586
5.3906231 -0.46148807 0.60359675
5.3698754 -0.49292266 0.60159659
5.3548813 -0.52470082 0.60026312
5.3337684 -0.55569649 0.59826291
5.3065505 -0.58579934 0.59559602
5.2821269 -0.61593413 0.59326243
5.2654247 -0.64675963 0.59181786
5.2574143 -0.67854708 0.59137332
5.2295151 -0.70759815 0.58870643
5.2103148 -0.73758495 0.58703959
5.1860285 -0.76663685 0.58481717
5.1537247 -0.79420877 0.58170575
5.1399226 -0.82440114 0.58070564
5.1141806 -0.85249478 0.57837206
5.1029782 -0.88284296 0.57770532
5.0925741 -0.91326118 0.57714975
5.0556064 -0.93869007 0.5735938
5.0448713 -0.96875656 0.57303822
5.0300589 -0.99795365 0.57203811
5.0179992 -1.0276033 0.57137138
4.9999304 -1.0559112 0.5700379
4.9593687 -1.0791789 0.56614864
4.9633212 -1.1119772 0.56737101
4.9467206 -1.1401798 0.56625974
4.9241581 -1.1668465 0.56448179
4.9082155 -1.1949241 0.56348175
4.8901854 -1.2223682 0.56225938
4.8768167 -1.2508702 0.56159264
4.8613605 -1.2787486 0.56070369
4.8390293 -1.3046747 0.55903685
4.8280587 -1.3335485 0.55870348
4.8178725 -1.3626072 0.55848122
4.7989202 -1.3891053 0.5572589
4.7674356 -1.4117556 0.55459195
4.7434645 -1.4363751 0.55281401
4.7231688 -1.4619288 0.55148053
4.711267 -1.4899834 0.55114716
4.7086558 -1.5210007 0.551925
4.6926279 -1.5476859 0.55114716
4.6745658 -1.5735977 0.55014706
4.6591825 -1.6003144 0.54948032
4.6398959 -1.6255878 0.54836911
4.6242185 -1.6520219 0.54770237
4.6065245 -1.6776448 0.54681343
4.5812359 -1.7003475 0.54503548
4.5558424 -1.7228032 0.54325753
4.5414762 -1.7492965 0.542813
4.5288067 -1.7764041 0.5425908
4.5168986 -1.8037905 0.54247963
4.5002213 -1.8292271 0.5418129
4.4824839 -1.8541473 0.54103506
4.4728546 -1.8823872 0.54125732
4.4539113 -1.9066689 0.54036832
4.437572 -1.9319787 0.53981274
4.4210901 -1.95716 0.53925711
4.4017472 -1.9809886 0.53836817
4.3949323 -2.0104396 0.53903484
4.3834147 -2.0377874 0.53914601
4.3645382 -2.0616748 0.53836817
4.3535981 -2.0892758 0.53859037
4.3344426 -2.1129024 0.53781253
4.3133802 -2.1354909 0.53681242
4.2859883 -2.1547768 0.53503448
4.2815385 -2.1855516 0.53614569
4.2609882 -2.2081246 0.53525674
4.2473593 -2.2342279 0.53525674
4.2414613 -2.2644584 0.53625685
4.224865 -2.289021 0.53592348
4.1889668 -2.3029349 0.53314543
4.1721535 -2.3271427 0.53281206
4.1655807 -2.3571024 0.53381217
4.1544876 -2.3845959 0.53425664
4.1423545 -2.4115424 0.53459001
4.1274796 -2.436914 0.53459001
4.093689 -2.4509654 0.53214532
4.0853696 -2.4801624 0.53303427
4.0675359 -2.5036204 0.5327009
4.0487242 -2.5264273 0.53225642
4.0331464 -2.5512226 0.53225642
4.0174165 -2.5759213 0.53225642
4.0007019 -2.5999818 0.53214532
3.9830134 -2.6233876 0.53192306
3.9709747 -2.6505356 0.53247869
3.9612229 -2.6793044 0.53336763
3.9430687 -2.7024362 0.53314543
3.9272289 -2.7271464 0.53325653
3.9063573 -2.7483335 0.5327009
3.8886108 -2.7716737 0.53258979
3.8634729 -2.789665 0.53147858
3.8567119 -2.8209443 0.53292316
3.8417263 -2.8463299 0.53325653
3.828959 -2.8734272 0.53392327
3.8144209 -2.8992722 0.53436774
3.7973471 -2.9232285 0.53447884
3.7801228 -2.9470847 0.53459001
3.7635288 -2.9714551 0.53481221
3.7483308 -2.9969735 0.53525674
3.7368233 -3.0255437 0.53625685
3.7189572 -3.0490456 0.53636795
3.6971197 -3.0692685 0.53592348
3.6805 -3.0938137 0.53625685
3.6569061 -3.1124744 0.53559011
3.6505392 -3.1458814 0.53747916
3.6491418 -3.1838999 0.54014611
3.6287923 -3.2055726 0.54003495
3.6053505 -3.2244663 0.53947937
3.5840242 -3.2451937 0.53925711
3.5625794 -3.2657809 0.53903484
3.551945 -3.2963662 0.54047948
3.5244081 -3.3112946 0.53936821
3.5112259 -3.3397057 0.54047948
3.5057034 -3.3756609 0.542813
3.4849246 -3.3971081 0.542813
3.4618924 -3.4163332 0.54247963
3.4422715 -3.4389155 0.5427019
3.4287932 -3.4677444 0.54392421
3.4234242 -3.5050678 0.54648006
3.4059937 -3.530298 0.5471468
3.3835826 -3.550411 0.54703563
3.3719532 -3.5819585 0.54870248
3.3505883 -3.6033087 0.54881358
3.3324499 -3.6281905 0.54948032
3.314132 -3.6529856 0.55014706
3.2936454 -3.675472 0.55048043
3.2736661 -3.6985886 0.55092496
3.2541816 -3.7223463 0.55148053
3.2423236 -3.7550294 0.55336964
3.2282517 -3.7854385 0.55492532
3.2043238 -3.8044152 0.55481422
3.1847336 -3.8285887 0.55548096
3.161813 -3.8488257 0.55559206
3.1437733 -3.8750989 0.55659217
3.1311238 -3.9082751 0.55859238
3.1194181 -3.9429998 0.5608148
3.1061802 -3.9761615 0.56281501
3.086581 -4.0014405 0.56370395
3.0643795 -4.0234661 0.56414843
3.0414267 -4.0445757 0.56448179
3.0236623 -4.0727358 0.56581527
3.0050793 -4.100028 0.56703764
2.9874401 -4.1288557 0.56848222
2.9666715 -4.1535773 0.56937116
2.9468575 -4.1798244 0.57048243
2.9353487 -4.2182188 0.57326049
2.9139132 -4.2427034 0.57414943
2.8906138 -4.2646155 0.57470506
2.8726821 -4.2946615 0.57637185
2.8528471 -4.3221593 0.57770532
2.8376653 -4.357069 0.58003891
2.8264606 -4.398643 0.58326143
2.80474 -4.4242959 0.58437264
2.7822835 -4.4490051 0.58537275
2.7632825 -4.4795251 0.58715069
2.7388449 -4.5014896 0.58781743
2.7173102 -4.5284352 0.58915091
2.7026346 -4.5672588 0.59204006
2.6815727 -4.5957723 0.5935958
2.6597672 -4.6233373 0.59504038
2.6387045 -4.6525359 0.59670722
2.620779 -4.6877217 0.59915191
2.5938854 -4.7071958 0.59959638
2.5720696 -4.7361217 0.60126323
2.5542176 -4.7728424 0.60393012
2.5369387 -4.8112798 0.60681933
2.5188253 -4.8488021 0.60959738
2.4908376 -4.8677044 0.61004186
2.4685285 -4.8979826 0.61193091
2.4477091 -4.9317298 0.61426449
2.4291868 -4.9707623 0.61726481
2.4124324 -5.0142298 0.6208207
2.3871512 -5.0406137 0.62226528
2.3595374 -5.0623717 0.62315422
2.3350616 -5.0912066 0.62493223
2.3095026 -5.1181197 0.62648791
2.2909606 -5.1612597 0.6300438
2.2691915 -5.1979885 0.63282186
2.2466657 -5.2337303 0.63548881
2.2237861 -5.2693906 0.6381557
2.1994104 -5.3022122 0.64048928
2.1732147 -5.3312521 0.64237839
2.1537671 -5.377697 0.64637876
2.1258247 -5.403758 0.64793444
2.1087492 -5.458415 0.65293497
2.0857937 -5.499126 0.6562686
2.0589492 -5.530447 0.65849108
2.0297523 -5.5560441 0.66004676
2.0026658 -5.5880399 0.66238034
1.977241 -5.6255364 0.6653806
1.9540222 -5.6704469 0.66926992
1.9258726 -5.7021017 0.67160344
4.9726176 -15.02285 1.7680446
4.8926067 -15.090893 1.7724894
4.8200674 -15.184093 1.7799346
4.7350664 -15.239956 1.783046
4.652452 -15.304854 1.7872686
4.5241833 -15.217849 1.7738229
4.4984069 -15.478174 1.8009367
2.8632169 -10.083094 1.1706525
2.7911992 -10.064082 1.1664299
2.7473195 -10.147207 1.1740973
4.3083777 -16.307413 1.8846116
4.2010446 -16.305632 1.881389
4.1074519 -16.357126 1.8843893
4.0218878 -16.442839 1.89139
3.9455557 -16.570652 1.90328
3.8512073 -16.626499 1.9069471
3.7705152 -16.744829 1.917837
3.6929755 -16.883179 1.9310606
3.6642499 -17.258404 1.9713979
3.5909617 -17.439224 1.9895108
3.4755259 -17.419022 1.9847325
3.4441719 -17.831301 2.0292923
3.3531306 -17.950764 2.0405159
3.2245653 -17.869287 2.028959
3.1095748 -17.858387 2.0255144
2.9954975 -17.850668 2.0225141
2.8540552 -17.671513 2.0001786
2.7495353 -17.714226 2.0030677
2.6186788 -17.582338 1.9862882
2.5100441 -17.593155 1.9857327
2.386461 -17.494001 1.9728425
2.2670128 -17.41568 1.962397
2.1487384 -17.337542 1.9520626
2.031276 -17.256636 1.941506
1.9124645 -17.153215 1.9285048
1.8047842 -17.141893 1.925949
1.685159 -17.007269 1.9096141
1.5757148 -16.962864 1.9035023
1.4652474 -16.898947 1.8952793
1.3553845 -16.831343 1.8867229
0.95251632 -12.812634 1.4352341
1.1346651 -16.640476 1.8636096
1.0302619 -16.610424 1.859498
0.92688048 -16.590633 1.8566089
0.8254599 -16.603951 1.8574978
0.72711462 -16.690117 1.8666098
0.6241715 -16.680361 1.8650541
0.52072215 -16.649111 1.8611648
0.45767474 -18.205814 2.0349598
0.34718686 -18.272865 2.0421827
0.23506013 -18.274651 2.0421827
0.111149 -16.534639 1.8474969
0.0096355369 -16.444572 1.8373847
-0.087626077 -15.783453 1.7634885
-0.18456246 -15.790566 1.7643776
-0.28098866 -15.763303 1.7614883
-0.37601778 -15.690742 1.7535987
-0.47133172 -15.656351 1.7500428
-0.56400847 -15.559809 1.7395973
-0.65055656 -15.345556 1.7160394
-0.74109232 -15.266828 1.7077053
-0.83979738 -15.354279 1.7180396
-0.93363172 -15.342886 1.7173729
-1.023108 -15.267457 1.7095944
-1.111984 -15.195477 1.7022604
-1.2011153 -15.13685 1.6964819
-1.2896537 -15.078696 1.6908147
-1.3772516 -15.017056 1.6848142
-1.4675297 -14.989532 1.6827029
-1.5404476 -14.797377 1.6621453
-1.6254408 -14.735292 1.6562558
-1.7096153 -14.671737 1.6502552
-1.7988812 -14.655052 1.6495885
-1.8876251 -14.634868 1.6485884
-1.9799169 -14.641721 1.6506997
-2.0629003 -14.58108 1.6452547
-2.1446333 -14.516042 1.6393652
-2.2297297 -14.477072 1.636476
-2.312227 -14.423867 1.6320312
-2.3935025 -14.366273 1.6271418
-2.4743278 -14.309208 1.6223636
-2.5564713 -14.262453 1.6188077
-2.6384974 -14.217185 1.615474
-2.7153819 -14.147047 1.6093622
-2.7957575 -14.09795 1.6056952
-2.87643 -14.052296 1.6024728
-2.9556217 -14.00132 1.5986946
-3.0366194 -13.960586 1.5961388
-3.1141887 -13.905807 1.5920273
-3.1958852 -13.870943 1.5902493
-3.2733779 -13.819159 1.5865823
-3.3501208 -13.765983 1.5828041
-3.4484947 -13.80109 1.5892493
-3.6197324 -14.117571 1.6282531
-3.7340829 -14.20082 1.6404765
-3.9093223 -14.504857 1.678369
-4.3758979 -15.848583 1.8370514
-4.4757638 -15.830997 1.8381625
-4.6324749 -16.009443 1.862165
-4.7399278 -16.012165 1.865832
-4.846148 -16.009413 1.8689433
-5.0100827 -16.192043 1.8938347
-5.439435 -17.205242 2.0162911
-5.6627674 -17.536596 2.0591843
-5.8272033 -17.674242 2.0795195
-5.9415617 -17.656052 2.0816309
-6.1394978 -17.880569 2.1125228
-6.415957 -18.319042 2.168973
-6.6906691 -18.734188 2.2229781
-6.987709 -19.193329 2.2825396
-7.325541 -19.743618 2.3533244
-7.6225929 -20.164032 2.4089963
-7.9947038 -20.762379 2.4863374
-8.3860445 -21.386501 2.5672343
-8.7499647 -21.917971 2.6374633
-8.9725733 -22.081156 2.6636882
-9.093461 -21.990788 2.6594656
-9.2170477 -21.90801 2.6562431
-9.3454342 -21.837339 2.6545761
-9.4748878 -21.769562 2.6533537
-9.6002417 -21.692839 2.6511314
-9.7172642 -21.598177 2.6467977
-9.8425789 -21.522783 2.6449084
-9.9664974 -21.444862 2.6427972
-10.088133 -21.362637 2.6402414
-10.213864 -21.289581 2.6389079
-10.342996 -21.223829 2.6385746
-10.466857 -21.147497 2.6370189
-10.589278 -21.068666 2.635241
-10.703447 -20.974083 2.6315739
-10.819598 -20.88419 2.6285737
-10.943374 -20.809492 2.6275735
-11.067577 -20.735815 2.6267955
-11.190815 -20.660524 2.6259067
-11.303494 -20.566212 2.6226842
-11.411566 -20.464352 2.6185727
-11.531046 -20.383568 2.6172392
-11.654911 -20.310707 2.6170168
-11.781316 -20.242247 2.6174614
-11.905804 -20.170433 2.6175725
-12.027811 -20.094442 2.6172392
-12.145726 -20.011766 2.616128
-13.348968 -21.693165 2.8467062
-13.592281 -21.78792 2.8700418
-13.792109 -21.809105 2.8839321
-13.979299 -21.807735 2.8950443
-14.173484 -21.814886 2.9074898
-14.408177 -21.881065 2.9280474
-14.605051 -21.886486 2.9407153
-14.815332 -21.909246 2.9559391
-15.005096 -21.899094 2.9669402
-15.263865 -21.986214 2.9913871
-15.505398 -22.044151 3.0121667
-15.807034 -22.182501 3.044281
-16.070812 -22.262369 3.068728
-16.320322 -22.318169 3.0901744
-16.683506 -22.523476 3.1327343
-17.014029 -22.677456 3.1686268
-17.296556 -22.761749 3.1951849
-17.742586 -23.053707 3.2514126
-18.324188 -23.509562 3.3315315
-19.036411 -24.116701 3.4340973
-26.292286 -24.154911 3.9908185
-26.233204 -23.80546 3.9595933
-26.554905 -23.801922 3.9860404
-19.909943 -17.626509 2.9719408
-26.314579 -23.010431 3.9072549
-26.274014 -22.691982 3.8804743
-26.650166 -22.732861 3.9153666
-26.620422 -22.42676 3.8906977
-25.554029 -20.736252 3.6783435
-27.956911 -22.403099 4.0044866
-20.973284 -16.596294 2.9891646
-21.053577 -16.450771 2.9861643
-19.685129 -15.187829 2.7786994
-28.316469 -21.571735 3.9789286
-28.820782 -21.677761 4.031045
-23.15687 -16.976536 3.2091863
-23.275896 -16.845198 3.2112975
-23.263184 -16.619448 3.1954072
-22.327589 -15.744992 3.0535042
-22.37076 -15.570791 3.0462813
-22.438848 -15.414664 3.0426142
-18.360126 -12.447452 2.4788923
-18.332909 -12.265481 2.4650021
-20.802984 -13.734141 2.7859223
-17.914982 -11.670163 2.3893278
-20.948219 -13.463852 2.7830331
-21.015331 -13.325483 2.781033
-22.694994 -14.196099 2.9918315
-22.014572 -13.583241 2.8910439
-22.10005 -13.449457 2.8913772
-18.962088 -11.380818 2.471447
-24.248392 -14.352169 3.1492915
-43.540642 -25.412054 5.6356468
-43.680241 -25.135494 5.633647
-19.591805 -11.114078 2.5172293
-44.177963 -24.705265 5.6583157
-19.832027 -10.930868 2.5306752
-21.633041 -11.751122 2.7513635
-21.137857 -11.314702 2.6794674
-21.127773 -11.143062 2.6694665
-21.460304 -11.150686 2.7028031
-46.354256 -23.72629 5.8212209
-21.973562 -11.077082 2.7501411
-46.828854 -23.24847 5.8445563
-21.489107 -10.504131 2.6731336
-47.333603 -22.779369 5.8722258
-47.617977 -22.557434 5.8902273
-47.864479 -22.315645 5.9036732
-5.9773216 -2.7416048 0.73394293
-5.8826175 -2.6545863 0.72027493
-5.7253108 -2.5414107 0.69905061
-5.3464408 -2.3340199 0.65093476
-5.3049579 -2.2772515 0.64415634
-5.2913642 -2.2330625 0.64082265
-5.2728391 -2.187222 0.63693339
-5.2447495 -2.1379411 0.63193291
-5.2042627 -2.0842831 0.6254878
-5.1485205 -2.0253804 0.61726481
-5.1107936 -1.9744062 0.61126417
-5.0828576 -1.92785 0.60648596
-5.0396433 -1.8761619 0.59992975
-5.0090561 -1.8298534 0.59492928
-4.8471217 -1.7370367 0.5743717
-4.8314376 -1.6980327 0.57126027
-4.8257933 -1.6628495 0.56937116
-4.8217826 -1.6284361 0.56770438
-4.9033861 -1.6225567 0.57614964
-4.9047413 -1.5896807 0.57514954
-4.9077725 -1.5574507 0.5743717
-4.8916125 -1.5193453 0.57137138
-6.0370879 -1.8347567 0.70416224
-6.0815725 -1.807593 0.7080515
-6.1736655 -1.7938216 0.71749687
-6.2008076 -1.7605228 0.71938592
-6.2497993 -1.7330688 0.72383082
-6.3255448 -1.7123531 0.73138714
-6.3858953 -1.6867104 0.73716545
-4.4761996 -1.1527562 0.515477
-6.4629817 -1.6225014 0.74372166
-6.4689541 -1.5818701 0.74327719
-6.4969072 -1.546522 0.74538851
-6.6147084 -1.5317498 0.75783414
-6.6899104 -1.5059819 0.76539046
-6.7388291 -1.4736135 0.76994646
-6.7584376 -1.4345078 0.77116883
-6.797287 -1.3992264 0.77461356
-4.2776604 -0.85297674 0.48636302
-4.248662 -0.82011569 0.48247376
-4.2389603 -0.79129314 0.48080692
-4.2202635 -0.76103193 0.47814
-4.2033143 -0.73137122 0.47569531
-4.2145834 -0.70671791 0.47647315
-4.2217836 -0.68131989 0.47680652
-4.2032976 -0.65189594 0.47425073
-4.1698666 -0.62052804 0.4700281
-4.1204681 -0.5873487 0.46402749
-4.0964231 -0.55829275 0.46091607
-4.0928736 -0.5322488 0.46013823
-4.0871859 -0.50602496 0.45913813
-4.086266 -0.48047203 0.45869365
-4.0674081 -0.45296663 0.45624897
-4.0454025 -0.42539856 0.45347092
-4.0192566 -0.39772552 0.45024836
-3.9939141 -0.37048146 0.44713694
-3.9852214 -0.34502354 0.4459146
-3.9892447 -0.3207238 0.44613686
-3.95645 -0.29365966 0.44224757
-3.9284322 -0.26734838 0.43891391
-3.9002419 -0.24139203 0.43558025
-3.8738661 -0.21590273 0.43246883
-3.8532815 -0.19104257 0.43002415
-3.8444521 -0.16696274 0.42891294
-3.8394458 -0.14314726 0.4282462
-3.8233654 -0.11905733 0.42635712
-3.8041542 -0.09509512 0.4241347
-3.7957234 -0.071581237 0.4231346
-3.7732356 -0.04799493 0.42057878
-3.7555709 -0.024720907 0.41857859
-3.7357755 -0.0016642252 0.41635615
-3.720809 0.021175977 0.4146893
-3.7047088 0.043820877 0.41291136
-3.6924467 0.066339687 0.41157791
-3.6810412 0.088733435 0.41035557
-3.6476464 0.11033276 0.40668854
-3.6200857 0.1317414 0.40368822
-3.6072941 0.15344676 0.40235478
-3.5933805 0.17495197 0.4009102
-3.5783465 0.19623803 0.39935449
-3.5691397 0.2177081 0.39846551
-3.5657532 0.23947103 0.39824325
-3.5552964 0.26069319 0.39724314
-3.5367882 0.28116754 0.39535409
-3.5241044 0.30193245 0.39413175
-3.5103092 0.32246163 0.39279827
-3.4993629 0.34312332 0.39179817
-3.4774222 0.36253139 0.38957575
-3.460315 0.38222784 0.38790891
-3.4490206 0.40241793 0.3869088
-3.4385951 0.42260489 0.38601983
-3.4241095 0.44217071 0.38468638
-3.4055741 0.46104228 0.3829084
-3.3800488 0.47872889 0.38035262
-3.3534524 0.49597454 0.37768567
-3.3395417 0.51487803 0.37646332
-3.3284693 0.53410131 0.37557435
-3.3123853 0.55239177 0.37412977
-3.2932651 0.56999713 0.37235183
-3.2720976 0.58703822 0.37035161
-3.2557316 0.60474759 0.36890703
-3.2441514 0.62321466 0.36801806
-3.236367 0.64233559 0.36757356
-3.2265232 0.66098601 0.36690685
-3.2175446 0.67974502 0.36635122
-3.2065156 0.69799644 0.36557338
-3.1924741 0.71548676 0.36446217
-3.1851189 0.7343927 0.3641288
-3.1805525 0.7539224 0.3641288
-3.1633136 0.77036935 0.36268419
-3.1431003 0.78591067 0.36090624
-3.1237788 0.80147988 0.35923943
-3.1111128 0.81861037 0.35835046
-3.1021931 0.83665013 0.35790595
-3.0970011 0.85566908 0.35790595
-3.0888236 0.8738448 0.35757259
-3.0786302 0.89140004 0.35701698
-3.071197 0.90970927 0.35679474
-3.0579476 0.92623353 0.35590577
-3.0465105 0.94321704 0.35523903
-3.0378227 0.96099365 0.35490566
-3.0224118 0.97656184 0.35379446
-3.0106997 0.9932217 0.35312772
-2.9998393 1.0100917 0.35257211
-2.9841855 1.0252522 0.35146087
-2.9675207 1.0399303 0.35023853
-2.9545326 1.0557797 0.34946069
-2.9489329 1.0742285 0.34957179
-2.9441495 1.0929939 0.34979406
-2.9299505 1.1082271 0.34890509
-2.9184582 1.1243987 0.34834945
-2.9133546 1.1430104 0.34857172
-2.9062862 1.1608649 0.34857172
-2.8981879 1.1783016 0.34846058
-2.8789644 1.1911258 0.34701601
-2.8569448 1.2026025 0.34523806
-2.8440299 1.2177639 0.34457132
-2.8410606 1.2371745 0.34512693
-2.8397777 1.2573987 0.34590477
-2.8301961 1.2739842 0.34568253
-2.8159995 1.288433 0.34490469
-2.8080406 1.3056873 0.34490469
-2.7999763 1.3228925 0.34490469
-2.7837422 1.3361794 0.34390458
-2.7710242 1.3510582 0.34334898
-2.7617915 1.3675947 0.34323785
-2.7480202 1.3818372 0.34257111
-2.736834 1.3973178 0.34223774
-2.726444 1.4131701 0.3420155
-2.709805 1.4257097 0.3410154
-2.6843479 1.4334193 0.33890408
-2.6789973 1.4517564 0.33934858
-2.6822321 1.4748682 0.3409043
-2.676604 1.4932343 0.34134877
-2.6276011 1.4871215 0.33623716
-2.744277 1.5754279 0.35246098
-2.6847403 1.5632439 0.3460159
-2.6485665 1.5640283 0.34257111
-2.6414783 1.5817813 0.34290448
-2.6300237 1.5969281 0.34268224
-2.6142509 1.6093898 0.34190437
-2.5992672 1.6222444 0.34123766
-2.5892646 1.6381626 0.34123766
-2.5766542 1.6524104 0.3409043
-2.5648 1.6671064 0.34068203
-2.5553527 1.6833588 0.34079316
-2.5433221 1.6979033 0.34057093
-2.5336795 1.7140335 0.34068203
-2.5263941 1.7317945 0.34112653
-2.5206184 1.7506639 0.34179327
-2.5098293 1.7660973 0.34179327
-2.4965172 1.7797338 0.3414599
-2.4839385 1.7938553 0.34123766
-2.4752915 1.8108226 0.34157103
-2.4689257 1.8295256 0.34223774
-2.4576533 1.8446401 0.34223774
-2.4470797 1.8602866 0.34234887
-2.4364069 1.8758727 0.34246001
-2.4279861 1.8932307 0.34290448
-2.418664 1.9099401 0.34323785
-2.4115572 1.9284678 0.34390458
-2.3996789 1.9432285 0.34390458
-2.386173 1.9566561 0.34368235
-2.3764167 1.9731647 0.34401572
-2.3680689 1.9909056 0.34457132
-2.3595929 2.0086184 0.34512693
-2.3487296 2.0243561 0.34534916
-2.3407576 2.0426493 0.3460159
-2.32967 2.0582891 0.34623814
-2.309588 2.0659208 0.34512693
-2.2953949 2.0787196 0.34490469
-2.2825968 2.0927646 0.34490469
-2.2697129 2.1067309 0.34490469
-2.263263 2.1267414 0.34590477
-2.2566526 2.1467519 0.34690487
-2.244154 2.1612473 0.34701601
-2.2329855 2.1770573 0.34734938
-2.2266603 2.1976972 0.34846058
-2.2145398 2.212723 0.34868282
-2.1988246 2.2241497 0.34834945
-2.1879141 2.2404432 0.34879395
-2.1775763 2.2574012 0.34934956
-2.1643698 2.2714393 0.34946069
-2.1551609 2.2897418 0.35023853
-2.1451318 2.3072886 0.35090527
-2.1403472 2.330653 0.35246098
-23.051445 25.402325 3.8341365
-23.008575 25.669832 3.8531384
-22.602209 25.847755 3.8379147
-22.433441 25.974672 3.8362479
-10.430658 12.228625 1.7958251
-10.365033 12.303796 1.7974919
-9.6447983 11.592526 1.6848142
-9.5826674 11.958868 1.7121502
-10.260257 12.966642 1.8474969
-10.203143 13.058328 1.8516083
-9.8253489 12.735146 1.7971585
-9.5844126 12.58175 1.7671555
-9.4102545 12.511659 1.7491539
-9.3487129 12.589909 1.752043
-10.851941 14.803021 2.0509613
-9.622942 13.297022 1.8339399
-9.5481043 13.36552 1.8352734
-9.0518169 12.836661 1.7549322
-9.0881367 13.05754 1.7774899
-9.205369 13.400573 1.8164937
-8.5067062 12.547867 1.6937039
-8.4002638 12.556049 1.6878145
-9.1449642 13.85221 1.8546087
-8.6247358 13.240241 1.7654887
-8.9232397 13.883968 1.8440521
-8.5850811 13.539798 1.7912691
-8.4881372 13.570314 1.7883799
-8.0576677 13.059713 1.7144837
-7.2406087 11.898318 1.5560237
-8.0134096 13.351889 1.7398195
-7.8219905 13.216079 1.7158172
-7.517323 12.88102 1.6662568
-9.0555573 15.737538 2.0288479
-7.6386991 13.465866 1.7297075
-7.3788776 13.195888 1.6891479
-9.144783 16.591738 2.1169677
-7.2249274 13.301163 1.6911482
-7.4541416 13.926141 1.764822
-6.8553004 12.998534 1.6418099
-3.7033749 7.1283975 0.89684784
-3.6265104 7.0864067 0.88873589
-3.5538807 7.0508437 0.881513
-3.5003862 7.0520439 0.87895715
-3.4718895 7.1037459 0.88273531
-3.4428897 7.1553621 0.88651347
-3.4270012 7.2356286 0.89384753
-3.4136164 7.323173 0.90207058
-3.4001136 7.4126301 0.91051584
-3.3643792 7.4550924 0.91318274
-3.3375278 7.5182853 0.91840547
-3.3283212 7.6233225 0.92873985
-3.3077555 7.7047839 0.936185
-3.3176217 7.8604383 0.95263106
-5.8045268 13.990315 1.6922593
-6.1403556 15.060018 1.8171605
-4.9087377 12.25419 1.4746825
-5.5609484 14.132704 1.6968154
-5.8914857 15.246503 1.8262725
-6.0174646 15.861238 1.8955015
-5.3994141 14.499956 1.7287073
-5.4375815 14.880981 1.7701559
-5.8365116 16.281771 1.9326164
-5.3554306 15.233477 1.8041592
-5.0986209 14.792519 1.7481537
-5.0147586 14.844238 1.7505984
-5.1322188 15.504954 1.8248279
-4.8650184 15.005812 1.7624885
-25.755068 81.123421 9.515584
-4.663403 15.009338 1.7560434
-23.924191 78.692116 9.195219
-23.186827 77.982956 9.0955429
-4.5050645 15.501078 1.8036036
-4.3664217 15.375469 1.7858241
-20.726549 74.716324 8.6685009
-3.890614 14.368879 1.6631453
-18.376379 71.315575 8.2332354
-17.622292 70.168167 8.08811
-16.951477 69.294197 7.9752102
-16.370338 68.74337 7.9000916
-15.727072 67.887909 7.7905254
-15.06414 66.89048 7.6652908
-14.472248 66.153519 7.5705037
-13.905663 65.485733 7.4841619
-13.265831 64.415398 7.3523712
-12.755973 63.922523 7.2870317
-12.193288 63.118473 7.1866884
-11.644058 62.326561 7.0882339
-11.14473 61.750374 7.0147824
-10.617277 60.965809 6.9181066
-10.13722 60.399605 6.8466549
-9.6307573 59.620853 6.7515345
-9.198122 59.249676 6.7029738
-1.5712056 10.551234 1.1914324
-1.5130337 10.606916 1.196655
-1.4518191 10.644556 1.1998776
-1.3923808 10.698597 1.2049892
-1.3438271 10.845015 1.2205462
-1.2857419 10.925106 1.2286582
-6.1085348 54.775032 6.1612539
-5.7624373 54.71759 6.1506977
-5.4025702 54.509621 6.1234727
-5.0248747 54.077652 6.0713563
-4.642808 53.529255 6.0064611
-4.22225 52.414577 5.8783374
-3.8882477 52.273987 5.8597803
-3.5501094 52.043037 5.8313327
-3.524184 56.792217 6.3610516
-2.8523896 51.030888 5.7135434
-2.492398 50.106468 5.6081996
-2.1729109 49.845791 5.5774188
-1.8593955 49.654602 5.5546389
-1.5431445 49.296551 5.5134125
-1.2289068 48.839146 5.4612966
-0.92262954 48.499985 5.422626
-0.61256188 47.538834 5.3146152
-0.31965449 47.363808 5.2947245
-0.029115632 47.502022 5.3100595
0.26344675 47.700069 5.332284
0.5583111 47.885365 5.3532858
0.85602462 48.100639 5.3778439
1.1572088 48.347828 5.4061799
1.462623 48.631863 5.4388499
1.7713145 48.907013 5.4707417
2.0796106 49.089832 5.4925218
2.3894465 49.254822 5.5125237
2.7131531 49.633186 5.5566392
3.0312173 49.838802 5.5816417
3.3458636 49.952137 5.5965319
3.670568 50.180439 5.6245346
4.0102201 50.558205 5.669539
4.3412714 50.777225 5.6969862
4.6772466 51.016838 5.7269893
5.0238748 51.331383 5.7656598
5.3599324 51.503212 5.7885509
5.6979599 51.66988 5.8111086
6.1372309 52.684261 5.9293423
6.4463401 52.531185 5.9164524
6.7890043 52.64933 5.9343429
7.1912723 53.193649 6.0005717
7.5306087 53.241024 6.0110173
7.8877859 53.40126 6.0344639
0.79036498 1.9434129 0.23322703
0.81252754 1.9633236 0.23622733
0.82263219 1.9537207 0.23567171
0.83812332 1.9568594 0.23667182
0.84852827 1.9480349 0.23622733
0.85925877 1.9400654 0.23589396
0.87440842 1.9420069 0.23678294
0.8904407 1.9456432 0.23789416
0.89566106 1.9257231 0.23611622
0.93546689 1.9795024 0.24345027
0.9544729 1.9880619 0.24522822
0.96360606 1.9759142 0.24445036
0.97483027 1.968183 0.24422811
0.98421085 1.9568367 0.24356139
0.99348903 1.9454496 0.24289465
1.0031217 1.9349049 0.24233904
1.0135875 1.9260746 0.24200568
1.0239828 1.9171889 0.24167231
1.0343072 1.9082481 0.24133894
1.0445607 1.8992529 0.24100558
1.0542587 1.8893359 0.24056108
1.0697459 1.8897517 0.24145007
1.0823103 1.8848761 0.24167231
1.0958549 1.8816354 0.24211679
1.1109158 1.880867 0.24289465
1.1244771 1.8774261 0.24333914
1.1370069 1.8721902 0.24356139
1.1521186 1.8711034 0.24433924
1.1635778 1.8639988 0.24433924
1.177649 1.861024 0.24489485
1.1954815 1.8638031 0.24622831
1.2101437 1.861433 0.24689505
1.2270076 1.8622731 0.24800627
1.2527531 1.8762025 0.25089544
1.2814986 1.8940017 0.25434023
18.141706 26.477053 3.5874457
18.218248 26.241964 3.5706661
18.355484 26.096359 3.5661101
18.492191 25.950865 3.5616653
18.616177 25.788561 3.5549979
18.750011 25.640959 3.550442
18.848429 25.446367 3.5394409
18.970215 25.284924 3.533107
19.110573 25.149057 3.5304401
19.21846 24.971468 3.5219948
19.327333 24.796638 3.513994
19.452028 24.643257 3.5091045
19.576809 24.490835 3.5044374
19.709831 24.349394 3.5014372
19.829256 24.191874 3.4962144
19.922104 24.003218 3.4865468
20.03768 23.843245 3.4811018
20.172009 23.706224 3.4791017
20.298927 23.560921 3.4759903
20.416328 23.40522 3.4714341
20.539162 23.256414 3.4679894
20.651003 23.095871 3.4628778
20.768986 22.942938 3.4589887
20.891912 22.796021 3.4560993
21.001652 22.635345 3.45121
21.102722 22.466213 3.4450984
21.221685 22.316862 3.4420979
21.341679 22.169044 3.439431
21.444704 22.004225 3.4342084
21.54372 21.836149 3.4285412
