# .PCD v0.7 - Point Cloud Data file format
VERSION 0.7
FIELDS x y z
SIZE 4 4 4
TYPE F F F
COUNT 1 1 1
WIDTH 1556
HEIGHT 1
VIEWPOINT 0 0 0 1 0 0 0
POINTS 1556
DATA ascii
19.734129 15.110128 4.1750317
23.670422 17.442408 4.9394069
23.851166 17.350792 4.9548202
23.57509 16.929733 4.8757644
21.474077 15.222138 4.4216471
21.275377 14.885997 4.3618164
21.341158 14.737802 4.3566785
22.469374 15.314149 4.5678263
21.611238 14.535895 4.3750753
23.993183 15.713822 4.8180881
24.412182 15.775046 4.8827252
24.54261 15.646694 4.8895202
22.80175 13.953315 4.4905934
22.900448 13.821296 4.4932451
24.791536 14.755857 4.8465948
25.262663 14.619443 4.9032764
1.6718791 0.94051653 0.32034093
1.6569184 0.91876489 0.31636325
1.6789677 0.91756499 0.31951225
1.6889076 0.90958339 0.32034093
1.7722874 0.89908689 0.33194244
1.7971798 0.89789021 0.33558863
1.7672585 0.86943603 0.3289592
1.7485954 0.84697104 0.32448432
1.7902575 0.85362458 0.33127952
1.7963543 0.84304261 0.33144525
1.7970166 0.82993746 0.33061656
1.8002795 0.81807977 0.3302851
1.8169696 0.81224906 0.33243966
1.8183081 0.79949766 0.33177671
1.8222743 0.78793436 0.33161098
1.8279823 0.77712399 0.33177671
1.8318063 0.76551288 0.33161098
1.851065 0.760252 0.33426276
1.8584387 0.74998665 0.33475995
1.8657559 0.73965949 0.33525717
1.8748543 0.72998607 0.33608586
1.8811405 0.71917254 0.33641732
1.8809012 0.70588452 0.33558863
1.8935258 0.69739693 0.33708027
1.8996243 0.68643546 0.33741173
1.9038005 0.67476666 0.33741173
1.9116312 0.66436708 0.33807468
1.9147382 0.65230709 0.33790895
1.9215111 0.64148277 0.33840615
1.9113507 0.6250838 0.33592013
1.7986882 0.57605809 0.31536883
37.066914 10.872025 6.4898682
39.221226 10.983016 6.8430519
1.8848158 0.5031243 0.32581022
1.963263 0.51117313 0.33890337
1.9615833 0.49790445 0.33807468
1.9674734 0.48656905 0.33857191
1.9694631 0.4742569 0.33840615
1.9454509 0.4558664 0.33376554
1.9309036 0.43997866 0.33078229
39.789791 8.8063498 6.8468637
39.849831 8.563489 6.8480239
39.579174 8.2515907 6.7926683
39.902615 8.0638628 6.8395715
39.772297 7.7838335 6.8089104
39.706913 7.5183668 6.7896848
40.115097 7.3409791 6.8516703
73.731384 6.5760803 12.438469
74.239052 4.331162 12.495814
72.829605 3.3527384 12.25069
72.810379 2.9042683 12.244226
73.676788 0.67691201 12.380628
50.23082 -8.629961 7.5697665
5.7201948 -1.0195601 0.86137509
5.4862113 -1.0126541 0.82698965
5.485724 -1.04741 0.82787132
5.5121899 -1.087556 0.8328675
5.5403066 -1.1284604 0.83815759
5.5671597 -1.1695473 0.8433007
5.6043501 -1.2133069 0.85006022
5.5939035 -1.2470264 0.84961939
5.5765052 -1.2791163 0.84814996
5.6927481 -1.342584 0.86710602
5.7391996 -1.3907607 0.87548196
5.7718334 -1.4362152 0.88180065
5.7926235 -1.4791867 0.886356
54.377701 -14.235693 8.3487282
52.903717 -14.545824 8.1491756
52.942959 -14.906618 8.1691599
55.137447 -16.257315 8.5379953
75.262627 -24.724445 11.766993
46.725552 -15.987929 7.3347993
45.866997 -16.325626 7.2309084
46.406612 -16.839211 7.3321543
42.573608 -16.042341 6.7570066
42.546406 -16.330912 6.7684684
42.289703 -16.530807 6.7436342
42.204021 -16.796564 6.7462792
42.12125 -17.063749 6.7496591
41.767929 -17.219711 6.709837
41.543819 -17.426315 6.6908808
41.105858 -17.539982 6.6375394
42.733295 -18.545149 6.9186473
40.086086 -18.878 6.5806708
40.326099 -20.214666 6.6995506
40.814312 -24.032675 7.0345879
40.311089 -24.070686 6.9731646
40.031483 -24.238173 6.950388
39.747974 -24.401064 6.9270234
39.511002 -24.59066 6.9118881
39.240582 -24.757687 6.8910217
38.908768 -24.883421 6.8594279
38.685635 -25.076498 6.8470845
38.469864 -25.273207 6.8362107
35.988064 -23.960222 6.4210873
35.842831 -24.182247 6.4215283
35.677444 -24.390556 6.4185891
35.471012 -24.570148 6.4084501
35.279099 -24.758923 6.4011025
35.108784 -24.962315 6.3978701
34.925259 -25.15588 6.3924327
34.735889 -25.344633 6.3861141
34.54472 -25.531424 6.3796487
34.335152 -25.703781 6.3699498
34.157082 -25.899035 6.3662763
33.978699 -26.093672 6.3627496
33.798431 -26.286488 6.359076
33.603088 -26.467062 6.3527575
33.42614 -26.661644 6.3501124
33.259609 -26.864378 6.3496714
33.070408 -27.048536 6.3451161
32.769741 -27.1399 6.3192534
32.505585 -27.259109 6.3004446
33.234234 -28.219259 6.4751635
32.968948 -28.343981 6.4572363
31.450687 -27.376139 6.1925859
31.136669 -27.44042 6.1637845
30.884308 -27.556541 6.1471796
30.597935 -27.640102 6.1238151
30.289804 -27.701166 6.0960422
30.069181 -27.84013 6.0859027
29.879026 -28.006519 6.0820823
29.743214 -28.224051 6.0895767
29.567333 -28.403963 6.0891356
29.457022 -28.647606 6.1025076
29.406158 -28.951332 6.1286645
29.304327 -29.207331 6.1446815
29.56045 -29.826382 6.2366695
29.751242 -30.389582 6.3161678
29.507828 -30.513254 6.3041182
29.284519 -30.656544 6.2964768
29.057169 -30.794645 6.2881012
28.827202 -30.928944 6.279284
28.602716 -31.068129 6.27179
28.392914 -31.222557 6.2676754
28.167749 -31.359392 6.2603283
27.942635 -31.49538 6.2531276
14.676058 -16.748413 3.3064141
13.511385 -15.611582 3.0654223
13.8524 -16.20546 3.1653457
13.741856 -16.277304 3.1628475
13.195132 -15.82573 3.0592506
13.093378 -15.901051 3.0582218
12.845159 -15.796144 3.0228078
12.899119 -16.062843 3.0586627
12.472107 -15.727832 2.9801934
12.432086 -15.876489 2.9938595
12.621842 -16.324156 3.063659
12.358772 -16.188238 3.0238364
12.552156 -16.652376 3.0961339
12.301513 -16.529913 3.0592506
12.302936 -16.745373 3.085113
12.129101 -16.722864 3.0671856
11.911092 -16.636126 3.0377963
11.75227 -16.628929 3.0232487
11.384588 -16.320253 2.9543309
11.233188 -16.315662 2.9409587
11.136757 -16.390009 2.9419873
11.026615 -16.444069 2.9394894
10.874743 -16.434702 2.9258232
11.256624 -17.240721 3.0570464
11.134554 -17.284519 3.0526378
11.011311 -17.3258 3.0479357
9.8575592 -15.722836 2.7550716
9.8046055 -15.853688 2.7674153
9.6885996 -15.883151 2.7621253
9.6368551 -16.018581 2.7753503
9.5499935 -16.096975 2.7787302
9.3826132 -16.038305 2.7585983
10.218888 -18.765638 3.1725461
10.109633 -18.839317 3.1744564
15.080522 -28.520479 4.7910123
15.209149 -29.195839 4.8887315
17.636909 -34.369007 5.7370524
17.721083 -35.060982 5.834331
18.139908 -36.443295 6.0457864
11.517724 -23.500168 3.8861172
16.887444 -34.997272 5.770997
14.015152 -29.506241 4.8509665
13.840544 -29.606016 4.8533177
11.308779 -24.582699 4.018075
13.733571 -30.342243 4.9460406
10.736279 -24.1133 3.9194739
10.525425 -24.035563 3.8962564
10.423131 -24.205078 3.9133022
10.488453 -24.774109 3.9948573
9.8205051 -23.598764 3.7954514
9.6380768 -23.567024 3.7807567
9.8290043 -24.901678 3.9753137
9.251276 -23.865866 3.8007414
9.2768946 -24.831907 3.9362259
8.7314205 -23.81665 3.76665
8.6062117 -23.928417 3.7759075
9.1075048 -25.81839 4.0653915
8.1662159 -24.088394 3.7767892
8.024807 -24.157761 3.779875
6.8807759 -22.063433 3.4316123
6.7591257 -22.15065 3.4386659
6.6635408 -22.327244 3.4596791
6.5330682 -22.390501 3.4632058
6.3988142 -22.441578 3.4649692
12.566142 -52.52515 8.0214796
10.972067 -51.406349 7.8070846
9.5572844 -49.197372 7.4435396
9.252677 -49.241478 7.4414821
9.4066401 -53.682068 8.0946589
6.4653478 -39.761799 5.9827466
6.2670841 -40.093906 6.0268307
5.9999657 -39.991722 6.0058174
5.7501044 -39.997433 6.0012617
5.497704 -39.981983 5.9937677
5.2598715 -40.07283 6.0024376
4.9794044 -39.828548 5.9611454
4.7681866 -40.13829 6.0030251
4.5359793 -40.292606 6.0218344
5.6240292 -59.844761 8.927844
3.4853311 -55.230904 8.2195625
-1.4208387 -48.948078 7.2729349
-1.695122 -48.198032 7.1628723
-2.0057261 -48.547451 7.2165074
-2.8240538 -47.248333 7.0298858
-2.8119102 -39.000748 5.8071456
-3.0491552 -38.957119 5.8033252
-3.372931 -39.942043 5.9530635
-3.5377007 -39.034981 5.8209586
-3.9265859 -40.556301 6.0513706
-4.1498222 -40.283493 6.0143399
-4.3926234 -40.217937 6.0084624
-4.6382933 -40.181385 6.0071397
-5.1637607 -42.445904 6.3504062
-5.0092092 -39.168739 5.8644547
-5.2937579 -39.467651 5.9139757
-5.7105303 -38.941692 5.8452048
-6.0867567 -39.804504 5.9802485
-6.4988608 -39.26815 5.9111838
-7.5899925 -41.144737 6.2137461
-8.0880156 -41.016472 6.2088971
-8.3373661 -40.95541 6.2072806
-8.3242912 -39.645035 6.0162501
-8.7796249 -39.402798 5.9953842
-7.535491 -32.867279 5.0076113
-7.7932997 -33.059189 5.044054
-9.4892111 -39.175877 5.9864202
-8.0143347 -32.220978 4.9307585
-9.8597603 -37.66161 5.781724
-10.308335 -37.491047 5.7745237
-9.5079966 -33.768066 5.2098093
-9.714467 -33.707191 5.2095151
-9.6479387 -31.995375 4.9627924
-8.9705992 -29.101679 4.5222478
-9.1433487 -29.028162 4.5194554
-9.5266647 -28.99835 4.532681
-9.8728352 -28.853056 4.5285664
-10.86619 -31.131346 4.8966665
-9.9823837 -28.044796 4.4205608
-9.9626408 -27.454874 4.3370953
-10.310662 -27.362022 4.3420916
-10.486865 -27.320406 4.3456182
-11.885666 -29.864065 4.773232
-11.134798 -26.544384 4.2744961
-11.285428 -26.447359 4.2699409
-11.456944 -26.399393 4.2734675
-12.90814 -29.250698 4.7479572
-15.210417 -32.29792 5.3017974
-15.422396 -32.233429 5.3066468
-14.189118 -28.305315 4.7019629
-15.283645 -30.027512 5.0036435
-16.750355 -31.002731 5.2331738
-24.646925 -43.05743 7.368597
-18.031191 -31.056019 5.333097
-25.702028 -43.043182 7.4458904
-26.019958 -42.974358 7.4614668
-17.752348 -28.523193 4.989243
-36.436623 -57.75214 10.142649
-39.368488 -59.131962 10.5516
-39.991802 -58.49905 10.525444
-40.333096 -58.228172 10.521035
-42.341949 -60.334091 10.948355
-42.665504 -60.008659 10.9366
-42.993019 -59.690353 10.92646
-43.807522 -59.273613 10.947767
-47.147884 -61.396023 11.498228
-49.558186 -62.921001 11.896894
-40.389355 -46.980251 9.2021923
-42.034859 -47.111591 9.3779402
-42.027016 -44.289619 9.0686188
-18.21418 -16.563072 3.6555586
-29.745104 -20.212019 5.3407383
-29.87678 -20.034636 5.3422079
-29.89356 -19.781067 5.3233986
-30.352745 -19.553627 5.3620458
-30.529753 -19.403629 5.3721848
-31.75318 -19.370005 5.5238333
-31.952761 -18.957685 5.5176616
-31.316319 -18.321211 5.3882022
-31.873262 -18.125746 5.445364
-33.066704 -18.007179 5.5917225
-31.366329 -16.832453 5.2865152
-33.243454 -17.05929 5.549108
-32.537514 -15.947335 5.3812957
-32.59021 -15.725895 5.3739481
-32.635162 -15.501437 5.3655725
-32.716221 -15.294616 5.363368
-32.820236 -15.098547 5.3651314
-33.070816 -14.724832 5.3761525
-28.773722 -12.181865 4.6400986
-28.842445 -12.002803 4.6392169
-28.965904 -11.846198 4.6472988
-29.020609 -11.661236 4.6445069
-34.051636 -13.440881 5.4366941
-31.564955 -12.235961 5.0274487
-34.09938 -12.978371 5.4184728
-31.630264 -11.816878 5.0143704
-31.640882 -11.600103 5.0046721
-33.760174 -10.985313 5.2724085
-48.556587 -15.471441 7.5690317
-34.253155 -10.682703 5.3285418
-37.290611 -11.37948 5.790247
-37.361626 -11.151021 5.7905407
-49.205563 -14.357992 7.6129684
-32.887924 -9.377737 5.078733
-32.693287 -9.1056957 5.0399394
-32.936577 -8.9560556 5.0688877
-34.620987 -9.1863508 5.3194313
-34.665207 -8.9707727 5.317668
-35.954918 -9.0695324 5.5069346
-35.981071 -8.8416643 5.5025263
-36.077934 -8.6310797 5.5091386
-34.815189 -8.1034412 5.308557
-32.740292 -7.1980863 4.9782219
-32.902824 -7.0224576 4.9962964
-33.043125 -6.840692 5.011138
-51.863953 -10.405985 7.8566055
-52.020042 -10.105667 7.8707123
-52.027599 -9.7762403 7.8626304
-14.84688 -2.6950901 2.2398782
-14.777399 -2.5889158 2.2269468
-14.548199 -2.4568408 2.1900632
-14.372618 -2.3365688 2.1614087
-14.54989 -2.2738492 2.1859488
-17.560753 -2.6342509 2.6361921
-17.588335 -2.5281398 2.6379554
-17.54962 -2.4127605 2.6298735
-17.450331 -2.2900982 2.6128278
-17.365904 -2.1707094 2.5981331
-17.440777 -2.0714653 2.6073906
-17.506237 -1.9703881 2.6153259
-17.380295 -1.8482853 2.5947533
-17.353909 -1.7378602 2.5891693
-17.332731 -1.628384 2.5844672
-17.357176 -1.5232995 2.5866714
-17.596889 -1.4355987 2.6210568
-32.079926 -2.4196782 4.7774935
-17.997435 -1.1352561 2.6771903
-17.841118 -1.0155233 2.6529441
-18.148314 -0.92134076 2.6977627
-34.02248 -1.5185997 5.0575728
-17.520727 -0.6740132 2.6029823
-32.028679 -1.0359268 4.758831
-32.151108 -0.84244287 4.7761707
-32.197208 -0.64598572 4.7823424
-34.361637 -0.47855604 5.1034203
-34.458881 -0.26844966 5.117527
-34.476692 -0.057037029 5.1200252
-17.217976 0.077510156 2.5561066
-17.115299 0.18207653 2.540971
-17.190014 0.28836504 2.5522859
-17.16221 0.39324746 2.5484653
-34.15868 0.99174899 5.0749125
-32.343925 1.1377617 4.8061476
-32.430225 1.3400766 4.8201079
-33.170319 1.5745749 4.9314928
-32.844948 1.7611861 4.8846173
-32.32539 2.1314518 4.8108501
-32.286049 2.3279076 4.8070292
-32.406258 3.1376536 4.8349495
-32.435596 3.3415027 4.8422966
-32.116028 3.7074175 4.8010049
-37.77792 4.595953 5.6518235
-33.189575 4.2446527 4.9689641
-40.098553 5.629046 6.0136051
-38.14521 5.8330526 5.7308807
-39.406723 6.5217924 5.9320502
-39.362064 6.7627945 5.9314623
-36.160744 8.0572977 5.5019383
-37.205112 9.0118866 5.6851802
-37.337074 9.5303946 5.7227988
-37.395004 10.035544 5.7501307
-47.789684 13.139795 7.3612494
-39.058304 11.256553 6.0368228
-39.00246 11.76071 6.0500479
-43.071259 13.857387 6.7198291
-42.608585 13.997617 6.6609035
-26.606945 9.1043262 4.1758952
-24.782286 8.8211966 3.9061019
-26.152187 9.4899645 4.1312237
-26.001366 9.7979708 4.1260805
-25.905666 9.9438591 4.1204963
-25.651619 10.027365 4.0897846
-25.53079 10.161164 4.08038
-25.13792 10.183929 4.0274796
-25.004545 10.308952 4.0161648
-24.773897 10.392167 3.9892735
-25.306486 10.798635 4.08567
-24.065304 10.619994 3.9059548
-42.973598 19.279499 6.9953532
-25.239948 11.510417 4.1193209
-42.729286 19.80332 6.9946184
-31.632874 15.374302 5.2231812
-31.477629 15.538336 5.2131891
-31.371082 15.725868 5.2114258
-31.260981 16.1537 5.2256794
-31.156021 16.342453 5.2247977
-31.264709 16.644871 5.2600651
-31.152637 17.079113 5.276082
-31.067137 17.281 5.2794619
-31.004454 17.49609 5.2869558
-5.1530991 3.0777376 0.88988268
-5.167963 3.1297908 0.89576054
-5.1587777 3.1676517 0.89752388
-5.1148901 3.1840887 0.89326245
-4.9923587 3.1504953 0.87518805
-37.755463 24.145868 6.6560545
-47.04187 33.013767 8.5359383
-59.355473 58.436432 12.372265
-30.889786 30.787491 6.477221
-13.262216 14.584479 2.9267049
-13.208832 14.706053 2.934787
-12.393061 14.143205 2.7918084
-6.0171819 6.9530725 1.3642253
-5.9339128 6.9424949 1.3549676
-5.89886 6.987844 1.3567309
-5.830534 6.9935193 1.3508531
-5.7743087 7.0131278 1.3477672
-5.8703399 7.2195592 1.3805363
-28.526405 35.521645 6.766264
-6.0277672 7.6018333 1.4394617
-5.9279523 7.5709229 1.4266775
-5.9788022 7.7331352 1.4503357
-5.9786601 7.8317847 1.4619445
-5.8399887 7.7482624 1.4396087
-5.9382057 7.9799447 1.4759045
-5.9061146 8.0393467 1.4801658
-5.625524 7.7567611 1.4216813
-5.849628 8.1707325 1.4910399
-5.7725501 8.1685066 1.4841334
-5.0194182 7.196209 1.3016261
-4.7126417 6.8455925 1.2328553
-5.3048835 7.8078623 1.4005209
-5.8667393 8.749691 1.5631905
-5.3937178 8.15201 1.4503357
-21.7453 33.304066 5.9070692
-21.55929 33.465969 5.9122124
-21.366806 33.618492 5.9158859
-5.4605408 8.7101593 1.5254253
-21.003115 33.959766 5.93014
-4.346673 7.1265159 1.2382923
-4.2075047 6.9945579 1.2108133
-4.1261482 6.9555917 1.1996454
-4.0594158 6.9397974 1.192592
-3.821033 6.6252794 1.1344013
-3.9230931 6.8996687 1.1773096
-4.9786897 8.8821859 1.5108776
-4.9264879 8.9168959 1.5116124
-4.938859 9.0703087 1.5324787
-4.8672085 9.0708094 1.5274825
-4.6556368 8.8058233 1.4779617
-4.7614703 9.1412582 1.5293928
-4.6849685 9.1307011 1.5227803
-3.7319744 7.3848834 1.2274183
-3.6813021 7.3970175 1.225655
-3.6314919 7.410584 1.2241855
-3.5713372 7.4024386 1.2191893
-3.5360353 7.4456558 1.222716
-4.6347728 9.9152317 1.6241732
-17.541824 38.131004 6.2335839
-3.2890706 7.2679787 1.1833344
-3.6009007 8.088625 1.3135288
-17.011976 38.847004 6.2983871
-4.0976148 9.5167322 1.5374749
-4.0460854 9.5580912 1.5401199
-16.445311 39.517017 6.3568716
-3.6802292 9.0000257 1.4426945
-3.913357 9.7401657 1.5576066
-3.0599592 7.7536716 1.236529
-3.8457353 9.9221067 1.5790607
-3.7573361 9.8734102 1.5675989
-3.6347158 9.7304201 1.5412955
-10.681785 29.1362 4.6083579
-3.4441352 9.7648916 1.5364463
-2.7546022 7.9657817 1.2503419
-2.67296 7.8860459 1.2352064
-2.4308639 7.3193665 1.1439527
-2.3837647 7.3275599 1.1429242
-3.2360733 10.158107 1.5819997
-3.2057858 10.280698 1.5980167
-2.6974409 8.8413343 1.3714256
-2.8046811 9.3989267 1.4553319
-2.9675186 10.171795 1.5723011
-2.8969119 10.161274 1.5678928
-2.7211776 9.7719831 1.5051467
-2.7945814 10.279099 1.5806772
-2.7022817 10.186107 1.5637783
-2.6736827 10.333686 1.5839099
-2.4328775 9.6468782 1.4761983
-2.3700988 9.6472158 1.4739941
-2.2876139 9.5644159 1.4591526
-6.9018884 29.653357 4.5212188
-6.712822 29.664276 4.5165167
-6.5230322 29.670128 4.5112267
-6.3524199 29.763765 4.5194554
-6.2388606 30.136353 4.5701523
-6.6339226 33.065079 5.0081987
-5.9291258 30.522331 4.617322
-5.5877323 29.73863 4.4934464
-5.3765268 29.614695 4.4696407
-5.1641517 29.472727 4.4433374
-5.0024896 29.617971 4.4605303
-4.1519294 25.535852 3.8415926
-3.9467363 25.251051 3.7950106
-3.734482 24.893295 3.7377014
-3.5297248 24.554462 3.6834784
-3.3382974 24.279722 3.6391006
-3.1479297 23.984936 3.5919309
-2.9647431 23.716219 3.5488756
-2.7887082 23.4776 3.5105226
-2.6059756 23.151226 3.4592383
-2.43876 22.930717 3.4239712
-2.2677433 22.643093 3.3788586
-2.0997012 22.347355 3.3327174
-1.9427288 22.134171 3.2990668
-1.7791984 21.806538 3.2485173
-1.6281722 21.589199 3.2145727
-1.4806324 21.381693 3.1822445
-1.3365735 21.187014 3.1519737
-1.1912473 20.926205 3.1120043
-1.0526357 20.732584 3.0821741
-0.91273874 20.455048 3.0400004
-0.7816546 20.315956 3.0185463
-0.65036017 20.115725 2.9881284
-0.52168214 19.919598 2.9584453
-0.39315143 19.608929 2.9118633
-0.27101883 19.481405 2.8926134
-0.14972441 19.258173 2.8592567
-0.031245939 19.073759 2.8317776
0.085056476 18.909397 2.8073845
0.1996237 18.771034 2.7869592
0.31160253 18.578579 2.7585983
0.42084268 18.368652 2.7277398
0.53113306 18.282669 2.7153962
0.63531029 18.051704 2.6815987
0.73891848 17.874512 2.6558831
0.84107959 17.711557 2.6323717
0.94534564 17.624081 2.6201751
1.0416077 17.419485 2.5906389
1.1388434 17.266691 2.5688908
1.2346702 17.119282 2.5480244
1.3294258 16.980228 2.5284805
1.4196092 16.806166 2.5037935
1.5108314 16.666119 2.4842498
1.6038197 16.561033 2.469996
1.7046967 16.543993 2.4689674
1.8051028 16.52339 2.4674978
1.907135 16.517897 2.4683795
2.0143034 16.553999 2.47558
2.1364145 16.702236 2.4996791
2.2480607 16.757441 2.5099654
2.3610144 16.815815 2.5208395
2.4787869 16.900837 2.5358279
2.6000831 17.000689 2.5531676
2.7166326 17.061586 2.5647762
2.8282135 17.086557 2.571095
2.9582899 17.216087 2.5932839
3.0810421 17.29402 2.6078315
3.2009137 17.349689 2.6191463
3.3267748 17.431742 2.6345758
3.4495535 17.49155 2.6467724
3.5818717 17.593151 2.6654346
3.7121105 17.677326 2.6815987
3.847909 17.780863 2.7008486
3.9698441 17.814846 2.7096653
4.1047182 17.901993 2.726711
4.2453494 18.007404 2.7466958
4.3853316 18.103107 2.765358
4.5092192 18.127693 2.773293
4.6778493 18.324913 2.8078253
4.8084874 18.365719 2.8185525
4.969027 18.514519 2.8460314
5.1061363 18.569519 2.8592567
5.2559018 18.665424 2.8789475
5.3958049 18.721216 2.8926134
5.555891 18.841455 2.9164188
5.7245073 18.983158 2.9437506
5.8767142 19.063944 2.9618251
6.0197272 19.11055 2.9747565
6.1980662 19.26346 3.0044396
6.3741841 19.401737 3.0320654
6.5267587 19.462608 3.0477886
6.7049751 19.594397 3.0748267
6.869081 19.678963 3.0946646
7.048737 19.80232 3.120821
7.2234159 19.905609 3.1440384
7.4480004 20.138306 3.1879754
7.6070008 20.18664 3.2029641
7.7998371 20.31966 3.2316184
7.9913483 20.442774 3.2589505
8.2033148 20.611166 3.2937768
8.3734512 20.668625 3.3111165
8.6313095 20.935097 3.3622537
8.786767 20.946505 3.3726869
9.0211029 21.140568 3.4128032
9.2195587 21.24361 3.4385188
9.4543571 21.423738 3.4770188
9.6625586 21.536797 3.5049386
9.9049215 21.7192 3.5444672
10.104134 21.800711 3.5678315
10.289543 21.848373 3.585906
10.591181 22.135492 3.6436558
10.81976 22.261362 3.6752493
11.063852 22.41275 3.7113981
11.375808 22.692844 3.769295
11.837874 23.257322 3.8750963
12.030758 23.281792 3.8914073
12.279519 23.409882 3.9253519
12.482425 23.445856 3.9441609
12.67918 23.467161 3.9607658
12.942284 23.60663 3.9976494
13.215744 23.758438 4.0370312
13.675299 24.233402 4.1319585
14.001124 24.458939 4.1850061
14.218481 24.488907 4.2049904
14.500468 24.625376 4.2436376
14.833343 24.840826 4.296391
15.155569 25.03026 4.3451772
15.555706 25.3389 4.4152708
15.723955 25.263968 4.4189444
15.853343 25.126856 4.411891
15.960857 24.956612 4.3991065
16.075487 24.799276 4.3886733
16.186619 24.638168 4.3776526
16.294186 24.473339 4.3660436
16.400894 24.308941 4.3545818
16.504526 24.141706 4.342679
16.647842 24.033478 4.3415036
16.848406 24.006985 4.3553166
17.282545 24.307039 4.428937
17.688618 24.557707 4.494328
18.242994 25.002462 4.5961614
18.45838 24.974375 4.6117377
19.033918 25.425238 4.7165108
19.526625 25.752512 4.7993884
19.972839 26.007998 4.8697758
20.509146 26.369839 4.9610291
21.10449 26.794439 5.0652142
21.556538 27.02557 5.1338382
22.149561 27.422207 5.2349372
22.748245 27.812563 5.3360362
23.372726 28.220963 5.4418373
23.999886 28.618937 5.5469041
24.812687 29.222136 5.6932626
25.285564 29.411369 5.7602701
26.076654 29.957743 5.8985462
27.498625 31.202715 6.1768627
27.657955 30.997972 6.1698093
28.53587 31.589594 6.3223395
29.427402 32.177422 6.4760451
30.3319 32.760548 6.6307797
30.783979 32.842285 6.6854439
30.989681 32.657803 6.6864724
31.151794 32.427807 6.6783905
31.340528 32.226124 6.676333
31.521017 32.0163 6.6728063
31.68964 31.794962 6.6670756
19.521461 19.347073 4.0812616
32.942554 32.250671 6.8469377
20.205429 19.300814 4.1492982
18.553701 17.506496 3.7878101
18.786783 17.295586 3.7917776
18.814981 17.109444 3.7762015
19.079292 17.13711 3.8080888
20.847395 18.495451 4.1384239
23.015959 19.431234 4.4730206
19.492777 16.252842 3.7685602
19.628021 16.162483 3.7754667
22.317604 18.148668 4.2715573
20.812822 16.71381 3.9637048
21.990702 17.438889 4.1676664
19.697905 15.424658 3.7149248
21.969864 16.987408 4.1238761
20.053951 15.310226 3.7463713
22.493864 16.740179 4.1636987
23.760731 17.457525 4.378387
32.64204 23.371786 5.9623213
21.331299 14.880423 3.8620181
22.333036 15.376405 4.0263038
23.888138 16.232002 4.2887502
22.086283 14.810303 3.9487164
24.426365 15.948543 4.3319521
22.919754 14.764997 4.0484929
22.299509 14.172557 3.9234416
26.449989 16.358358 4.6183505
24.973799 14.816868 4.3121142
25.141748 14.502367 4.3100572
25.23456 14.350271 4.310792
1.5949061 0.89333463 0.2697694
1.4081588 0.77732694 0.23714733
1.7256263 0.93898022 0.290048
1.7287407 0.92697114 0.28960714
1.7641261 0.93206733 0.29460332
1.8005154 0.93722063 0.29974645
1.8027121 0.92434871 0.29915866
1.8065842 0.91237766 0.29886478
1.8068354 0.8986308 0.29798308
1.8025452 0.88273859 0.29636669
1.8008009 0.86822271 0.29519111
1.7953727 0.85206389 0.29342777
1.8014631 0.84145057 0.29357469
1.791316 0.82335317 0.2910766
1.7864218 0.80785948 0.28946021
1.7904415 0.79648066 0.28931326
1.7898585 0.78309888 0.28843158
1.7855451 0.76818949 0.28696212
1.7856706 0.75529081 0.28622738
1.7838788 0.74165946 0.28519878
1.7819873 0.72807872 0.28417015
1.7891746 0.71823746 0.28461099
1.7981482 0.70906168 0.2853457
1.8052319 0.69908768 0.28578654
1.8205807 0.69222021 0.28754991
1.842399 0.68761396 0.29034188
1.8419399 0.67459375 0.28960714
1.8627982 0.66930538 0.29225218
1.8733995 0.66016638 0.29328081
1.8718063 0.64671892 0.29239914
1.8879172 0.63935035 0.29430944
1.9058851 0.63243204 0.29651362
1.9398289 0.63052052 0.30121592
1.924812 0.61259997 0.29827699
1.7604525 0.54835385 0.27212054
37.146469 11.086801 5.757184
37.175816 10.847583 5.7513061
37.4557 10.680304 5.784369
38.469589 10.714631 5.9307275
39.628353 8.7126036 6.025949
39.681068 8.469285 6.025949
72.800453 5.941422 10.849314
74.822029 5.6444921 11.145263
73.029762 4.6087465 10.869004
73.400337 4.1801324 10.920141
73.64193 3.7407193 10.95247
73.578514 3.2849956 10.939832
72.208565 2.7799864 10.733373
72.068069 2.331815 10.710155
74.576752 1.9550185 11.081048
74.870186 1.503068 11.123075
75.517014 0.58913451 11.217267
76.046989 0.1656917 9.9696999
76.065414 -0.30100155 9.9721699
51.065128 -9.0688753 6.7988281
5.4781132 -1.0422041 0.72957844
5.5329065 -1.0878507 0.73776889
5.5513916 -1.1269088 0.74114907
5.579309 -1.168267 0.74582928
5.6020803 -1.208964 0.74985951
5.5945573 -1.243315 0.74985951
5.5510607 -1.2694395 0.74504924
5.7333069 -1.3481947 0.77066064
5.7442021 -1.3880066 0.77326077
5.7596354 -1.4291968 0.77651095
5.7478752 -1.4637761 0.77612096
54.006844 -14.108739 7.3174262
53.257866 -14.965518 7.2520328
73.060181 -21.014597 9.9664497
73.253258 -21.557663 10.010653
46.51923 -15.890326 6.4440389
46.192757 -16.734444 6.4403987
42.301586 -15.914657 5.9245305
42.197582 -16.171785 5.9237504
42.34325 -16.526293 5.9583321
41.87801 -16.641529 5.9071097
43.038822 -18.027039 6.1166811
42.782516 -18.540035 6.1121306
42.706512 -19.132967 6.1343617
40.319805 -18.361567 5.8075242
40.242374 -18.625277 5.8127246
40.615349 -20.022446 5.9358411
40.503258 -20.27705 5.937531
40.416142 -20.857592 5.9618425
38.927807 -20.392937 5.7605915
40.381847 -24.084421 6.1634836
40.10265 -24.252729 6.1434622
39.811924 -24.411781 6.1217513
39.487076 -24.547243 6.0948396
39.227505 -24.720877 6.0780687
38.993198 -24.908796 6.0653281
38.676498 -25.041965 6.0398469
38.474033 -25.247257 6.0323062
37.181534 -24.726799 5.8532867
37.00362 -24.937298 5.8492565
36.929337 -25.218113 5.861867
36.815491 -25.473005 5.8684974
36.780281 -25.783794 5.8879986
36.684437 -26.053772 5.898139
36.51503 -26.272003 5.896709
36.318684 -26.470449 5.8911185
36.070229 -26.629784 5.8772078
35.828339 -26.792414 5.8644671
35.570793 -26.941706 5.8492565
35.310406 -27.087038 5.8336554
35.052715 -27.232624 5.8185749
34.840542 -27.412245 5.8111644
34.573204 -27.547035 5.7946534
34.31942 -27.69079 5.7804828
33.156845 -27.090326 5.6125135
33.419338 -27.648468 5.6855774
33.580452 -28.130613 5.7422605
33.23481 -28.189898 5.7126188
33.077011 -28.406858 5.7153492
32.849712 -28.563738 5.7062488
32.613548 -28.711691 5.6957178
32.375332 -28.856508 5.6849275
32.188091 -29.04598 5.6832376
31.970465 -29.207491 5.6763468
31.783369 -29.396378 5.6750469
31.505415 -29.500031 5.6576262
31.229549 -29.603432 5.640595
30.99581 -29.745066 5.6312346
30.793512 -29.916037 5.6277242
30.586042 -30.081476 5.6234341
29.490984 -29.362629 5.4550748
29.32074 -29.553587 5.4570251
29.70376 -30.309372 5.562851
29.529638 -30.503883 5.5651908
29.319302 -30.660852 5.5609007
29.097258 -30.804853 5.5545301
28.878609 -30.951637 5.5489402
28.62969 -31.064819 5.5376296
28.418516 -31.217907 5.5337291
28.190634 -31.351877 5.5267091
14.404224 -16.218403 2.8425832
27.722046 -31.602289 5.510458
13.567189 -15.658811 2.7150462
13.859578 -16.196028 2.7934406
13.38041 -15.831695 2.7163463
13.152133 -15.756691 2.6895649
13.075385 -15.861576 2.6937251
13.039785 -16.017632 2.7065957
12.77228 -15.88715 2.6712339
12.844708 -16.17955 2.7071159
13.071844 -16.674753 2.7765396
12.500142 -16.148565 2.676044
12.277994 -16.064255 2.6495225
12.170237 -16.127417 2.6475725
12.016553 -16.128637 2.635612
12.135908 -16.499193 2.6839745
12.052502 -16.598217 2.6880047
11.961983 -16.687975 2.6906049
11.731081 -16.579754 2.6614833
11.601312 -16.611589 2.655113
11.538556 -16.739607 2.6642134
11.650336 -17.125715 2.7142661
11.137734 -16.590172 2.6184509
11.010541 -16.620174 2.6124706
10.845965 -16.59198 2.5975199
10.899263 -16.899025 2.6350918
11.115268 -17.468336 2.7132261
9.8581905 -15.704655 2.4296808
9.7924404 -15.814586 2.4373512
9.7484493 -15.961529 2.4507418
9.6462345 -16.01425 2.4497018
9.5482979 -16.073988 2.4498317
9.4439774 -16.122862 2.4484017
10.137995 -18.867556 2.8068311
22.679432 -42.836964 6.3538136
14.979949 -28.718781 4.2454891
14.815233 -28.833084 4.2488694
14.563344 -29.219484 4.279161
11.638295 -23.714022 3.4620667
17.014866 -35.21413 5.1264172
14.031134 -29.499609 4.2816315
13.912498 -29.718948 4.3010025
11.1221 -24.142889 3.483778
10.840739 -24.312872 3.4888482
10.692549 -24.381659 3.4892383
8.2419291 -19.111506 2.727397
8.1968832 -19.33242 2.7517083
8.0864992 -19.402485 2.7545683
7.9823279 -19.48844 2.7597687
7.8725934 -19.561886 2.7632787
7.7586126 -19.625498 2.7654889
7.6211805 -19.629293 2.7593787
9.3070831 -24.414633 3.4243648
9.0090742 -24.075684 3.3689816
8.5406103 -24.170122 3.3596213
6.8926368 -22.059528 3.0287533
6.7846913 -22.191483 3.0411038
6.637321 -22.195648 3.0360336
6.5210385 -22.304476 3.0453942
6.4230089 -22.480402 3.0639851
6.2737565 -22.479277 3.0585248
13.318651 -52.683529 7.1235857
11.71003 -51.620487 6.9388456
11.514929 -52.244251 7.0130796
11.023196 -51.515003 6.9059539
8.0270033 -38.670731 5.17699
9.6277771 -49.42308 6.6005673
7.3913245 -39.223114 5.231853
7.1675687 -39.361374 5.2443337
6.9066935 -39.295238 5.2297726
6.6899676 -39.48156 5.2490139
5.6839099 -39.390472 5.2167721
5.345984 -38.728226 5.1245971
4.5575161 -40.294083 5.3154473
6.0776958 -80.016739 10.52041
3.516679 -55.272282 7.2603531
3.1736577 -55.226494 7.2516427
2.1336994 -54.689026 7.1746783
0.73187971 -27.376902 3.5893438
0.56429261 -27.400703 3.5919437
0.39500841 -27.324337 3.5815432
0.22620466 -27.189423 3.5636022
-1.1056679 -49.43251 6.4816108
-2.4737933 -86.772812 11.380667
-1.9750344 -48.415077 6.3518639
-2.2311037 -47.529488 6.2373276
-2.7542 -46.485989 6.1043301
-3.7250538 -41.343315 5.4412942
-3.9388409 -40.906147 5.3868213
-4.1396208 -40.391979 5.3223376
-4.3257766 -39.799038 5.2475839
-4.5650301 -39.729389 5.2419934
-4.8064542 -39.681931 5.2395234
-5.2599211 -41.301136 5.4575453
-6.1539974 -42.119549 5.579752
-7.476634 -39.292736 5.2429032
-7.7499213 -39.410534 5.2648745
-8.2949553 -39.608456 5.3045268
-8.5928488 -39.81171 5.3387184
-7.633182 -33.374275 4.4874325
-7.8230643 -33.264072 4.478982
-7.9963899 -32.221527 4.3514452
-8.2125454 -32.244881 4.3613257
-8.4656973 -30.85288 4.1933565
-9.6774321 -33.645329 4.5888381
-9.8590593 -33.50161 4.5773973
-9.6126566 -31.939415 4.3718562
-11.267498 -36.621983 5.0224113
-11.504782 -36.592827 5.0280018
-11.738493 -36.550812 5.032032
-9.5297146 -29.059654 4.0083566
-9.8904104 -28.954596 4.0103064
-10.060057 -28.870893 4.0071864
-26.956667 -73.007271 10.202803
-11.129008 -29.581369 4.1425238
-10.7071 -27.938581 3.9215117
-11.934889 -30.034014 4.2359986
-12.100358 -29.914257 4.2294984
-28.908081 -70.222649 9.9556589
-29.231159 -69.78788 9.9192572
-29.592358 -69.451225 9.8970261
-29.862213 -68.908989 9.8456736
-12.959901 -29.410147 4.2124677
-12.140427 -27.098705 3.89187
-12.294556 -26.997536 3.8880999
-31.008762 -66.998222 9.678484
-15.17577 -32.268429 4.6739926
-15.50685 -32.453831 4.7145548
-13.404543 -27.617134 4.0235672
-13.630302 -27.649088 4.040338
-19.209551 -38.370956 5.6248641
-14.378334 -28.285833 4.1589046
-15.865744 -30.74345 4.5346251
-16.973074 -30.99795 4.6322603
-17.356527 -31.24165 4.6845231
-17.42424 -30.915169 4.6515012
-24.712048 -43.223286 6.5267229
-24.906164 -42.949043 6.5082622
-25.314995 -43.043266 6.5459642
-25.678173 -43.054031 6.5714455
-35.673893 -58.98772 9.0372896
-35.897812 -58.543724 9.0028372
-17.795973 -28.626984 4.4181385
-36.439083 -57.821976 8.9599352
-36.780376 -57.577251 8.9568148
-28.690319 -42.572556 6.729794
-39.932701 -58.477139 9.2831326
-40.232086 -58.146217 9.2696123
-43.948425 -59.528233 9.7004557
-47.212288 -61.54525 10.169131
-49.516972 -62.935055 10.498439
-79.424011 -98.435974 16.582769
-42.284 -46.858028 8.274148
-42.571728 -46.028435 8.219285
-18.049608 -16.634834 3.2168734
-30.613789 -21.101786 4.8736835
-29.952553 -20.108315 4.7287254
-30.56719 -20.249966 4.8060799
-30.825315 -20.149914 4.8271408
-30.905045 -19.932447 4.8203807
-31.289434 -19.909578 4.8612027
-30.909662 -19.402515 4.7835884
-30.94046 -19.158207 4.7700677
-31.080276 -18.981953 4.7735782
-31.327812 -18.870186 4.7937288
-31.785694 -18.881168 4.8459921
-31.767485 -18.607603 4.8257108
-30.587992 -17.665552 4.62992
-32.8792 -18.720694 4.9593582
-32.031979 -17.978951 4.8147902
-33.576691 -18.575956 5.0298219
-33.197323 -18.100933 4.9562378
-33.014294 -17.739212 4.9125557
-33.168839 -17.3011 4.903585
-34.228596 -17.587555 5.0442529
-34.638847 -17.26438 5.0731144
-33.694649 -16.280687 4.9051452
-33.691837 -16.025085 4.8903241
-32.819702 -15.36405 4.7499166
-32.798088 -15.109282 4.7332759
-32.945267 -14.93272 4.7412062
-32.975597 -14.703238 4.7324958
-32.935345 -14.443684 4.7139049
-33.566895 -14.475724 4.7915192
-33.563801 -14.230785 4.7785182
-62.08128 -25.427589 8.7948265
-33.071217 -13.074008 4.661252
-30.158871 -11.709233 4.2404189
-34.097279 -12.998113 4.7830687
-31.813957 -11.904654 4.4523306
-31.906879 -11.716743 4.4551907
-50.321201 -17.780972 6.9963088
-49.111168 -17.015177 6.8133888
-48.205379 -16.370768 6.6736312
-32.617241 -10.854275 4.5057635
-33.801266 -11.018379 4.6599517
-33.041744 -10.54696 4.5461955
-34.178101 -10.679046 4.6934938
-48.959843 -14.96844 6.7113333
-49.055515 -14.669167 6.7119832
-34.33271 -10.037558 4.6885533
-33.022717 -9.4350204 4.5016031
-32.931004 -9.1906404 4.4813223
-32.993473 -8.9902306 4.4822321
-50.107162 -13.323618 6.7967477
-50.211006 -13.021889 6.7998681
-50.355328 -12.73008 6.8087087
-50.461372 -12.427979 6.8126087
-50.58971 -12.130836 6.8197589
-50.710503 -11.831233 6.8261294
-32.80661 -7.442204 4.4092984
-32.597 -7.1846399 4.3751063
-30.97864 -6.6288996 4.1522741
-31.051737 -6.4455447 4.1566944
-51.887459 -10.438695 6.9381957
-52.042988 -10.138133 6.9505463
-31.207991 -5.880971 4.1624146
-31.227879 -5.6865296 4.1603346
-52.548901 -9.2361441 6.9942284
-14.728276 -2.4957638 1.957105
-34.046726 -5.5544024 4.5216241
-34.076248 -5.3447762 4.5211043
-17.713108 -2.6670992 2.3471262
-17.38076 -2.5080953 2.3009737
-18.126844 -2.3890576 2.3957489
-17.574499 -2.2066448 2.3208649
-17.942139 -2.1410589 2.3676674
-17.950014 -2.0303705 2.3670173
-17.796503 -1.9024887 2.3451762
-41.189468 -4.1475325 5.4264736
-17.562847 -1.6597961 2.3115044
-17.727762 -1.5656947 2.3319154
-17.674782 -1.4517769 2.323725
-17.780247 -1.3506581 2.3364656
-17.968218 -1.2540975 2.360127
-17.8598 -1.1364573 2.3449161
-17.848619 -1.0258265 2.342576
-34.071255 -1.7483442 4.4717016
-31.609043 -1.4276092 4.1472039
-17.118437 -0.66801369 2.2446806
-17.033024 -0.56003302 2.23298
-32.12059 -0.85866076 4.2115574
-32.180767 -0.66269922 4.2188377
-35.902538 -0.29863086 4.7061043
-17.35947 -0.037975285 2.2745824
-17.27832 0.1742442 2.2640517
-34.187847 0.76462626 4.4822321
-34.165665 0.97390413 4.480022
-32.350616 1.1208546 4.2427592
-32.4422 1.323375 4.2557597
-33.688335 1.5813221 4.4204788
-33.573044 1.7824273 4.4066982
-38.52298 2.7571509 5.0624537
-40.858528 3.4287686 5.3746004
-41.035435 3.9512906 5.403852
-32.401588 3.3206768 4.2691507
-37.765526 4.1047425 4.9793792
-36.942734 4.2448211 4.8742032
-36.917374 4.7016039 4.8781037
-63.821922 8.5264473 8.4410772
-37.300854 9.014349 5.0300817
-38.199188 9.7291031 5.1669793
-34.821491 9.3253002 4.7250853
-47.691986 13.086277 6.4829106
-39.164055 11.005087 5.3324785
-39.132954 11.255876 5.3375487
-49.842503 15.670552 6.8491406
-42.98621 13.805293 5.9182901
-25.091154 8.3991318 3.467787
-25.256784 8.8006954 3.5053592
-25.201376 8.9551706 3.505229
-25.241972 9.1444197 3.5186198
-25.185387 9.2991295 3.5186198
-25.243856 9.4971323 3.5348706
-25.580444 9.8033571 3.5903838
-25.512423 9.9572468 3.5893438
-25.390953 10.089801 3.5808933
-25.324888 10.243919 3.5803733
-25.435225 11.022405 3.6331561
-24.109566 10.624103 3.4529662
-43.242184 19.372957 6.2113261
-43.159496 19.65477 6.2166562
-53.054768 24.555273 7.6638947
-24.536934 11.539612 3.5537217
-24.461193 11.687813 3.5530717
-51.447594 25.756145 7.5423384
-31.850487 16.190357 4.6832232
-31.95672 16.491884 4.7136445
-32.014778 16.771399 4.7373061
-31.303703 16.64447 4.6470809
-31.159975 16.814102 4.6409707
-31.178843 17.072123 4.6593018
-31.096039 17.275631 4.6626821
-30.890982 17.410608 4.647861
-31.051268 17.752876 4.6882935
-30.331911 17.589418 4.5958581
-30.553312 17.969223 4.6460409
-5.1870184 3.093426 0.79029173
-5.1891503 3.1380224 0.79354191
-5.1478219 3.1563275 0.79016173
-5.1258316 3.1862841 0.78977168
-5.0055242 3.1542397 0.77417082
-37.618675 24.030745 5.8514667
-31.091576 30.956266 5.7512312
-13.459232 14.603868 2.6024601
-12.977452 14.611903 2.5608578
-12.903244 14.709146 2.563978
-6.2733827 7.2403731 1.2545469
-6.2172351 7.2651696 1.2522068
-6.2557416 7.4016275 1.2691077
-5.3118119 6.363543 1.0852777
-5.7330589 6.9545236 1.1801829
-5.2301912 6.4244032 1.0846277
-6.3057981 7.8434801 1.3179904
-5.853138 7.372602 1.2327057
-6.083672 7.7603045 1.2913389
-5.7919631 7.4822927 1.2390761
-5.9115171 7.7343287 1.2748281
-6.0968738 8.0791225 1.3255308
-26.396465 35.429775 5.791533
-6.1412058 8.34902 1.3573825
-5.9890761 8.2477436 1.3348913
-5.2480764 7.3213191 1.1795329
-25.579727 36.152706 5.8053141
-25.225143 36.119572 5.7750225
-5.5029459 7.9832387 1.2697577
-5.3752236 7.9012609 1.2514267
-5.3421154 7.9571443 1.255067
-21.934341 33.109776 5.2059813
-21.737282 33.253696 5.2075415
-21.548414 33.410614 5.2113118
-21.38825 33.613308 5.2223625
-17.570717 27.991436 4.3318138
-21.032614 33.967659 5.2369232
-20.825346 34.09861 5.2373133
-20.691442 34.351456 5.2565541
-3.7331669 6.284328 0.95683074
-4.761939 8.1294413 1.2337458
-20.173656 34.930843 5.2874961
-15.967987 28.044554 4.2298884
-4.1097007 7.3216877 1.0993185
-4.1371756 7.4777727 1.1189495
-4.0091009 7.352417 1.0964583
-3.9043109 7.265954 1.0799475
-3.8652215 7.3002892 1.0815076
-3.8400724 7.36167 1.0870979
-3.7930174 7.381566 1.0865778
-3.7400422 7.3896613 1.0843676
-3.6977255 7.4186826 1.0852777
-3.6486413 7.4341111 1.0842377
-3.6016636 7.45368 1.0838476
-3.5677855 7.50071 1.0874878
-3.7020352 7.9076977 1.1432608
-3.6575935 7.9392695 1.1445609
-17.353455 38.286079 5.5100679
-3.581291 8.0315514 1.1514513
-3.1580241 7.2007303 1.0293747
-3.5358596 8.1987171 1.1691322
-3.447557 8.1307993 1.1563916
-3.4654968 8.3147078 1.1795329
-3.3501506 8.178916 1.1573017
-3.3850415 8.4108782 1.1872033
-3.1959465 8.0838671 1.1381906
-3.1563325 8.1292048 1.1418308
-3.0449407 7.9872112 1.1192095
-3.5574079 9.5064106 1.329301
-14.885716 40.536743 5.6606159
-2.8496857 7.9094443 1.1007485
-2.7958152 7.9118228 1.0986685
-3.4051588 9.8278799 1.3621927
-3.3680665 9.9171247 1.3716832
-9.5835323 28.798573 3.9780648
-9.3949709 28.821012 3.9731245
-3.2042501 10.037891 1.3800037
-2.9852872 9.5538826 1.31084
-3.0759003 10.060338 1.3777936
-2.8411198 9.5005016 1.2986193
-2.8631802 9.7927895 1.3361913
-2.7472005 9.6147346 1.3095399
-8.4654179 30.332397 4.127573
-2.9436262 10.802382 1.4664584
-8.059433 30.309429 4.110672
-7.7267008 29.793009 4.0340977
-7.2834845 28.810337 3.8948603
-7.089025 28.783241 3.8852398
-6.9065008 28.802094 3.8819895
-10.492218 46.251999 6.2170463
-6.4180737 29.118961 3.9081209
-7.0436201 32.916801 4.4121585
-6.1100292 29.43532 3.9402328
-6.0362687 30.003963 4.0113468
-5.6340189 29.89747 3.9875553
-5.4814239 31.186012 4.1501942
-4.9152865 29.007776 3.8561182
-4.1650562 25.530169 3.390173
-3.9550171 25.215345 3.3450603
-3.7525434 24.922447 3.3030682
-3.5560801 24.64373 3.2631559
-3.3565369 24.31542 3.2168734
-0.74704802 5.6671481 0.74790943
-2.976131 23.70351 3.1308088
-2.7881072 23.364925 3.0837462
-2.6191723 23.155977 3.0539746
-2.4458473 22.879787 3.0154924
-2.2801831 22.643785 2.9824708
-2.1116314 22.344435 2.9412584
-1.9573069 22.162399 2.915647
-1.7953138 21.857773 2.8740449
-1.645469 21.661747 2.8468733
-1.4914718 21.369759 2.8072212
-1.3478563 21.182585 2.7814798
-1.2022717 20.919228 2.745858
-1.063171 20.717278 2.7184265
-0.92900962 20.5679 2.6980152
-0.79227674 20.303728 2.6626534
-0.66035211 20.085238 2.6334019
-0.53222477 19.906536 2.6094804
-0.40441757 19.634836 2.5734684
-0.28224251 19.51996 2.5581276
-0.16049525 19.284363 2.527056
-0.041777216 19.106512 2.5036547
0.07470119 18.915051 2.4785633
0.18918881 18.758574 2.4581523
0.30140504 18.579603 2.434881
0.41041213 18.35437 2.4056294
0.5202837 18.255369 2.3930187
0.62589973 18.06752 2.3688374
0.72931129 17.881054 2.3449161
0.83362013 17.761354 2.3298354
0.93328071 17.580654 2.306824
1.0312248 17.407324 2.2848527
1.129213 17.266111 2.2671719
1.2219679 17.074907 2.2429905
1.3193365 16.972189 2.23051
1.4119253 16.826435 2.2124388
1.5038433 16.692041 2.1959281
1.5935955 16.551235 2.178637
1.6946166 16.536213 2.1779871
1.7956203 16.521563 2.1774671
1.8960553 16.502352 2.1764269
2.0114646 16.607542 2.1918979
2.118089 16.632263 2.1968381
2.2382221 16.754576 2.2147791
2.3496356 16.802391 2.2229695
2.464587 16.869089 2.2337601
2.5807438 16.936966 2.2448106
2.7020209 17.030489 2.2593715
2.8208303 17.100658 2.2709422
2.9481344 17.213982 2.288363
3.0641048 17.254143 2.2961636
3.1842656 17.31303 2.3065641
3.3152726 17.423687 2.3239849
3.442591 17.507114 2.3378956
3.5740163 17.604208 2.3537567
3.7016811 17.676081 2.3663673
3.8236673 17.716032 2.3748178
3.9624178 17.827744 2.3930187
4.1042295 17.945177 2.4121299
4.2362809 18.013279 2.4247406
4.3728147 18.094889 2.4393013
4.5236444 18.228424 2.4610124
4.6603684 18.29833 2.4742732
4.7973685 18.364363 2.4871438
4.9466386 18.47154 2.5057349
5.09478 18.568012 2.5230258
5.2402663 18.649038 2.5383666
5.3954344 18.758511 2.5577376
5.5409446 18.82873 2.5719085
5.7092361 18.970024 2.5959597
5.8514771 19.018978 2.6075304
6.0132675 19.12649 2.6272914
6.1759896 19.230835 2.6467924
6.3411441 19.336725 2.6666837
6.5131793 19.457293 2.6887848
6.701674 19.619631 2.7168663
6.8633671 19.69705 2.7333772
7.0289164 19.780695 2.7509282
7.2372885 19.977707 2.7844701
7.3940773 20.025936 2.7974706
7.5744228 20.133314 2.8189218
7.7673616 20.267923 2.8444033
7.9777369 20.440636 2.8754749
8.1751423 20.572823 2.9010863
8.3729792 20.699671 2.9261777
8.5311604 20.724007 2.9369683
9.4261951 22.5049 3.1976323
9.5594416 22.435692 3.1960723
9.3578653 21.594221 3.0842662
9.4865904 21.528231 3.0830963
9.6318846 21.499475 3.0873864
9.8499174 21.629465 3.1146879
10.032424 21.676596 3.1302888
10.326857 21.958273 3.1800814
10.541332 22.06179 3.2043927
10.80076 22.252697 3.2417047
11.032234 22.378986 3.2699163
11.331352 22.634487 3.317369
11.8043 23.222134 3.4140942
12.009316 23.270859 3.4320352
12.266906 23.416306 3.4645369
12.462024 23.437771 3.4789677
12.692238 23.52142 3.5028889
12.950136 23.650949 3.5339606
13.218764 23.793797 3.5673726
13.866926 24.603643 3.7015398
14.770093 25.834196 3.9003205
14.444859 24.909374 3.7739537
14.610497 24.842495 3.777334
14.882006 24.952496 3.8078856
15.160542 25.068575 3.8397372
15.499106 25.276838 3.8861499
15.738713 25.317675 3.9072108
15.869447 25.182039 3.9012306
15.945732 24.962198 3.8822496
16.066803 24.814783 3.8745792
16.164907 24.633665 3.8617084
16.285553 24.488607 3.854558
16.377878 24.302708 3.8410373
16.503763 24.168186 3.8357069
16.646103 24.058313 3.8344071
16.821299 23.995504 3.8407774
17.197866 24.215189 3.8927801
17.642033 24.520483 3.9592137
18.222565 25.00231 4.0550289
18.544062 25.118162 4.0922108
18.956133 25.349316 4.1487641
19.429802 25.653011 4.2179279
19.939882 25.993528 4.293982
20.43722 26.30603 4.3662658
20.949553 26.626635 4.4407597
21.524654 27.014818 4.5274744
22.054863 27.334427 4.6036587
22.622412 27.688454 4.6866031
23.35313 28.227512 4.8020496
24.34598 29.062649 4.9694986
24.516792 28.904398 4.9680686
25.259575 29.412342 5.0819545
25.989325 29.889038 5.1918106
27.472099 31.205511 5.4497447
27.597742 30.963081 5.4368739
29.747183 32.561207 5.7812629
30.149061 32.597164 5.820395
30.742247 32.832066 5.8959289
30.914473 32.612595 5.8904686
31.107821 32.415855 5.8892984
31.273661 32.190945 5.8831882
31.449039 31.976532 5.879158
31.645351 31.783665 5.8792882
31.85808 31.607052 5.882668
32.823296 32.167431 6.0243759
34.23682 33.143318 6.246428
19.091169 18.255947 3.4619367
19.024498 17.750408 3.410064
20.554075 18.942959 3.6634476
19.006262 17.302025 3.3684616
19.0889 16.953583 3.3459704
19.133682 16.784483 3.3356998
19.077442 16.529121 3.3081384
21.231359 18.168428 3.6624076
19.552221 16.524813 3.3550711
19.651726 16.403261 3.354811
19.488052 16.064789 3.3099585
20.023012 16.300459 3.3838024
19.65436 15.800822 3.3050182
21.455488 17.033115 3.5903838
22.194002 17.398468 3.6960795
19.810932 15.33502 3.2833071
22.167929 16.942972 3.6568174
22.534235 17.004917 3.6999798
23.491297 17.501949 3.8394773
21.615814 15.899341 3.5167997
22.255749 15.952896 3.5888236
32.999275 23.348551 5.2988067
22.523001 15.729676 3.6005242
21.534954 14.843905 3.4278748
24.226435 16.049431 3.8087957
24.083776 15.743152 3.7710936
22.539261 14.536936 3.5151095
22.919146 14.583597 3.5603521
26.646952 16.726772 4.1236725
22.888165 14.172318 3.5282404
24.844816 14.965226 3.8013852
25.077681 14.896557 3.8229663
25.363678 14.85666 3.852608
25.614061 14.792983 3.8767893
25.475151 14.505044 3.8422074
1.7586515 0.98731214 0.26285309
1.7499274 0.96834308 0.26064295
1.7636708 0.96185929 0.26181301
1.7765268 0.95477384 0.26285309
1.7858568 0.94571102 0.26337311
1.7731646 0.92510599 0.26064295
1.7788076 0.91420865 0.26064295
1.7826144 0.90238148 0.26038295
1.7872303 0.89098424 0.26025295
1.787323 0.87738031 0.25947291
1.7953511 0.86769104 0.25986293
1.7872105 0.85027051 0.25791281
1.790598 0.83844757 0.25765279
1.7894051 0.82454097 0.25674275
1.8025584 0.81722969 0.25791281
1.80935 0.8069616 0.25817284
1.7961067 0.7878803 0.25557268
1.7836084 0.76938474 0.25310254
1.7910343 0.75958735 0.25349256
1.7801027 0.74209923 0.25128245
1.7772824 0.72815627 0.25024238
1.7798772 0.716497 0.24998239
1.7796296 0.70373982 0.24933235
1.7774441 0.69029498 0.24842229
1.7797933 0.67866945 0.24816228
1.783924 0.66773605 0.24816228
1.7907798 0.65780294 0.24855231
1.8031777 0.64982706 0.24972236
1.8174145 0.64238435 0.25115246
1.8353751 0.63608968 0.25310254
1.8786753 0.63820708 0.25856283
1.9248915 0.64075577 0.26441318
1.9297296 0.6292401 0.26454318
1.938277 0.61889517 0.26519319
1.9202709 0.60018939 0.26220304
1.8651296 0.57042265 0.25414261
37.025002 10.824663 5.0563431
38.396576 10.715981 5.2253523
40.523438 10.244568 5.4789963
38.679348 9.0243006 5.2062416
39.757084 8.5072794 5.3293581
39.802708 8.2619658 5.328578
39.926403 7.777832 5.3319583
40.241508 7.073009 5.3557496
73.858994 6.5225101 9.7204762
73.27507 6.0180678 9.6385717
73.020943 5.5463452 9.6004801
71.961624 5.0219903 9.4569521
71.551743 4.5523958 9.399229
72.430611 4.1622515 9.5111656
72.578255 3.2777102 9.5245562
72.773361 2.8391967 9.5476971
73.007423 2.39978 9.5762987
74.328987 1.5303998 9.7464781
74.649269 1.0788091 9.7874298
45.841518 -1.3787414 5.126708
50.341339 -9.0216818 5.7172103
50.428677 -9.3570509 5.7335453
50.701176 -9.7297888 5.7712159
50.876431 -10.087474 5.7981071
5.5330486 -1.1330057 0.63015497
5.5522466 -1.1724755 0.63315523
5.5633988 -1.2105337 0.63526654
5.5568361 -1.2448645 0.63537765
5.5471568 -1.2784909 0.63515544
5.6736283 -1.3443375 0.65060139
5.689414 -1.3849987 0.65337944
76.644524 -19.648481 8.8457403
53.280022 -15.061741 6.1895905
54.846687 -16.60071 6.4060559
75.389847 -25.367624 8.892745
46.640327 -16.013336 5.5125237
46.29752 -16.854502 5.5077453
42.006874 -15.585135 5.0084743
42.038738 -15.891083 5.023809
41.644417 -16.328859 5.0002513
42.752048 -17.677805 5.1714902
42.962234 -18.38526 5.2238288
42.590729 -18.536293 5.1923814
43.694725 -19.981255 5.370954
39.765335 -18.777842 4.9157982
40.467312 -20.33849 5.0628128
40.332447 -24.140757 5.2544985
40.02129 -24.289295 5.233274
39.806328 -24.494301 5.2247176
39.47821 -24.627628 5.2013822
39.212124 -24.797163 5.1862693
38.998989 -24.998684 5.1782684
13.543658 -8.79984 1.8046037
13.706048 -9.0254202 1.8336066
37.128559 -24.775656 4.9895835
37.110855 -25.094299 5.0078073
37.300514 -25.557455 5.0544786
37.267082 -25.871988 5.0713692
37.063736 -26.069296 5.0653687
36.883656 -26.282381 5.0627017
36.679794 -26.477955 5.0569234
36.697136 -26.834505 5.0819259
36.435963 -26.988188 5.0685911
36.03278 -27.033518 5.0354767
35.89946 -27.279356 5.040144
35.673122 -27.454266 5.0319209
35.09404 -27.353119 4.973804
35.200134 -27.784674 5.0129189
34.865967 -27.869829 4.9895835
34.319656 -27.779989 4.9356894
33.041744 -27.082874 4.7756734
33.395733 -27.717325 4.8513474
33.507301 -28.15892 4.8925738
33.290749 -28.327276 4.88624
33.074898 -28.495337 4.8801284
32.817047 -28.625885 4.8679047
32.580448 -28.773422 4.8589039
32.376614 -28.948944 4.8549037
32.186588 -29.136389 4.8531256
