# .PCD v0.7 - Point Cloud Data file format
VERSION 0.7
FIELDS x y z
SIZE 4 4 4
TYPE F F F
COUNT 1 1 1
WIDTH 1470
HEIGHT 1
VIEWPOINT 0 0 0 1 0 0 0
POINTS 1470
DATA ascii
-10.312419 -13.917584 0.38072047
-10.368816 -13.815665 0.37966496
-10.415277 -13.701642 0.37827966
-10.45158 -13.575687 0.37656447
-10.459683 -13.415115 0.37388176
-10.49905 -13.296542 0.37236449
-10.418101 -13.028858 0.36664727
-10.466392 -12.92584 0.36554781
-10.507472 -12.814991 0.36422843
-10.472866 -12.614131 0.3603363
-10.508249 -12.499891 0.35890701
-10.526427 -12.366661 0.35692796
-10.540104 -12.229895 0.35483897
-10.575507 -12.119795 0.35351962
-10.652323 -12.057673 0.35360757
-10.654122 -11.911607 0.35123271
-10.689429 -11.804511 0.35000131
-10.751525 -11.727646 0.34967145
-10.781796 -11.616756 0.34833011
-10.82138 -11.516867 0.34731859
-10.801575 -11.355358 0.34443799
-10.820422 -11.236299 0.34283277
-10.780989 -11.058736 0.3394244
-10.811419 -10.954663 0.33825898
-10.805649 -10.815275 0.33599406
-10.832705 -10.71011 0.33478466
-10.859592 -10.60572 0.33359724
-10.882731 -10.498629 0.33232185
-10.954906 -10.439242 0.33256373
-10.946683 -10.303989 0.33038679
-10.968699 -10.198506 0.32915539
-10.949334 -10.055948 0.32671455
-10.984913 -9.965065 0.32594493
-10.982561 -9.8407669 0.32407582
-10.992575 -9.7288008 0.32260254
-10.994103 -9.6105042 0.32090935
-6.3519692 -5.4843106 0.18431136
-6.3406177 -5.40696 0.18301399
-6.2872629 -5.2951803 0.18052919
-6.2404652 -5.1906548 0.17826428
-6.2304792 -5.1179996 0.17707686
-6.2221675 -5.0475531 0.1759554
-6.2108865 -4.9755268 0.17476797
-6.1895485 -4.8963876 0.17331667
-6.1895356 -4.8349309 0.17248107
-6.2143354 -4.7931981 0.17234914
-6.1974974 -4.7198467 0.17107375
-6.1560211 -4.628859 0.16913868
-6.1361423 -4.5552449 0.16781934
-6.1438169 -4.5027347 0.16726959
-6.1648493 -4.4602637 0.16709368
-6.154676 -4.3956261 0.16608217
-6.1774454 -4.3548989 0.16597222
-6.2138982 -4.3237648 0.16623609
-6.2617393 -4.3002701 0.16680782
-6.2797313 -4.2561593 0.16658792
-6.3456178 -4.2442255 0.16764341
-6.372375 -4.2057605 0.16766541
-6.3469563 -4.1333022 0.16632405
-6.4176188 -4.1234622 0.16751148
-6.4672871 -4.0995283 0.16814917
-6.4779086 -4.0507579 0.16777535
-6.5758214 -4.0560694 0.16966644
-6.6091266 -4.0208402 0.16988634
-6.6936841 -4.0162163 0.17142558
-6.7698274 -4.0056138 0.17274494
-6.808095 -3.97206 0.17309678
-6.9086018 -3.9740777 0.17503184
-7.048521 -3.9972019 0.17795643
-7.132257 -3.9870489 0.1794517
-7.1749754 -3.9533424 0.17991349
-7.2746568 -3.9502707 0.18180457
-7.362226 -3.9395194 0.1833878
-7.4366698 -3.9208474 0.1846412
-7.5129347 -3.9023309 0.18593858
-7.582129 -3.8793821 0.18706003
-7.6968565 -3.8786747 0.18930295
-7.7894692 -3.8655934 0.19099613
-7.8669372 -3.844059 0.19231549
-7.9345222 -3.8169518 0.19339298
-8.0707417 -3.8216746 0.19614165
-8.1175995 -3.783061 0.19671337
-8.2115431 -3.7656856 0.19842854
-8.3274479 -3.7571654 0.20067145
-8.3996906 -3.7278974 0.20185888
-8.5351095 -3.7254782 0.20456357
-8.6202812 -3.6998494 0.20605886
-8.6870346 -3.6655419 0.20711434
-8.7730837 -3.6385965 0.2086316
-8.9137497 -3.6329937 0.21144626
-9.0574579 -3.6269147 0.21432686
-9.0823326 -3.5723686 0.21439283
-9.2020054 -3.5543954 0.21670172
-9.3489056 -3.5453663 0.21964829
-9.4079618 -3.5018854 0.22052786
-9.454628 -3.4533539 0.22112158
-10.640809 -3.812747 0.24834442
-10.63948 -3.7387674 0.24777269
-10.633862 -3.6636453 0.24711302
-10.640039 -3.5928907 0.24673919
-10.647647 -3.5228271 0.24640936
-10.646236 -3.4500315 0.24588162
-10.65291 -3.3801074 0.24555176
-10.751742 -3.3389909 0.24735489
-10.776811 -3.2744098 0.24746485
-10.577237 -3.1430147 0.24242929
-5.1411586 -1.4935379 0.11748565
-5.1531115 -1.4627831 0.11755162
-5.0955133 -1.4127094 0.11603435
-5.0664487 -1.3712325 0.11517677
-5.0535016 -1.3345048 0.114693
-5.0461035 -1.2994834 0.11434117
-5.0307097 -1.2626565 0.11381342
-4.9946599 -1.2210824 0.1128239
-4.9553733 -1.1793046 0.11176841
-4.9401135 -1.1436915 0.11126266
-4.9372849 -1.1111634 0.11104276
-4.9381495 -1.079567 0.11091083
-4.9397907 -1.0482092 0.11080088
-4.9412332 -1.0168722 0.11069093
-4.9258094 -0.98223394 0.11020716
-4.9248719 -0.95066518 0.11005324
-4.9099741 -0.91657698 0.10959146
-4.9036984 -0.88430405 0.10932759
-4.9060779 -0.85368484 0.10926162
-4.907279 -0.82290447 0.10917366
-4.8934832 -0.78975284 0.10875586
-4.874526 -0.75603569 0.10822812
-4.895884 -0.72861296 0.10860194
-4.904222 -0.69912285 0.1086899
-4.901485 -0.66807312 0.10853598
-4.9064832 -0.63811451 0.10855796
-4.9063373 -0.60750568 0.10847001
-4.9069943 -0.5770393 0.10840404
-4.9144168 -0.54736221 0.10849199
-4.924643 -0.51792926 0.10864592
-4.926733 -0.48760408 0.10862393
-4.9166908 -0.45616493 0.10833807
-4.9224148 -0.33509448 0.10825011
-4.9243789 -0.30488479 0.10825011
-4.9237552 -0.24423419 0.10816216
-4.9211659 -0.21384455 0.1080742
-4.9343739 -0.18409158 0.10833807
-4.911428 -0.15306503 0.10781033
-4.92027 -0.1231259 0.10798624
-4.8799505 -0.092161216 0.10708468
-4.9074154 -0.06255956 0.10767839
-4.9157043 -0.032499563 0.1078543
-4.9378061 -0.0023462342 0.10833807
-4.9827161 0.028208282 0.10932759
-5.0114403 0.059124421 0.10996528
-5.089951 0.091292679 0.11170244
-5.2322187 0.12596928 0.11484692
-5.39923 0.16315098 0.11854114
-5.7198367 0.20798741 0.12562172
-5.7514148 0.24448216 0.12634736
-6.2371111 0.30349687 0.13707818
-6.2540984 0.34280163 0.13749598
-6.4464679 0.39304039 0.14178391
-6.6484246 0.44632232 0.14629173
-6.9177647 0.50706887 0.15229483
-7.4357519 0.59094518 0.16379528
-7.6879859 0.65849328 0.16944654
-7.9755011 0.7324506 0.17588943
-10.222511 1.0021626 0.22565138
-10.253955 1.0688072 0.22648698
-10.238261 1.1307163 0.22628908
-10.243046 1.1949061 0.22655295
-10.252391 1.259807 0.22692677
-10.231578 1.3210263 0.22664091
-10.248048 1.3871343 0.22719064
-10.27102 1.4544752 0.22789431
-10.310363 1.5246367 0.22897178
-10.332433 1.592746 0.22967544
-10.335298 1.6581738 0.22996131
-10.337749 1.7236966 0.23024717
-10.380174 1.7963022 0.2314346
-10.346323 1.8558996 0.23092884
-10.399614 1.9313982 0.23238014
-10.433714 2.0040369 0.23341364
-10.477117 2.0791125 0.23466703
-10.491586 2.1489778 0.23528273
-10.525155 2.2232311 0.23633823
-10.56602 2.2996781 0.23756963
-10.771213 2.4136579 0.24251723
-18.086086 4.1696672 0.4079653
-18.052378 4.278718 0.40778938
-18.058811 4.3974476 0.40853703
-18.240017 4.5603094 0.41326475
-18.199102 4.6689124 0.41297889
-18.317074 4.8191595 0.41632125
-18.511103 4.9918532 0.42142281
-18.515781 5.1151919 0.42223641
-18.731281 5.2986465 0.42788768
-18.877996 5.4654727 0.43199968
-19.14031 5.6689363 0.4387944
-19.155878 5.8016319 0.43995985
-19.2393 5.9560189 0.44270852
-19.312012 6.1086321 0.44523728
-19.674679 6.3564143 0.4544948
-19.729301 6.5080228 0.45667177
-19.745846 6.648098 0.45799112
-19.953354 6.8545604 0.46377432
-20.176989 7.0700974 0.46997532
-20.177475 7.2095785 0.47100884
-20.563095 7.4899645 0.48107997
-20.56455 7.6337409 0.48220143
-20.723984 7.8379416 0.48706108
-21.016951 8.0964966 0.4951092
-21.170698 8.3052635 0.49992487
-21.207541 8.4702368 0.50201386
-21.463577 8.725584 0.50933629
-21.684933 8.9710112 0.51588917
-21.77507 9.1651802 0.51936346
-22.195415 9.5028439 0.53077596
-22.410761 9.7581949 0.53735077
-22.403486 9.9189959 0.53862619
-22.946634 10.328337 0.55320513
-23.162842 10.59705 0.55997783
-23.28776 10.827491 0.56459564
-23.832863 11.259299 0.57948244
-24.210382 11.619893 0.59038913
-24.534031 11.961 0.60006446
-24.636679 12.198708 0.6043964
-25.338451 12.740378 0.62352717
-25.339939 12.936526 0.62550616
-25.932903 13.440479 0.64217412
-26.398512 13.887947 0.65580755
-26.87105 14.347745 0.66972685
-26.822943 14.534264 0.67073834
-26.956654 14.821403 0.67634565
-27.075619 15.103907 0.68164504
-26.920658 15.234795 0.68008381
-23.315981 13.384366 0.59104884
-23.243786 13.533216 0.59131271
-22.656696 13.378205 0.57844895
-22.553598 13.504645 0.57792115
-21.673845 13.159197 0.55742711
-21.640371 13.321288 0.55865848
-21.591303 13.474463 0.55951607
-21.552153 13.634484 0.56065953
-21.625463 13.867389 0.56477153
-21.581043 14.026516 0.56584901
-21.546335 14.19277 0.56721234
-21.480463 14.339141 0.56778407
-21.414434 14.485797 0.56837779
-21.383696 14.657052 0.56993902
-21.345093 14.823913 0.57132435
-21.337132 15.013287 0.57356727
-21.26659 15.159595 0.57416099
-21.277729 15.365303 0.57699764
-21.241953 15.538661 0.57860285
-21.178341 15.692515 0.57948244
-21.201595 15.912188 0.58278084
-21.16803 16.090986 0.58456194
-21.118013 16.258379 0.58592534
-21.04072 16.405479 0.58656299
-21.080896 16.645796 0.5905211
-25.355625 20.275063 0.71379352
-25.281244 20.471155 0.71522284
-25.199228 20.662025 0.71647626
-25.138895 20.871819 0.71838933
-25.086115 21.089363 0.72056627
-25.017145 21.294735 0.72232538
-24.927662 21.483736 0.72353482
-24.918911 21.744083 0.72714108
-24.819487 21.927025 0.72815257
-24.740366 22.128891 0.72980177
-24.68119 22.350069 0.73208869
-24.599596 22.552437 0.73375988
-24.630756 22.860741 0.73886144
-18.176119 17.078661 0.54830152
-24.41573 23.225359 0.74090642
-24.445595 23.541172 0.74618387
-24.352228 23.740973 0.74776709
-33.054447 33.025665 1.02745
-33.056427 33.435463 1.0338709
-34.233009 35.053154 1.0773878
-32.028652 33.201096 1.0143883
-33.661304 36.204147 1.0870411
-31.648216 35.760071 1.050055
-31.426224 35.951332 1.0499891
-33.178783 38.429604 1.116419
-13.383845 15.695424 0.45341733
-32.582333 38.688572 1.112241
-31.749781 38.172928 1.0917909
-30.904501 37.623829 1.0706371
-12.512187 15.424408 0.43657348
-30.53673 38.120407 1.0740235
-30.363655 38.384686 1.0762005
-32.652584 43.986919 1.2046404
-32.886162 44.874302 1.2233973
-32.923126 45.507786 1.2351396
-43.433018 62.423225 1.6723543
-44.501408 64.803314 1.7287791
-44.088924 65.054459 1.7282294
-43.327484 65.651512 1.7298346
-51.051163 80.541389 2.0971012
-50.505127 80.771736 2.0949903
-22.625063 36.682339 0.94767255
-22.292521 36.644524 0.94314271
-8.5717955 14.286787 0.36618549
-21.142704 35.734802 0.91297328
-20.715479 35.50808 0.90391368
-15.867327 27.585333 0.69967633
-15.383227 27.519661 0.69316751
-15.095883 27.801254 0.69554234
-14.712087 27.905699 0.69358528
-17.857521 38.32016 0.92959726
-19.652321 42.856533 1.0367295
-19.377476 42.950794 1.0361137
-18.575827 41.857166 1.0069559
-18.209469 41.720207 1.0009528
-17.93697 41.793488 1.0000513
-13.269424 31.448925 0.75049382
-17.348066 41.830376 0.9957633
-17.050699 41.836971 0.99341041
-16.767658 41.875835 0.99187118
-16.477829 41.895126 0.98991412
-16.196321 41.932961 0.98844081
-16.354881 43.129009 1.0142564
-16.050531 43.122673 1.0117716
-15.728013 43.06258 1.0080774
-15.471582 43.180862 1.0086051
-15.192087 43.234425 1.0076596
-14.854228 43.116982 1.0027779
-14.586828 43.199738 1.002602
-14.314577 43.267548 1.0021182
-13.649107 42.121021 0.973598
-13.387982 42.196354 0.97342211
-3.9349372 12.670856 0.29155356
-3.8606038 12.706241 0.29181743
-3.7777264 12.713397 0.29144359
-3.7219563 12.813144 0.29320276
-8.8881092 31.315212 0.71570659
-8.6925907 31.357599 0.71544272
-8.4373455 31.178732 0.71016526
-11.61581 43.993336 1.000513
-12.115444 47.053524 1.0684162
-11.895123 47.400429 1.0746171
-11.925474 48.787483 1.1043909
-12.247261 51.471184 1.1634322
-12.141779 52.455082 1.1839703
-12.522869 55.65369 1.2544243
-12.596153 57.628185 1.2971717
-13.089468 61.697529 1.3869543
-12.828518 62.349545 1.3998181
-13.186717 66.14402 1.4831798
-13.587277 70.403526 1.5768106
-13.604593 72.894394 1.6307065
-14.189803 78.704735 1.7587286
-14.331851 82.384468 1.8389679
-14.573062 86.926575 1.9383379
-14.956986 92.701416 2.0650406
-13.833425 92.979836 2.0673056
-11.626182 98.901924 2.1900282
-11.018448 98.965431 2.1898963
-1.2881731 12.251486 0.27068561
-1.2140578 12.270103 0.27092752
-1.1381009 12.270353 0.27077359
-1.0533073 12.167542 0.26835474
-0.37258548 11.965306 0.26303333
-0.29758787 11.904402 0.261648
-0.17917851 27.25182 0.59914094
-0.011949909 27.226414 0.59856921
0.15492593 27.193983 0.59786552
0.32140335 27.160532 0.59716189
0.48673928 27.085075 0.59555668
0.65219784 27.051596 0.59489697
0.81720346 27.015106 0.59419334
0.98069483 26.947641 0.59283
0.67787057 9.2469454 0.20366201
0.73538834 9.2525787 0.2038819
9.0867643 48.923252 1.0941877
13.746025 67.103989 1.5063126
14.362578 60.595051 1.3694288
14.729854 60.488297 1.369033
10.816316 42.160103 0.95706201
14.947086 55.426048 1.2623625
16.601751 57.341621 1.3127401
12.631606 40.802143 0.93918461
11.068632 34.259636 0.79161394
14.048236 42.586918 0.98606598
14.618726 43.418983 1.0073956
14.088397 41.010056 0.95347774
14.986457 42.768341 0.99648893
17.451651 47.911251 1.1212567
15.589522 41.995991 0.9850105
15.728431 41.586285 0.97764403
15.922923 41.332264 0.97394985
13.461573 33.704361 0.79799086
13.938088 34.285179 0.81375724
23.174446 56.016888 1.3330803
14.836771 35.249557 0.84091413
17.217033 40.212692 0.96185565
17.467043 40.114544 0.9620536
13.683975 30.907032 0.74317133
13.870898 30.817017 0.74303943
16.014143 34.442959 0.83517486
16.204252 34.299755 0.83409739
13.413889 27.948145 0.68157911
16.312035 32.94384 0.8082819
16.523746 32.862785 0.80876565
17.059202 33.415241 0.82492781
20.92403 40.371872 0.99987531
22.497515 42.763474 1.062523
15.484968 28.577436 0.71462911
15.120532 27.50069 0.69000101
15.102933 27.073872 0.68160111
15.130898 26.73707 0.67544407
15.228968 26.529274 0.67254144
15.779811 27.102324 0.68951726
15.952929 27.017044 0.68982512
16.100939 26.889486 0.6890775
16.850903 27.754147 0.71388149
16.159269 26.250568 0.67773098
16.307331 26.130568 0.67720324
22.252296 35.174149 0.91519421
23.523853 36.683929 0.95822746
16.015154 24.64068 0.64611024
18.022636 26.998348 0.7137056
18.197479 26.901335 0.71407938
18.375765 26.80896 0.71460712
15.058871 21.683407 0.58038402
15.170348 21.560347 0.57957041
15.029603 21.084234 0.56923538
13.636891 18.884283 0.51206303
19.884224 27.1824 0.74048865
13.739729 18.307034 0.50317931
15.804205 20.79077 0.574139
15.721673 20.420897 0.56657469
15.843603 20.320105 0.56646472
15.975423 20.231922 0.56672859
19.255465 24.080549 0.67788488
16.304916 20.136139 0.56960922
14.557503 17.754307 0.50471854
15.840946 18.843128 0.54117692
16.104275 18.685938 0.54229838
12.13439 13.735223 0.40284178
12.175116 13.612073 0.40141246
12.260422 13.539335 0.40147844
13.306689 14.514713 0.43283528
17.877495 19.261747 0.57774526
18.007669 19.164806 0.57814109
17.320099 18.207888 0.55245751
17.154791 17.813942 0.54368371
24.212753 24.836149 0.76263195
17.862995 18.099466 0.55905432
22.101147 22.120512 0.68749422
13.234319 13.084476 0.40906477
13.788569 13.466142 0.42364374
19.309439 18.400286 0.5863871
21.608141 20.339209 0.65242118
21.725945 20.200115 0.65222329
13.535385 12.430926 0.40394124
14.56959 13.216841 0.43239549
14.73604 13.203918 0.43492427
18.893288 16.720989 0.55465645
14.5334 12.704288 0.42430341
21.556477 18.611238 0.62612188
18.438648 15.723004 0.53271103
14.822899 12.483569 0.42597461
15.432655 12.836057 0.44123521
15.514215 12.743661 0.44132319
22.775434 18.2446 0.6415804
16.369083 12.786188 0.4565838
16.448021 12.686119 0.45660579
16.579639 12.626145 0.45810106
16.706343 12.561428 0.4594644
15.318875 11.371759 0.41935581
15.405296 11.289961 0.41981757
22.211124 16.069029 0.60270321
14.400402 10.284307 0.38894448
25.203711 17.766973 0.67797285
15.685933 10.914205 0.42003748
15.72953 10.801906 0.41942176
24.65004 16.706072 0.65468609
19.273108 12.890158 0.50971013
18.726019 12.358644 0.49321809
18.474762 12.030744 0.48464224
18.685335 12.005245 0.48822653
19.998253 12.676087 0.52050692
20.330809 12.712685 0.52712572
19.30138 11.904895 0.49851754
18.300425 11.133104 0.4708769
18.250084 10.949625 0.46784237
18.291113 10.822167 0.4671827
23.210306 13.541023 0.59076297
21.959225 12.63119 0.5569213
23.469521 13.308931 0.59315979
21.891788 12.237351 0.55135804
22.139843 12.198319 0.55571193
15.984225 8.5528517 0.3984659
15.947082 8.4075222 0.39624497
16.037407 8.3297901 0.39721251
22.329157 11.424193 0.55140197
20.461618 10.153863 0.50214577
20.581923 10.05665 0.50357509
20.886496 10.047184 0.50951225
21.211599 10.043768 0.51593316
21.201239 9.8800659 0.51419598
17.990053 8.1164465 0.43382481
18.034946 8.0038805 0.43371487
18.111206 7.9050674 0.43437454
20.426775 8.7669048 0.48864433
20.490316 8.6456785 0.48888621
20.711054 8.5894938 0.49288827
18.223835 7.4272757 0.43257141
18.166971 7.2744374 0.43015257
17.392206 6.7177587 0.40981242
20.911505 7.9299378 0.49163488
15.121557 5.6284909 0.35461909
15.153931 5.534915 0.3545751
1.2243909 0.43892151 0.028340722
1.2081966 0.4247719 0.027900932
1.2088897 0.41669926 0.027856955
1.1867961 0.40095812 0.027285231
1.1598099 0.38393411 0.026603561
1.0080701 0.32688442 0.023041282
0.94239771 0.29922649 0.021480035
0.86974299 0.27031213 0.019764865
0.86181939 0.26206413 0.01954497
0.85478598 0.25420842 0.019347066
0.8515293 0.24756441 0.01923712
0.85014701 0.24151596 0.01917115
0.84390551 0.2341585 0.018995237
0.84532636 0.22897598 0.018995237
0.84574884 0.22352965 0.018973246
0.84710443 0.21833602 0.018973246
0.84551913 0.21240415 0.018907279
0.84680647 0.20721214 0.018907279
0.84611678 0.20154949 0.0188633
0.84538949 0.19590312 0.018819321
0.84657562 0.19071223 0.018819321
0.84870654 0.18572763 0.018841311
0.84494025 0.17947914 0.018731363
0.85777658 0.17670904 0.018995237
0.86080563 0.17183344 0.019039216
0.91387087 0.17658904 0.020204652
0.97390461 0.18198344 0.021524014
1.0566661 0.19072723 0.023349132
1.1582831 0.20171724 0.02559205
1.2265469 0.20584664 0.027087327
1.2613447 0.20373115 0.027834965
1.2576312 0.19522192 0.027725019
1.2914382 0.19235656 0.028450668
1.3242666 0.18894245 0.029154327
1.3263916 0.1809483 0.029176317
1.2699748 0.16533045 0.027900932
1.2521137 0.15520157 0.027483135
1.2391417 0.14588176 0.027175283
1.1962942 0.13340834 0.026207751
1.2438214 0.13097817 0.027241252
1.2893721 0.12777276 0.028230773
1.2871455 0.11958197 0.028164806
1.2948272 0.11228538 0.028318731
1.3084469 0.10537956 0.028604593
1.263206 0.093946189 0.027593082
1.2747306 0.086939961 0.027834965
1.2652617 0.078499362 0.027615072
1.1389468 0.063671663 0.024822421
1.1253365 0.055989213 0.024514569
1.1176684 0.048736356 0.024338655
1.1099538 0.041579723 0.02416274
1.0762128 0.033711065 0.0234151
15.049124 -0.48460147 0.042013057
14.977107 -0.66635466 0.041831542
14.953762 -0.75727975 0.041778486
14.675275 -0.83349526 0.041013334
14.642938 -0.92183024 0.040937934
14.599095 -1.0090418 0.040831819
14.612574 -1.1001016 0.040887669
14.606544 -1.1898232 0.040890463
14.589007 -1.2785523 0.040862538
14.532102 -1.3634696 0.040725704
14.532418 -1.4535065 0.040750835
14.536153 -1.5440209 0.040787138
14.53833 -1.6345241 0.040820651
14.575693 -1.7293521 0.04095469
14.590607 -1.8219749 0.041027296
14.595017 -1.9135461 0.041071977
14.583001 -2.0030634 0.041071977
14.591223 -2.0954897 0.041130621
14.568201 -2.1834984 0.041102692
14.533781 -2.2696068 0.041044053
14.503787 -2.3561769 0.040999372
14.493989 -2.4459579 0.041013334
14.461962 -2.5319142 0.040965859
14.457962 -2.622745 0.040999372
14.451425 -2.7132528 0.041027296
14.45512 -2.8058748 0.04108594
14.457241 -2.8984473 0.041141789
14.500878 -2.9998608 0.04131772
14.512516 -3.0952451 0.041404288
14.527436 -3.1917429 0.041502025
18.772898 -4.2452064 0.053713728
17.759436 -4.2457972 0.050957508
17.69129 -4.3444338 0.050837431
19.146927 -4.8265944 0.055107199
18.96011 -4.9034305 0.054654811
15.839453 -4.2003384 0.045727111
15.831717 -4.3024306 0.045780171
17.32427 -4.8223248 0.050183978
17.233767 -4.9112701 0.050008051
17.157227 -5.0034852 0.049874008
17.187532 -5.1269574 0.050052732
20.350492 -6.2065578 0.05937976
22.164148 -6.9085569 0.064797252
22.00128 -7.0061951 0.064445399
19.872381 -6.4628887 0.058321394
19.825708 -6.5824957 0.058301844
22.730465 -7.7019906 0.066986591
23.376265 -8.4035635 0.069335103
23.482004 -8.6046371 0.069804251
23.785694 -8.8818293 0.070868202
23.975632 -9.1207581 0.071599841
24.230656 -9.38836 0.072532542
24.133526 -9.5214472 0.072415255
21.808578 -8.7592688 0.065595917
21.752571 -8.8921623 0.065590329
24.042816 -10.00092 0.072683342
17.816229 -7.5396371 0.053990189
24.132296 -10.387323 0.073333994
18.282093 -8.0026932 0.05569642
21.95561 -9.7715349 0.067075953
18.325554 -8.291152 0.056134846
19.936079 -9.1675243 0.061242372
20.768209 -9.7049618 0.063981839
20.683882 -9.820631 0.063906439
20.652956 -9.9616957 0.063998595
20.522295 -10.054358 0.063783571
20.43873 -10.169401 0.063716546
17.680416 -8.9328413 0.055283125
17.656414 -9.0571318 0.055380866
19.668898 -10.242308 0.061893031
21.385393 -11.30342 0.067514382
18.645521 -10.00218 0.059053034
19.177534 -10.439585 0.06094078
18.659681 -10.306623 0.059494253
19.102068 -10.704443 0.061113916
18.794346 -10.68407 0.060337596
18.485868 -10.65933 0.059555687
18.216393 -10.653423 0.058896653
17.296587 -10.258475 0.056123678
15.951289 -9.5934372 0.051946063
17.373453 -10.594384 0.056791089
16.698254 -10.323762 0.05478885
16.543081 -10.368673 0.054487258
16.59985 -10.546665 0.054886587
16.85774 -11.003178 0.056182321
15.527154 -10.271164 0.051954441
17.596119 -11.795517 0.059122846
17.440689 -11.847075 0.058843594
16.531557 -11.378423 0.056009185
16.4319 -11.459053 0.055908654
17.356064 -12.262454 0.059309945
16.301428 -11.667983 0.055947747
19.040667 -14.905313 0.067492038
19.199617 -15.22065 0.068385646
18.742716 -15.622581 0.068103604
18.652618 -15.742451 0.068125941
20.136227 -17.207182 0.073931597
19.990187 -17.295734 0.073783591
18.030731 -16.190292 0.06763725
17.957991 -16.527489 0.068120353
18.065495 -16.832325 0.068919018
19.084337 -18.001583 0.073227882
18.862144 -18.011992 0.072797835
18.728262 -18.105148 0.072708473
18.656128 -18.258188 0.072862059
18.808725 -18.634834 0.073903672
19.210869 -19.26825 0.075947799
18.96036 -19.25182 0.075422801
18.405352 -18.919109 0.073674686
19.727404 -20.528517 0.079471961
19.663034 -20.714451 0.079723291
19.5212 -20.819391 0.079664648
19.377457 -20.921906 0.079600416
19.352669 -21.154032 0.080030471
18.914761 -20.931831 0.078748703
18.653456 -20.899036 0.078192987
18.233891 -20.683052 0.076964274
15.567187 -17.878252 0.066165589
18.008049 -20.939369 0.077089943
15.437904 -18.175404 0.066559337
14.887123 -17.746532 0.064652041
17.587034 -21.22802 0.076947525
17.429853 -21.303026 0.076830238
14.899847 -18.440678 0.066171177
15.422602 -19.329039 0.069019549
14.537509 -18.450903 0.065562405
14.198658 -18.250103 0.064537548
12.502444 -16.275085 0.05727699
15.23489 -20.085726 0.070365548
13.859128 -18.506762 0.064531967
13.563391 -18.345404 0.063677453
13.648077 -18.698864 0.064612947
13.769266 -19.110025 0.065741129
13.729419 -19.303347 0.066115327
17.141094 -24.415632 0.083272584
15.346033 -22.146599 0.075207777
16.038145 -23.763041 0.080024883
13.762805 -21.224205 0.070605703
16.899336 -26.414539 0.087533981
13.527315 -21.72691 0.071437873
13.376999 -21.782234 0.071348511
13.261746 -21.894695 0.071449041
12.919965 -21.62883 0.070320867
13.013378 -23.385971 0.07470233
13.088703 -24.216002 0.076835819
10.625457 -20.867451 0.065358549
10.492733 -20.923315 0.065330625
16.24328 -32.89164 0.10240696
12.35213 -25.404079 0.078849234
12.184794 -25.45594 0.078776628
12.119583 -25.723812 0.079374224
12.113798 -26.126102 0.080385119
11.956169 -26.206308 0.080404669
11.458123 -25.528349 0.078106418
9.25735 -21.321972 0.06487824
13.308015 -31.710541 0.09600091
12.961424 -31.423674 0.094889484
9.1238441 -22.5112 0.067796424
9.0469589 -22.72098 0.068259984
9.038868 -23.112263 0.069268085
9.0040817 -23.446411 0.070103049
9.0265656 -23.942865 0.071421117
8.9048185 -24.066265 0.071624972
8.9037342 -24.524632 0.07282576
8.8778944 -24.929239 0.073864579
8.7854328 -25.156954 0.074378401
8.7271118 -25.491371 0.075207777
8.7340441 -26.031738 0.076643139
8.6297388 -26.253937 0.077140205
8.7347918 -27.133577 0.079566911
8.5789614 -27.220999 0.079667442
8.5662231 -27.773844 0.081130721
8.4669971 -28.062351 0.081820473
8.3928518 -28.446589 0.082789481
8.3065472 -28.804058 0.083680294
8.2302704 -29.211576 0.08471632
3.074693 -11.176729 0.032336965
3.0447028 -11.339285 0.03275305
2.9636641 -11.314223 0.032627385
2.8773551 -11.26631 0.032437496
2.9386125 -11.80776 0.033945456
2.9167595 -12.034516 0.03454585
2.9083064 -12.32957 0.035341717
2.8844864 -12.573304 0.035989583
2.8223028 -12.658112 0.036182269
2.7748506 -12.81495 0.036581598
2.7292809 -12.989293 0.037031196
2.6704938 -13.10868 0.03732441
2.6616609 -13.487813 0.038357645
2.5908592 -13.566754 0.038536366
2.5718517 -13.93051 0.03952492
2.5103788 -14.080899 0.039907493
2.4471564 -14.231054 0.040290069
2.3910122 -14.434231 0.040823441
2.3521416 -14.76069 0.04170588
2.2731812 -14.850957 0.041920904
0.28453249 -1.9422439 0.0054477574
0.2657887 -1.8954307 0.0053109238
0.25388733 -1.8950436 0.0053053391
0.24339813 -1.9054928 0.0053304718
0.22710542 -1.8692296 0.005224356
0.21517234 -1.8666142 0.0052131857
0.20404124 -1.8708816 0.0052215634
0.19296853 -1.8760772 0.0052327332
0.1821294 -1.8841931 0.0052522812
0.17083612 -1.888263 0.0052606585
0.15958409 -1.8932614 0.0052718287
0.14937219 -1.9121498 0.0053220941
0.14001599 -1.9459442 0.0054142475
0.12648976 -1.922819 0.0053472267
0.11582644 -1.9425248 0.0054002847
0.10675284 -1.9961222 0.0055482886
0.091599129 -1.935809 0.0053779446
0.079429202 -1.9293408 0.005358397
0.067660175 -1.9317905 0.0053639817
0.055630408 -1.9261719 0.0053472267
0.043672144 -1.9204786 0.0053304718
0.031853609 -1.9187108 0.0053248866
0.020015197 -1.9128705 0.0053081317
0.0082543232 -1.9079572 0.0052941688
-0.0034557725 -1.9099721 0.005299754
-0.015144664 -1.905915 0.0052885837
-0.026838852 -1.905786 0.0052885837
-0.038591653 -1.9085851 0.0052969614
-0.05022376 -1.9053133 0.0052885837
-0.062202867 -1.9139646 0.0053137164
-0.53793162 -14.027617 0.039167475
-0.6287446 -14.130946 0.039466277
-0.71665138 -14.150792 0.039533295
-0.80170906 -14.115179 0.039446726
-0.88522667 -14.06109 0.039309893
-1.0357089 -14.985174 0.041912526
-1.188784 -15.791237 0.044188432
-1.3212773 -16.221195 0.045414351
-1.4410279 -16.443897 0.046062216
-1.766919 -18.834209 0.052792195
-1.7226905 -17.224985 0.048307404
-1.8239142 -17.172325 0.048190117
-1.9374 -17.233353 0.048393972
-2.073138 -17.474365 0.049106065
-2.2562497 -18.069593 0.050817881
-2.4649343 -18.802021 0.052920651
-2.5786226 -18.774652 0.052887142
-2.6818359 -18.675331 0.052652571
-2.7831872 -18.570507 0.052404035
-2.8724017 -18.394997 0.051957231
-2.9656599 -18.256603 0.051616546
-3.0654802 -18.16608 0.05141269
-3.1608536 -18.055323 0.051152986
-3.2483814 -17.907675 0.050789956
-3.3325567 -17.750792 0.050401796
-3.3935931 -17.483608 0.049700875
-3.4988413 -17.452652 0.049672946
-3.5428727 -17.126301 0.048804473
-3.6376724 -17.056316 0.048667639
-3.7261689 -16.960423 0.0484582
-3.7977476 -16.793859 0.048047699
-3.8880367 -16.715696 0.047891319
-3.9561214 -16.547581 0.047478024
-4.0442281 -16.468611 0.047321644
-4.0933881 -16.237917 0.046729628
-4.1426249 -16.017895 0.046168331
-4.2246852 -15.93128 0.0459924
-4.3063636 -15.846191 0.045822058
-4.3742871 -15.714462 0.045517672
-4.4550076 -15.632508 0.045358498
-4.5376863 -15.559757 0.045227252
-4.6236415 -15.499999 0.045135099
-4.7002845 -15.411077 0.044959169
-4.7551823 -15.254971 0.044587765
-4.8195686 -15.134031 0.044319682
-4.8780131 -14.998616 0.044009712
-4.9570327 -14.929491 0.043895219
-5.0196652 -14.813554 0.043643892
-5.1085043 -14.776805 0.043627135
-5.1708155 -14.665018 0.043389771
-5.2194319 -14.518207 0.043049082
-5.2705717 -14.382623 0.042741906
-5.331089 -14.276003 0.042521294
-5.4146738 -14.232742 0.042490579
-5.4982896 -14.189926 0.042462654
-5.5790153 -14.140108 0.042415179
-5.652256 -14.072203 0.042314649
-5.6503363 -13.82158 0.041663989
-5.6639905 -13.615837 0.041147374
-5.7135258 -13.500705 0.040904425
-5.7590952 -13.379051 0.040641926
-5.792963 -13.233532 0.040306825
-5.841527 -13.124649 0.040083423
-5.8980417 -13.035715 0.039921455
-5.9248605 -12.883894 0.039566807
-6.0122695 -12.865417 0.039622657
-6.0627913 -12.768662 0.039438352
-6.0767307 -12.597917 0.039025057
-6.1218009 -12.494837 0.038821202
-6.1912255 -12.442715 0.038776521
-6.2431064 -12.356294 0.038625725
-6.2727103 -12.227886 0.038343683
-6.3185253 -12.133289 0.038167752
-6.3951917 -12.098712 0.038181715
-6.4683619 -12.057481 0.038176131
-6.5269246 -11.989459 0.038086768
-6.5790954 -11.910669 0.037963897
-6.6119695 -11.798542 0.037734911
-6.6432233 -11.685593 0.037503131
-6.7038112 -11.625551 0.037441697
-6.7659316 -11.568661 0.037391432
-6.800571 -11.465859 0.037193161
-6.8326607 -11.3605 0.036986515
-6.8793311 -11.280795 0.036863644
-6.9179211 -11.189038 0.036701679
-6.9588313 -11.102319 0.036556467
-7.0010834 -11.018896 0.036422424
-7.0436578 -10.937056 0.036293969
-7.0854921 -10.855109 0.036165513
-7.0973482 -10.728858 0.035889052
-7.1424446 -10.654374 0.035785731
-7.1677914 -10.551616 0.03558746
-7.210289 -10.475309 0.035478551
-7.2452574 -10.389038 0.035336133
-7.3042512 -10.337852 0.035313793
-7.369873 -10.296092 0.035324965
-7.4258671 -10.240963 0.035291452
-7.4773173 -10.179892 0.035238396
-7.5282989 -10.118576 0.035185337
-7.5421004 -10.008301 0.034961935
-7.588201 -9.9419613 0.034892123
-7.6099224 -9.8445768 0.034713402
-7.6036143 -9.7126541 0.034411807
-7.6220679 -9.6140957 0.034227502
-7.6533713 -9.532835 0.03410463
-7.6858578 -9.4538803 0.033990137
-7.6820755 -9.3316517 0.033719264
-7.7558346 -9.3043118 0.03379187
-7.8140688 -9.2580767 0.033797454
-7.8233056 -9.154458 0.033593599
-7.8642807 -9.0888891 0.033529371
-7.912653 -9.0321894 0.033498652
-7.9374027 -8.9490528 0.033370197
-7.9500742 -8.8533039 0.03319427
-7.9773417 -8.7747583 0.033082567
-7.9876933 -8.6785526 0.032903846
-8.0223885 -8.609623 0.032828446
-8.0565395 -8.540596 0.03275305
-8.0887642 -8.470027 0.032672066
-8.0912361 -8.3691883 0.032473799
-8.0934763 -8.2693548 0.032278322
-8.1081705 -8.1833076 0.032135904
-8.1284885 -8.1037483 0.032018617
-8.162385 -8.0382824 0.031957179
-8.2015181 -7.9782853 0.031918086
-8.2178717 -7.8966303 0.031792421
-8.2552919 -7.835731 0.031750534
-8.2718487 -7.7555175 0.031630456
-8.3024054 -7.6889873 0.031566229
-8.3354101 -7.6250744 0.031513169
-8.3516197 -7.5462966 0.031398676
-8.3679247 -7.4682746 0.031286974
-8.3940887 -7.3995948 0.031214369
-8.4159555 -7.3275928 0.031127801
-8.4493856 -7.2660346 0.031085914
-8.4846649 -7.206285 0.031052403
-6.8057442 -5.708643 0.024772018
-6.8167729 -5.6469984 0.02468545
-6.8040838 -5.5664363 0.024515105
-6.8567777 -5.5396667 0.024582127
-7.0477514 -5.6228557 0.025143424
-7.1041131 -5.5968351 0.025221614
-7.1083293 -5.5298052 0.025115499
-7.1365747 -5.4818206 0.025095951
-7.1820269 -5.4469929 0.025137838
-7.2793469 -5.4507775 0.02536124
-8.6996889 -6.4315534 0.030178344
-8.7373734 -6.376873 0.030172758
-8.751997 -6.305603 0.030088982
-8.7897081 -6.2512035 0.03008619
-8.8172598 -6.189683 0.030049887
-8.8131542 -6.1064167 0.029907469
-8.8355989 -6.0420642 0.029857203
-8.8725061 -5.9877362 0.029857203
-8.9057503 -5.9309654 0.029846033
-8.9553442 -5.8849969 0.029890714
-6.4918432 -4.2090855 0.021571787
-6.5141783 -4.1670175 0.021560617
-6.4821205 -4.090673 0.021370726
-6.5393567 -4.0709076 0.021476841
-6.5769939 -4.0385566 0.02151873
-6.6863265 -4.049417 0.021795189
-6.7582636 -4.03652 0.021948777
-6.8044443 -4.0076656 0.022018591
-6.8453364 -3.9753821 0.022071648
-6.9910879 -4.0028782 0.022462601
-6.9528198 -3.9245098 0.022261539
-9.3744926 -5.2160902 0.029924223
-9.3861551 -5.1474109 0.029859995
-9.4070063 -5.0840154 0.029826485
-9.4186068 -5.0158572 0.029765049
-9.404047 -4.9342728 0.029622631
-9.4661255 -4.8930101 0.029723162
-9.4701281 -4.8216758 0.02964218
-9.4897022 -4.7585459 0.029611461
-9.5052719 -4.6935863 0.029569574
-9.5051146 -4.6211815 0.029480213
-9.5251732 -4.5588861 0.029455081
-9.5529661 -4.5003552 0.029455081
-9.507823 -4.4080009 0.029231679
-9.5128565 -4.3396168 0.029164657
-9.5164976 -4.2709274 0.029094845
-9.5361204 -4.2096281 0.029075297
-9.5498466 -4.1458588 0.029038994
-9.541997 -4.0730486 0.028938463
-9.5170164 -3.9935257 0.028787667
-9.5441141 -3.9361992 0.028796045
-9.2715235 -3.7573566 0.027902437
-9.2172937 -3.6696908 0.027670657
-9.2089043 -3.6010454 0.027578505
-9.3269777 -3.5814009 0.027866134
-9.3497133 -3.524457 0.027868927
-9.6572065 -3.5728698 0.028720645
-9.6930456 -3.518666 0.028762534
-9.7069178 -3.4564402 0.028740194
-9.8006363 -3.4222033 0.028955217
-9.8346958 -3.3665383 0.028994313
-9.8343105 -3.2991319 0.028932879
-9.8239689 -3.2287343 0.028843516
-9.8083754 -3.1570559 0.028740194
-9.8142099 -3.0926049 0.028701099
-9.842556 -3.0352757 0.028729023
-9.8447199 -2.9699144 0.02868155
-9.854126 -2.9069054 0.028656418
-5.1713748 -1.490769 0.014995394
-5.1688743 -1.4557554 0.014961884
-5.1082897 -1.404911 0.014760823
-5.0356894 -1.351753 0.014526251
-5.0448561 -1.3210826 0.014529043
-5.0276761 -1.2836679 0.014456438
-4.9995537 -1.243857 0.014353114
-5.0041761 -1.2124501 0.014344737
-4.9852428 -1.1755222 0.014269339
-4.9728684 -1.1404381 0.014213488
-4.9690366 -1.1075094 0.014182771
-4.9522824 -1.0719188 0.01411575
-4.9480019 -1.0392497 0.014085032
-4.950366 -1.0080711 0.014073862
-4.9476285 -0.97593433 0.014048729
-4.9270029 -0.94049197 0.013973331
-4.9139972 -0.9067924 0.013920273
-4.9007635 -0.87328798 0.013867215
-4.9040589 -0.84286201 0.01386163
-4.900259 -0.81128418 0.013836497
-4.8660526 -0.59226537 0.013654984
-4.8765483 -0.56320071 0.013674531
-4.8918409 -0.53457332 0.013708041
-4.9009972 -0.50516343 0.013724796
-4.9000235 -0.47469577 0.013713626
-4.894877 -0.44389725 0.013691287
-4.8885407 -0.4130955 0.013666154
-4.8850017 -0.38262287 0.013649398
-4.8812728 -0.35220927 0.013632643
-4.8853378 -0.32238367 0.013638228
-4.8952093 -0.29288059 0.013660569
-4.893919 -0.26267743 0.013652191
-4.8964372 -0.23269157 0.013654984
-4.890779 -0.2023529 0.013635436
-4.9019222 -0.17269325 0.013663361
-4.8888955 -0.14220345 0.013624266
-4.8926754 -0.11227229 0.013632643
-4.8932724 -0.082249299 0.013632643
-4.9166837 -0.052471694 0.013696871
-4.9089127 -0.022265153 0.013674531
-4.934957 0.0078939348 0.013747137
-4.9468155 0.038265351 0.013780647
-5.0464773 0.069991566 0.014059899
-5.1229377 0.10248512 0.014274923
-5.3211441 0.13909249 0.014830636
-5.5900497 0.18041791 0.015584617
-5.7257366 0.21995784 0.015967192
-5.7372661 0.25566342 0.016003495
-6.1470623 0.31168133 0.017154016
-6.3307343 0.35993186 0.017673424
-6.3822999 0.40216014 0.017824221
-6.8914905 0.47666314 0.019256786
-9.2158489 0.69405341 0.025774535
-7.6745071 0.62546289 0.021468462
-7.8996468 0.6926105 0.022110743
-8.0475798 0.75535434 0.022537999
-9.6497765 0.96537405 0.027047925
-9.643671 1.0245658 0.027047925
-9.634222 1.0833839 0.027039547
-9.6224279 1.1418891 0.027025584
-9.6221857 1.2017767 0.027045133
-9.6374359 1.2637837 0.02710936
-9.6384163 1.3241184 0.027134493
-9.662775 1.3879234 0.027226645
-9.6481438 1.4462979 0.027209891
-9.6667528 1.5097893 0.027288081
-9.6800089 1.572762 0.027352309
-9.6721497 1.6324606 0.027357895
-9.687561 1.6962596 0.027430501
-9.7291203 1.7651271 0.027578505
-9.7682295 1.8341992 0.027720923
-9.7666092 1.8960065 0.027748847
-9.7842064 1.9617934 0.027832624
-9.8023415 2.02807 0.027919192
-9.8640413 2.1040273 0.028131424
-9.8861074 2.172236 0.028231954
-9.8950262 2.2379272 0.028296182
-9.9785089 2.3212512 0.028575435
-10.018543 2.3954537 0.028731816
-10.101743 2.4809644 0.029013861
-10.210448 2.5741842 0.029371304
-10.375505 2.6836007 0.029893506
-10.528965 2.7923188 0.030384989
-10.966151 2.9803715 0.031700268
-12.43608 3.4618561 0.036014717
-12.400178 3.533987 0.03597283
-12.403221 3.6172848 0.036045436
-12.485246 3.7244747 0.036349818
-12.566417 3.8328068 0.036654204
-12.638133 3.9395955 0.036933456
-12.761415 4.064095 0.037366297
-12.826581 4.1716995 0.037631586
-12.910833 4.2868719 0.037955519
-12.95532 4.3900776 0.038164958
-13.051006 4.5119572 0.038527988
-13.161712 4.6408277 0.038938489
-13.229916 4.756341 0.039226118
-13.349775 4.8921304 0.039670128
-13.446915 5.021523 0.040049914
-13.599044 5.1736217 0.040597249
-13.782441 5.3404179 0.04124232
-13.82011 5.4527755 0.041454554
-13.984047 5.6168513 0.04204936
-13.990974 5.7195768 0.042175025
-13.995318 5.8218298 0.042295102
-14.08458 5.9605923 0.042674884
-14.165314 6.0975051 0.043032326
-14.407041 6.306602 0.043884046
-14.433853 6.4241567 0.044085108
-14.430608 6.5290875 0.044196811
-14.585613 6.7073278 0.044797201
-14.690044 6.8648529 0.045246799
-14.919557 7.0839524 0.046087347
-14.97759 7.2244525 0.046402901
-15.073071 7.3848472 0.046838537
-15.150132 7.5382195 0.047221113
-15.174998 7.6671104 0.047444515
-15.407058 7.9033837 0.048321366
-15.600414 8.1238527 0.049083725
-15.643989 8.2689533 0.049379732
-15.938397 8.5500813 0.050474402
-15.902323 8.6567993 0.050527461
-16.044987 8.8625088 0.051152986
-16.001646 8.9671459 0.051189288
-16.017611 9.1056833 0.051418275
-15.994358 9.2227755 0.05152439
-15.978902 9.3449726 0.051658433
-15.975448 9.4749765 0.05183436
-16.005278 9.6259041 0.052121989
-16.016779 9.7671394 0.05235377
-15.993972 9.8883696 0.052476641
-15.971128 10.010218 0.052602306
-15.857074 10.07478 0.052429169
-15.907619 10.244435 0.052803367
-15.87712 10.363165 0.052912276
-15.884962 10.507834 0.053152431
-15.83514 10.615128 0.053202696
-17.160263 11.6566 0.057896927
-16.801748 11.564379 0.056925129
-18.300455 12.76203 0.062270019
-18.945433 13.385305 0.064744197
-18.989801 13.592093 0.065179832
-19.228262 13.941977 0.06629125
-19.214087 14.112379 0.066539787
-19.395914 14.429962 0.067475282
-19.4883 14.685307 0.068109185
-19.464603 14.855569 0.068343759
-19.563765 15.122103 0.069016755
-19.540691 15.296718 0.069265291
-19.643942 15.572873 0.069969006
-19.739075 15.846483 0.070653178
-19.697338 16.012718 0.070854239
-19.810265 16.307411 0.071619391
-20.119261 16.769909 0.073107801
-19.87537 16.774372 0.07259398
-19.808561 16.927193 0.072728023
-19.712645 17.055613 0.072758734
-19.594082 17.164387 0.072708473
-20.525345 18.203917 0.076578908
-20.45344 18.365593 0.076729707
-18.633274 16.938961 0.070287354
-18.447311 16.977806 0.069977388
-18.35157 17.098858 0.070010893
-18.284136 17.24682 0.070156105
-22.221558 21.219828 0.085769102
-22.689846 21.934732 0.088095278
-22.65346 22.170061 0.088480644
-22.597986 22.388876 0.088798992
-23.174723 23.243752 0.091625027
-23.967041 24.33522 0.095347457
-24.131067 24.804359 0.096604094
-24.175896 25.157448 0.097399965
-24.285452 25.583813 0.09847229
-24.237459 25.849058 0.098919094
-24.170811 26.097067 0.09929888
-24.084476 26.326044 0.099606052
-23.952662 26.506714 0.099731721
-23.950052 26.832979 0.10040472
-23.95359 27.170706 0.10111681
-23.883615 27.428785 0.1015301
-13.448202 15.637533 0.057561826
-23.796413 28.015524 0.10261361
-23.664555 28.20927 0.10278953
-23.502504 28.367805 0.1028398
-23.341299 28.527733 0.10289844
-12.514079 15.488117 0.055570755
-23.138529 28.998833 0.10356586
-23.069708 29.279289 0.10406013
-22.858299 29.380037 0.10391771
-22.711103 29.563356 0.1040713
-22.509336 29.675859 0.10397915
-22.314236 29.796608 0.1039205
-22.354527 30.235298 0.10497049
-22.396751 30.684477 0.1060512
-22.149006 30.739382 0.10576916
-22.099085 31.070278 0.10643936
-22.075809 31.444271 0.10725477
-21.971308 31.707357 0.10769041
-22.076668 32.280693 0.10917603
-21.729368 32.195068 0.10843322
-21.781981 32.703983 0.10969544
-21.753345 33.546062 0.1116167
-21.549257 33.682278 0.11162787
-21.563156 34.16396 0.11278398
-21.262741 34.150463 0.11230645
-20.96854 34.143097 0.11185686
-20.659174 34.106892 0.11132069
-8.5561943 14.324036 0.046559285
-19.92692 33.827953 0.10960329
-16.135799 27.780766 0.089681432
-15.71805 27.447966 0.088293545
-15.510007 27.47423 0.088070139
-15.311475 27.515577 0.087899797
-15.098111 27.528345 0.087642886
-14.853786 27.481474 0.08720167
-14.53382 28.542597 0.089410551
-14.297443 28.50967 0.089030772
-14.333017 29.023649 0.090360008
-14.102624 29.00403 0.090027697
-14.14589 29.552732 0.091460265
-14.139897 30.011673 0.092610784
-14.009637 30.706963 0.094219275
-13.855357 30.868979 0.094453849
-15.771209 35.722263 0.10901127
-15.554911 35.825699 0.10903361
-15.319874 35.885521 0.1089275
-15.09901 35.977924 0.1089247
-14.859283 36.024593 0.10878787
-14.56208 35.927887 0.10822378
-14.23851 35.758286 0.10744746
-13.980224 35.746262 0.10715146
-13.721188 35.728683 0.10684428
-9.2952404 25.121342 0.074766561
-9.1119156 25.098005 0.074529193
-8.9070835 25.011196 0.074107528
-8.7257538 24.986076 0.073872954
-8.5696869 25.031578 0.073850617
-8.4162521 25.084637 0.073853403
-8.2771673 25.181404 0.073987447
-8.1344519 25.268841 0.074096359
-7.9966874 25.373596 0.07425832
-3.787883 12.839853 0.037349544
-11.683234 43.50433 0.12575804
-11.548882 44.082088 0.12722132
-11.885808 46.530724 0.13407697
-11.960962 48.052532 0.13824899
-12.060753 49.753834 0.14292926
-12.269612 52.007034 0.14918451
-12.336744 53.76556 0.15401
-12.569287 56.363255 0.16122867
-12.702657 58.652985 0.16755374
-12.781203 62.72683 0.1787322
-13.274282 67.253204 0.1913963
-13.4524 70.427437 0.20019273
-13.716618 74.280861 0.21090487
-14.138376 79.28595 0.22486748
-15.520612 105.70419 0.29831362
-14.872565 105.80338 0.2983304
-3.7961102 28.266106 0.079608798
-1.253261 12.149467 0.034073912
-1.1924007 12.298264 0.03447045
-8.6900835 102.68252 0.28773555
-8.0872478 103.08283 0.28871295
-1.4881953 31.241434 0.087307781
-1.3024454 31.393854 0.087709904
-0.4226239 11.969477 0.033412084
-0.34817955 11.93786 0.033317138
-0.12607883 27.144583 0.075769074
1.0282115 26.82818 0.074939698
5.0556207 89.072281 0.24910378
0.6930781 9.2028856 0.025738232
12.397852 94.58857 0.26636717
12.908842 86.148857 0.24322553
8.8653679 48.87933 0.1386902
13.782526 66.63427 0.18998328
1.9474095 9.1295567 0.02603424
2.0190525 9.188736 0.026238093
14.818729 60.351051 0.17350459
14.555822 56.288181 0.16232334
14.698206 55.433231 0.16011445
12.597034 44.207031 0.12832995
18.118187 58.130634 0.16999999
18.963791 53.788704 0.15923481
15.159483 42.170818 0.12510738
15.390086 42.00095 0.12488119
15.635967 41.874813 0.12478903
15.804794 41.547226 0.12409928
13.998064 36.128849 0.10816514
14.076134 34.434937 0.10385069
14.977359 35.393284 0.10728829
14.74949 34.267368 0.1041467
17.782393 39.956482 0.12209704
18.37582 39.962391 0.12279517
16.024406 34.292561 0.10566863
17.173765 36.171947 0.11178425
14.60341 30.277031 0.093836702
14.788472 30.185959 0.093833908
13.786329 27.708649 0.086391836
16.741867 33.137772 0.10364404
17.07267 33.283562 0.10442595
15.191371 29.173555 0.091817707
15.407473 29.150522 0.092041112
15.517035 28.926777 0.091633402
15.028737 27.608416 0.08774621
15.15096 27.430771 0.087475337
15.073106 26.898485 0.086070694
15.264553 26.85244 0.086221494
15.850881 27.104208 0.087648474
16.022499 27.015898 0.087679192
16.69611 27.762051 0.090432614
16.860933 27.650545 0.090404689
15.994036 25.518942 0.084068455
23.322453 36.709686 0.12141845
16.480305 23.94453 0.081139103
23.029118 33.024139 0.11239582
16.598068 23.493019 0.080292962
22.757078 30.984571 0.1073218
13.841444 18.604816 0.064721853
15.640607 20.493261 0.071957283
15.744041 20.368423 0.071856752
15.840985 20.236 0.071731091
16.318319 20.584314 0.073320031
19.250681 23.979717 0.085838914
18.222322 22.415529 0.080636442
18.269911 22.194435 0.080242701
18.413429 22.091133 0.080276206
15.613461 18.499775 0.067567438
15.6916 18.362572 0.067416638
15.907351 18.385431 0.067857862
12.079042 13.619073 0.050801128
12.153695 13.535027 0.050764825
12.257367 13.483138 0.050851393
13.269622 14.417956 0.054685526
18.045019 19.367104 0.073886916
18.171749 19.264748 0.073920429
18.27511 19.137697 0.073861785
17.084557 17.456858 0.06817621
21.973637 22.178852 0.087151401
13.589669 13.548927 0.053554554
17.977943 17.705706 0.070429772
13.696138 13.32396 0.053325567
13.774751 13.2369 0.053314399
21.529636 20.43688 0.082862087
21.643688 20.294132 0.082820199
21.781008 20.173178 0.082870461
21.92061 20.054003 0.082931899
14.668171 13.091829 0.054869834
14.734723 12.989676 0.054819569
21.504196 18.724592 0.079592042
18.35479 15.78518 0.067570232
18.426912 15.651545 0.06748087
15.324915 12.696181 0.05554004
15.548802 12.721596 0.056067824
14.852648 12.000598 0.053289264
14.914278 11.899882 0.053247377
20.58736 16.220926 0.07315807
16.379591 12.743308 0.057919268
16.473335 12.654749 0.057975121
19.602913 14.86866 0.068673275
23.436018 17.327284 0.081356913
25.177834 18.141533 0.08662641
15.674666 11.148386 0.053680219
25.315901 17.773161 0.086344361
24.821415 16.975107 0.083939999
18.70117 12.621622 0.062970944
18.43598 12.116015 0.061571889
18.494871 11.992872 0.061521623
18.561373 11.874852 0.061499283
20.060532 12.489758 0.065956153
18.127884 10.980036 0.05915077
18.242132 10.896804 0.05930436
18.326744 10.795326 0.059363004
19.372353 11.251743 0.062526934
21.881044 12.352337 0.070133768
21.87953 12.175055 0.069888026
22.159864 12.153585 0.070544265
22.227861 12.014057 0.070524722
18.480179 9.6972017 0.058245994
16.004093 8.2729731 0.050276134
18.668186 9.5055399 0.058466602
18.580458 9.3177423 0.058011424
20.461887 10.104669 0.063694209
18.873264 9.1764889 0.058569927
21.272558 10.182249 0.065824904
17.188797 8.098134 0.053026769
17.964436 8.0629301 0.054953609
18.016314 7.9537625 0.054961987
22.267668 9.6679735 0.067757331
20.38695 8.7030783 0.061867896
20.479616 8.5944633 0.061987974
20.776941 8.5696917 0.062727995
20.857862 8.4536905 0.062814564
20.972515 8.3507071 0.063004456
21.103453 8.25319 0.063244611
21.247046 8.159399 0.063523866
15.14543 5.7096367 0.045165814
15.113591 5.5919585 0.044967547
15.159838 5.5035548 0.04500385
1.1890492 0.42278802 0.0034901989
1.1935091 0.41614366 0.0034957838
1.1742803 0.40136239 0.0034315558
1.1511235 0.38556063 0.0033561578
1.0489694 0.34413862 0.0030489801
1.0244086 0.32911509 0.0029707896
0.931988 0.29306328 0.0026943297
0.8735677 0.2687701 0.0025184008
0.86179733 0.25936058 0.0024793055
0.8576178 0.25236982 0.0024625503
0.85530686 0.24599442 0.0024513802
0.85391259 0.23992808 0.0024430025
0.85536867 0.23468406 0.0024430025
0.85389525 0.22865306 0.0024346251
0.85431486 0.2231559 0.0024318325
0.85857463 0.21865223 0.0024402102
0.85407788 0.21193069 0.002423455
0.85536212 0.20668618 0.002423455
0.85661423 0.20143388 0.002423455
0.84808743 0.19393747 0.0023955298
0.83950126 0.18655336 0.0023676045
0.84356213 0.18203379 0.002375982
0.86521417 0.18117355 0.0024346251
0.87218869 0.17705928 0.0024513802
0.96842211 0.19048838 0.002722255
1.0815476 0.20593216 0.0030406027
1.1821113 0.21763329 0.0033226474
1.1972067 0.21283372 0.0033617427
1.2408677 0.21277295 0.0034818214
1.2638538 0.20875137 0.0035432568
1.2967118 0.20602965 0.0036326174
1.3137672 0.20049085 0.0036772978
1.3317922 0.19489568 0.0037247709
1.3676223 0.19159245 0.0038225092
1.3876029 0.18572669 0.0038755671
1.3946677 0.17797126 0.0038923223
1.2915049 0.15671024 0.0035991073
1.231846 0.14177625 0.0034287632
1.2018766 0.13084345 0.0033421952
1.2215564 0.12541698 0.0033952531
1.2641065 0.12197467 0.003512539
1.3096466 0.1182861 0.0036382026
1.2794583 0.10763364 0.0035516343
1.2731161 0.099233463 0.0035320867
1.245774 0.089401081 0.0034538961
1.2193581 0.079974018 0.0033784979
1.1659228 0.069258451 0.0032277016
1.1183954 0.05952413 0.0030936606
1.0468215 0.049233321 0.002892599
14.598213 -0.35694802 -0.20373386
14.265934 -0.43641952 -0.19912635
14.282972 -0.52467984 -0.1994056
14.327435 -0.61436558 -0.20007578
14.386314 -0.70535135 -0.20095539
14.357755 -0.79228818 -0.20062029
14.294738 -0.87681925 -0.19981049
14.269135 -0.96316653 -0.19953124
14.23304 -1.0484978 -0.19911239
14.234312 -1.1364472 -0.19922408
14.246996 -1.2254801 -0.19950332
14.313885 -1.3197613 -0.20055048
14.332384 -1.4102088 -0.20092747
14.282689 -1.4938588 -0.20035502
14.268285 -1.5809171 -0.20028521
14.239447 -1.6662276 -0.20001993
14.227962 -1.7534454 -0.20000596
14.213961 -1.8403283 -0.19996408
14.194475 -1.9264331 -0.19985238
14.211096 -2.0175688 -0.20025729
14.206361 -2.1059015 -0.20036899
14.193173 -2.1930306 -0.20036899
14.177476 -2.2797594 -0.20034106
14.168151 -2.3675318 -0.20041087
14.157298 -2.4551051 -0.20046671
14.101619 -2.534673 -0.19989426
14.090714 -2.622066 -0.19996408
14.085162 -2.7105544 -0.20011766
