# .PCD v0.7 - Point Cloud Data file format
VERSION 0.7
FIELDS x y z
SIZE 4 4 4
TYPE F F F
COUNT 1 1 1
WIDTH 1459
HEIGHT 1
VIEWPOINT 0 0 0 1 0 0 0
POINTS 1459
DATA ascii
-12.781242 -1.4981418 -0.17952344
-12.745473 -1.4147263 -0.17889515
-12.729053 -1.33389 -0.17854609
-12.679283 -1.2500718 -0.17773628
-12.616023 -1.1657189 -0.17674497
-12.50439 -1.0780679 -0.17508347
-12.597482 -1.008261 -0.17629819
-12.643319 -0.93389082 -0.17685667
-12.651805 -0.85649782 -0.17689855
-12.630873 -0.77725536 -0.17653553
-12.606452 -0.69813627 -0.17613064
-12.641459 -0.6222949 -0.17656346
-12.698983 -0.54703951 -0.17731743
-12.825005 -0.47364661 -0.17903477
-12.853655 -0.3957445 -0.17939778
-12.804861 -0.31561288 -0.17868571
-12.768567 -0.23633529 -0.17815515
-12.772777 -0.15802145 -0.17819704
-12.798502 -0.079801619 -0.17854609
-12.81475 -0.0012712904 -0.17876948
-12.862511 0.077649131 -0.17943966
-12.951777 0.15766752 -0.18069626
-12.995554 0.23795971 -0.18132457
-13.04383 0.3189173 -0.18202268
-13.026635 0.39848787 -0.18181324
-12.979979 0.47679451 -0.18119891
-12.976809 0.55642921 -0.18119891
-13.051049 0.63986349 -0.18228796
-13.048875 0.72004133 -0.18231589
-13.097106 0.80333954 -0.18305588
-13.210649 0.89170212 -0.18471737
-13.223874 0.97414035 -0.18498266
-13.244559 1.0574112 -0.18535964
-13.264721 1.1409725 -0.18573661
-13.28535 1.2249128 -0.18612756
-13.304451 1.309051 -0.18650453
-15.487 1.6198393 -0.21726322
-15.531428 1.7208925 -0.21803114
-15.577186 1.8227841 -0.21882698
-15.649068 1.9286041 -0.21999981
-15.65479 2.0269001 -0.22025113
-15.69259 2.1297767 -0.22096319
-15.631707 2.2192776 -0.22029302
-15.638566 2.3182294 -0.22058621
-15.671481 2.4214718 -0.22125641
-15.68792 2.522665 -0.22170319
-15.710608 2.6253047 -0.22224772
-15.700115 2.7226789 -0.22233149
-15.618161 2.807286 -0.22140999
-15.572133 2.897759 -0.22100508
-15.459799 2.9751122 -0.21966471
-15.338278 3.0494416 -0.21819869
-15.284017 3.1362619 -0.21769604
-15.189162 3.2140439 -0.21662095
-15.238517 3.3223062 -0.21761227
-15.491021 3.4770653 -0.22152168
-15.919504 3.675993 -0.22797221
-17.564137 4.1694627 -0.25190338
-19.891024 4.8509784 -0.28571978
-19.941391 4.9930949 -0.28687865
-19.939432 5.1228232 -0.28729752
-20.010115 5.272078 -0.2887775
-21.4524 5.7930927 -0.31011173
-21.430908 5.9286118 -0.31032115
-21.500914 6.0902472 -0.31187096
-21.404558 6.2050762 -0.31101927
-21.3239 6.3237858 -0.31040493
-21.136383 6.4095306 -0.3082408
-21.097612 6.5393958 -0.30825475
-21.019913 6.6569514 -0.30771023
-20.956789 6.7787242 -0.30738908
-20.91955 6.9087529 -0.30745891
-20.87108 7.0350666 -0.30737513
-20.842649 7.1681995 -0.30759853
-20.819973 7.303566 -0.30791965
-20.782301 7.4338713 -0.30803135
-20.728781 7.5585089 -0.30791965
-20.662331 7.6782413 -0.30762646
-20.664389 7.8236432 -0.30836645
-20.682234 7.9758348 -0.30935776
-20.693401 8.1263466 -0.3102653
-20.684 8.2694988 -0.31087965
-20.674547 8.4132175 -0.31150794
-20.63085 8.5433588 -0.31163359
-20.624113 8.6891985 -0.31233171
-20.551109 8.8073101 -0.31203851
-20.526014 8.9460287 -0.31248528
-20.525585 9.0961132 -0.31332302
-15.825437 7.1296329 -0.24219967
-15.710482 7.194129 -0.24111062
-15.618902 7.2684536 -0.24038459
-15.545085 7.3504744 -0.2399378
-15.483466 7.4379253 -0.23968647
-15.3962 7.512619 -0.23904422
-15.365045 7.6144953 -0.23928158
-15.502028 7.8012257 -0.24215779
-15.488594 7.9139414 -0.24270231
-15.211632 7.8905001 -0.23911403
-15.131081 7.966918 -0.23861139
-15.03429 8.0341616 -0.23785743
-8.6245155 4.6769962 -0.1368271
-8.569375 4.7153654 -0.13640822
-8.5385351 4.7668824 -0.1363803
-8.5047741 4.81672 -0.13631049
-8.5192766 4.894217 -0.13702257
-14.437243 8.4124355 -0.23315218
-9.0904207 5.3717861 -0.1472708
-9.026412 5.4089594 -0.14676817
-8.9597273 5.4439926 -0.14622365
-13.908902 8.5685825 -0.22794428
-9.4757261 5.9179544 -0.15582962
-9.4949942 6.0112867 -0.15675113
-9.4554062 6.0678134 -0.15670924
-9.4322453 6.134985 -0.1569466
-9.4002686 6.1965971 -0.15704434
-9.3762045 6.2636018 -0.1572817
-9.4742174 6.4135046 -0.15958545
-13.166622 9.0314636 -0.22277828
-13.117528 9.1166477 -0.22288997
-13.097314 9.2222939 -0.22350432
-13.029899 9.2949352 -0.22332281
-10.570518 7.6387711 -0.1819389
-10.384675 7.6018968 -0.1795374
-10.33141 7.6607089 -0.1794257
-10.485687 7.8752809 -0.18294418
-10.816769 8.228241 -0.18960413
-10.758948 8.2889643 -0.18947847
-10.694485 8.344367 -0.18924113
-10.697215 8.4526052 -0.19020452
-11.405563 9.1265755 -0.20380367
-11.356341 9.2020512 -0.20392933
-12.200967 10.011117 -0.22020924
-12.193147 10.130522 -0.22118659
-12.351119 10.390534 -0.2252077
-12.902165 10.990022 -0.23648915
-13.312276 11.481054 -0.24529928
-13.273211 11.590143 -0.24588569
-13.308969 11.766075 -0.24788228
-13.767737 12.322997 -0.25783733
-14.542457 13.178047 -0.27386591
-14.158501 12.989207 -0.26812744
-15.245626 14.159835 -0.29036918
-15.344211 14.427778 -0.29392955
-15.358235 14.619554 -0.29591218
-15.945752 15.366423 -0.30905059
-15.59136 15.210509 -0.30398232
-16.584787 16.379505 -0.32531655
-17.30986 17.306713 -0.34162435
-18.028364 18.247671 -0.35801595
-18.589983 19.048506 -0.37148947
-19.088993 19.801462 -0.38388789
-19.363613 20.334585 -0.39191613
-19.431671 20.658407 -0.39585346
-19.252142 20.720844 -0.39477837
-19.17602 20.894571 -0.39583951
-19.040068 21.003691 -0.39568591
-18.86014 21.063507 -0.3946248
-18.687485 21.13015 -0.39371726
-18.607475 21.301649 -0.39477837
-19.590076 22.706245 -0.4185839
-20.148832 23.645699 -0.43362117
-20.072258 23.850742 -0.43511513
-20.353748 24.48867 -0.44446978
-20.649084 25.156433 -0.4542852
-20.496857 25.285767 -0.45434105
-20.762478 25.937189 -0.46375155
-20.654882 26.46196 -0.4685685
-20.463438 26.550974 -0.46791229
-17.135101 22.516859 -0.39493197
-16.917934 22.516853 -0.39310291
-16.762775 22.59775 -0.39271197
-16.64389 22.727606 -0.39318669
-16.425882 23.017229 -0.39468065
-20.68475 29.364597 -0.50137961
-20.670284 29.72987 -0.50544262
-20.508974 29.887468 -0.50597316
-20.677359 30.939972 -0.51946068
-20.438131 30.991972 -0.51821804
-20.305391 31.205633 -0.51969802
-20.359318 34.438148 -0.55845702
-20.134058 35.534351 -0.57012939
-20.092375 36.497902 -0.58159238
-20.067703 38.096558 -0.60108358
-21.814552 47.6157 -0.73116922
-21.521154 47.74683 -0.73114127
-21.36598 48.189686 -0.73590237
-21.105062 48.400539 -0.73713106
-20.818323 48.553936 -0.73750806
-12.031133 28.541887 -0.43233666
-11.660588 28.144053 -0.42521593
-11.329321 27.826115 -0.41935182
-11.143887 27.858898 -0.4188073
-10.9742 27.930475 -0.41886315
-10.806934 28.00848 -0.4190307
-10.706778 28.26408 -0.42186502
-10.542908 28.355486 -0.42225596
-10.374207 28.434673 -0.42247936
-10.207626 28.520388 -0.42281443
-10.055285 28.647583 -0.42377782
-9.8900547 28.739941 -0.42423859
-9.7326975 28.856934 -0.42507631
-9.5736475 28.971174 -0.42588612
-9.414484 29.087402 -0.42673782
-9.2590885 29.218016 -0.4278129
-9.0935574 29.319166 -0.42846912
-8.9370041 29.451912 -0.42960006
-8.7828617 29.596302 -0.43091249
-8.6208754 29.717817 -0.43190381
-8.4997196 29.986605 -0.4350453
-8.3203669 30.05554 -0.43529662
-8.1496181 30.157188 -0.43603662
-10.810605 41.001633 -0.59192437
-4.3504043 18.823944 -0.26960742
-4.2039194 18.712725 -0.26763877
-4.0480928 18.5506 -0.26495802
-3.8935866 18.383362 -0.26222143
-3.7412868 18.214931 -0.25948486
-3.6128638 18.154188 -0.25829807
-3.5023491 18.180922 -0.25836787
-3.3958542 18.229595 -0.25875881
-3.2952678 18.31307 -0.25965241
-3.1807866 18.321123 -0.25948486
-3.094707 18.498087 -0.26171881
-2.9749486 18.478226 -0.26117426
-2.8726714 18.568268 -0.2621935
-2.7598588 18.593456 -0.2623052
-2.6582441 18.698147 -0.26354784
-2.5745683 18.94298 -0.2667731
-2.4643304 19.005024 -0.26742932
-2.3469367 19.013834 -0.26734555
-2.2400024 19.111298 -0.26851839
-2.1210411 19.109776 -0.26830894
-2.0106225 19.188065 -0.26923046
-1.8957915 19.229893 -0.26964933
-1.7907329 19.381552 -0.27161798
-1.6807067 19.495781 -0.27307007
-1.5665544 19.574497 -0.27403346
-1.4507627 19.642576 -0.27485722
-1.3317639 19.674053 -0.27517834
-1.2134154 19.720778 -0.27572286
-1.0963677 19.799734 -0.27672815
-0.97706974 19.85103 -0.27735645
-0.86350673 20.048456 -0.28003719
-0.87219316 23.621597 -0.32989612
-0.72696054 23.61751 -0.32977048
-0.58464235 23.727484 -0.33125046
-0.43830279 23.690634 -0.33069196
-0.29414204 23.790861 -0.33206028
-0.0021875806 24.014658 -0.33515987
0.14559948 24.086212 -0.33616516
0.29548338 24.256834 -0.33856663
0.75327122 24.618076 -0.3437466
0.91114098 24.798847 -0.34634358
1.0644009 24.818764 -0.3467066
1.2254826 24.991531 -0.3492198
1.3888342 25.165249 -0.35176089
1.5466481 25.212143 -0.35254279
1.7070433 25.286976 -0.35372958
1.8707656 25.392696 -0.35536316
2.0338597 25.472439 -0.35664767
2.2169437 25.771297 -0.36101782
2.3903654 25.923489 -0.36334953
1.9380674 18.529102 -0.25997353
5.4447365 46.525928 -0.65393043
10.081925 81.798996 -1.1506768
10.585314 81.748489 -1.1508584
11.088866 81.697853 -1.1510818
11.604424 81.73024 -1.1525199
12.108772 81.678261 -1.1528131
12.620096 81.669632 -1.1537626
13.123672 81.607445 -1.1539999
13.6235 81.521431 -1.153944
2.1332724 11.86863 -0.16821408
2.1669073 11.644949 -0.16522618
2.2286811 11.581359 -0.16451409
2.2905362 11.521372 -0.16385788
2.3487246 11.446372 -0.16299222
2.4116688 11.397508 -0.16250354
2.4706936 11.33267 -0.16179147
2.5211301 11.232418 -0.16057676
2.5814543 11.179715 -0.1600462
2.6243668 11.055677 -0.15849639
2.6637232 10.922795 -0.15682094
2.7207363 10.866477 -0.15624849
2.7808909 10.824399 -0.15588547
2.8327346 10.752018 -0.15508963
2.8952653 10.721885 -0.15490812
2.9665978 10.724156 -0.15520133
3.0298915 10.697093 -0.15507567
3.0974195 10.685023 -0.15517341
3.197608 10.782769 -0.15687679
3.2785089 10.811747 -0.15758885
3.3622532 10.847776 -0.15841262
3.4538081 10.90606 -0.15957148
3.5646687 11.020708 -0.16156808
3.6372406 11.013821 -0.16179147
3.7382879 11.090785 -0.16325751
3.8439927 11.177321 -0.16487712
3.9442787 11.244102 -0.16621749
4.0414863 11.298774 -0.1673903
4.129921 11.326369 -0.1681722
4.2728338 11.498581 -0.17111821
4.3942909 11.606804 -0.17312877
4.5139966 11.705568 -0.17501366
4.6343474 11.801435 -0.17687063
4.7341418 11.841481 -0.17790383
4.8504305 11.919644 -0.17952344
4.9816275 12.030079 -0.18164569
5.114748 12.140268 -0.18378191
5.2403474 12.228133 -0.18559699
5.3656178 12.311244 -0.18735623
5.4580727 12.316483 -0.18794264
12.076859 26.806271 -0.41037413
15.631161 34.134575 -0.52406818
16.791241 36.081364 -0.55553895
16.980259 35.909863 -0.55449176
17.131433 35.66169 -0.55227178
17.356943 35.570282 -0.55249518
17.486071 35.283928 -0.54970276
17.676619 35.125061 -0.54890692
17.855867 34.945595 -0.54780388
14.35067 27.665419 -0.43501738
18.209288 34.583172 -0.5455839
18.342911 34.324398 -0.54326618
18.502171 34.117153 -0.54177225
1.1647656 2.0866969 -0.033199791
1.1731123 2.0716803 -0.033074129
1.1843075 2.0618422 -0.033032242
1.1984468 2.0571284 -0.033074129
1.2140987 2.0549011 -0.033157904
1.2184607 2.0336897 -0.032934509
1.2215701 2.0107939 -0.03268319
1.2422765 2.0168817 -0.032906584
1.2583364 2.0151579 -0.033004317
1.268538 2.0040197 -0.032948472
1.2840508 2.0012474 -0.033032242
1.2968513 1.9941691 -0.033046205
1.3035595 1.9778259 -0.032906584
1.3137258 1.915567 -0.032264322
1.3265963 1.9091123 -0.032292247
1.3359826 1.8976663 -0.032236401
1.3528274 1.8967593 -0.032362059
1.3650261 1.8892332 -0.032376021
1.3783643 1.8832424 -0.032417908
1.3857248 1.8691272 -0.032320172
1.3971673 1.8605894 -0.032320172
1.4073467 1.8503898 -0.032292247
1.4253868 1.8504326 -0.032445833
23.062532 28.820911 -0.51525801
23.174099 28.598843 -0.51381993
23.227999 28.30847 -0.51115316
23.39295 28.155415 -0.51097167
23.538233 27.979214 -0.51038522
23.769768 27.905048 -0.5116837
22.433962 26.011841 -0.47947297
23.852606 27.316013 -0.50621057
24.001881 27.148916 -0.50583357
24.354069 27.209 -0.50972903
24.521235 27.059793 -0.50974298
24.696947 26.919878 -0.50995243
24.852816 26.758308 -0.50977093
24.998724 26.58637 -0.50940788
25.140013 26.410028 -0.50897503
25.287018 26.240156 -0.50868183
25.434978 26.071621 -0.50843054
25.581825 25.902258 -0.50817919
25.73745 25.741976 -0.50812334
25.889223 25.577948 -0.50801164
26.03924 25.412327 -0.50788599
11.737832 11.177484 -0.22615713
10.425996 9.8070316 -0.19969879
9.8494081 9.1514378 -0.18756565
9.8906412 9.0773087 -0.18728642
9.9291134 9.0010042 -0.18696529
9.9647875 8.9225683 -0.18660226
10.023093 8.8645706 -0.18667208
10.071272 8.7976408 -0.18656038
10.117493 8.729147 -0.18642075
10.154119 8.6526356 -0.1861136
10.195544 8.5805111 -0.18590416
10.24185 8.5126772 -0.18579246
10.307028 8.4604597 -0.18602982
10.385157 8.4184647 -0.18650453
10.483453 8.3920765 -0.18734227
10.49631 8.2972097 -0.18665811
10.585647 8.2627964 -0.18734227
10.644067 8.2037926 -0.18748188
10.713301 8.1528597 -0.18781698
10.743139 8.0719547 -0.18746792
10.80933 8.0183935 -0.18776113
32.047649 23.469034 -0.55449176
32.19429 23.274296 -0.55454761
32.344631 23.082123 -0.55468726
32.809364 22.513971 -0.55545515
32.963448 22.323444 -0.5557344
33.118923 22.133543 -0.55605555
33.283321 21.949179 -0.55654418
33.437489 21.757633 -0.55687928
33.565315 21.548813 -0.55679554
33.731537 21.364391 -0.55736798
33.896759 21.17874 -0.55794042
11.025004 6.7949147 -0.18066834
14.401338 8.7542601 -0.23516273
1.6100986 0.93882799 -0.025855683
1.6132281 0.92743611 -0.025813796
1.6162785 0.91604131 -0.02577191
1.6236147 0.9070819 -0.025799833
1.628274 0.89662033 -0.025785873
1.632866 0.88613576 -0.02577191
1.6567903 0.88599986 -0.026065115
1.6825429 0.88653541 -0.026386246
1.7234515 0.89461744 -0.026944732
1.7333601 0.88630128 -0.027014544
1.7378725 0.8751992 -0.027000582
1.7432098 0.86451942 -0.027000582
1.7430903 0.85117507 -0.026916809
1.7500827 0.84132993 -0.026944732
1.7552121 0.83057576 -0.026944732
1.7657142 0.82232261 -0.027028507
1.7816352 0.81647038 -0.027196052
1.7966388 0.8100428 -0.027349636
1.798833 0.79778779 -0.027307749
1.8073606 0.78833395 -0.027363598
1.8011358 0.77250099 -0.027196052
1.7809643 0.75094861 -0.026819073
1.7615206 0.73005587 -0.026456056
1.7567062 0.71546322 -0.026316434
1.7397102 0.69612956 -0.025995305
1.7439489 0.68544179 -0.025995305
1.7537191 0.67688781 -0.026079077
1.7625147 0.66788548 -0.026148889
1.7722028 0.65914911 -0.026232662
1.776214 0.64826268 -0.026232662
1.7810997 0.63768876 -0.026246624
1.7821486 0.62575465 -0.026204737
1.7925729 0.61708534 -0.026302472
1.8001155 0.60735291 -0.026358321
1.8038082 0.59629619 -0.026358321
1.8178974 0.58860385 -0.026511906
1.8252876 0.57864654 -0.026567753
1.837399 0.57010174 -0.026693413
1.8456466 0.56026858 -0.026763225
1.8548012 0.55064017 -0.026846997
1.8562243 0.53869176 -0.026819073
1.8700767 0.5302915 -0.026972657
45.35461 12.555537 -0.65696019
45.453964 12.283271 -0.65729529
45.655136 12.037535 -0.65912437
46.058365 11.842075 -0.66388547
46.266918 11.593512 -0.6658541
46.404209 11.325764 -0.66681749
46.579838 11.066242 -0.66835338
46.702393 10.793058 -0.66914922
46.806763 10.515061 -0.66970766
37.775318 8.2430553 -0.53971976
37.045559 7.8459992 -0.52859193
37.013668 7.6022496 -0.52746099
36.873287 7.3379164 -0.52480817
36.703571 7.0702972 -0.5217644
36.752163 6.8460541 -0.5218482
36.214828 6.5163021 -0.51363844
36.370377 6.3141508 -0.51528597
35.638214 5.9620199 -0.50438148
35.08971 5.6491532 -0.49611589
35.022923 5.4181485 -0.49469176
34.996162 5.1943417 -0.49385402
34.983814 4.9733195 -0.49323967
35.028538 4.7605891 -0.49344912
35.288132 4.5755243 -0.49670231
35.343327 4.3623438 -0.49709323
35.865982 4.2035933 -0.50407434
51.247314 5.6876888 -0.71981794
51.497047 5.3957438 -0.72284776
51.596851 5.0863323 -0.72379714
51.898907 4.7947555 -0.72760886
23.216619 2.0014329 -0.3252188
22.986259 1.83956 -0.32182598
22.82859 1.6860393 -0.31946638
22.672901 1.5347259 -0.31714866
22.539173 1.3867989 -0.31515208
22.486359 1.2451035 -0.31430039
22.461617 1.1055337 -0.31385359
22.453993 0.96708876 -0.31365812
22.484482 0.8302176 -0.31400716
22.512142 0.69294709 -0.31432828
22.725893 0.42046309 -0.31721848
1.6188086 0.010288344 -0.022434948
1.7230276 -0.0037787058 -0.05705487
1.7259703 -0.014374777 -0.057154857
1.7218521 -0.024908541 -0.05702154
1.7076774 -0.035190195 -0.056554925
1.7094277 -0.045720331 -0.056621585
1.6981269 -0.055851128 -0.056254957
1.6937574 -0.066115186 -0.05612164
1.7082965 -0.077177562 -0.056621585
1.7107853 -0.087810576 -0.056721572
1.7132076 -0.098477036 -0.056821562
1.7205509 -0.109492 -0.0570882
1.7238348 -0.12032393 -0.057221517
1.73303 -0.13165225 -0.057554815
1.7321895 -0.14228344 -0.057554815
1.7362618 -0.15334706 -0.057721462
1.726333 -0.16315469 -0.057421494
1.66961 -0.16815715 -0.055555038
1.7051606 -0.19288783 -0.056821562
1.7098997 -0.2040552 -0.05702154
1.6937398 -0.21268095 -0.056521595
1.6924028 -0.22306953 -0.056521595
1.6642694 -0.22976951 -0.055621695
1.6608498 -0.23969218 -0.055555038
1.651441 -0.24869092 -0.055288401
1.6429719 -0.25773773 -0.055055093
1.6413596 -0.26781398 -0.055055093
1.6455982 -0.27887979 -0.05525507
1.6409028 -0.28845379 -0.05515508
1.6430352 -0.2992315 -0.055288401
1.644115 -0.30986151 -0.055388387
1.6441449 -0.32032529 -0.055455048
1.6450881 -0.33099782 -0.055555038
1.6469408 -0.34189674 -0.055688355
1.6428572 -0.35157821 -0.055621695
1.6455494 -0.36272579 -0.055788346
15.295792 -3.4646442 -0.52260292
15.250883 -3.5529907 -0.52180302
15.232683 -3.6474321 -0.52193636
15.136256 -3.7226915 -0.51940328
15.233291 -3.8458273 -0.52353615
15.239401 -3.9469914 -0.52456939
15.260296 -4.0524788 -0.52613586
15.345082 -4.175952 -0.52993548
15.567562 -4.3392534 -0.53853452
15.533916 -4.4327731 -0.53830117
15.664724 -4.5742221 -0.54380059
15.787671 -4.7154388 -0.54906666
15.850205 -4.8402405 -0.5522663
16.015793 -4.9984369 -0.5590989
16.053381 -5.1184702 -0.56149858
16.134764 -5.2536945 -0.56546485
16.202759 -5.3860116 -0.56899774
16.316109 -5.53509 -0.57416385
16.435791 -5.6883755 -0.57959658
16.514616 -5.8293653 -0.58362949
16.63513 -6.1024861 -0.59049535
16.8904 -6.3139696 -0.60092753
17.008255 -6.4772396 -0.60652691
17.134054 -6.6458058 -0.6124596
17.091095 -6.7500787 -0.6123929
18.127823 -7.2883825 -0.65115529
18.449064 -7.5493526 -0.66435379
18.394091 -7.6589551 -0.66405386
18.278648 -7.7428288 -0.66158742
18.173885 -7.8303218 -0.65952098
18.071487 -7.9180241 -0.65755457
17.999739 -8.0185928 -0.65672129
17.897392 -8.1049747 -0.6547882
17.578585 -8.0909557 -0.64492261
17.531324 -8.199934 -0.64502263
17.338955 -8.2400026 -0.63978988
17.179161 -8.2936649 -0.63575697
17.034622 -8.353157 -0.63229072
16.912369 -8.422328 -0.62965769
16.830938 -8.5110598 -0.6285578
16.765951 -8.6077824 -0.62809116
16.520491 -8.6102629 -0.62085867
16.170506 -8.5544481 -0.60965991
16.098339 -8.6431074 -0.60892665
15.764153 -8.5887203 -0.59826118
15.614065 -8.6316166 -0.59456158
15.519837 -8.7042837 -0.59299511
15.502623 -8.8201046 -0.59439492
15.40666 -8.8910847 -0.59279513
15.250894 -8.9263849 -0.58889556
15.035975 -8.9249153 -0.58269626
14.827649 -8.9247541 -0.57673025
14.690707 -8.9655876 -0.57353061
14.603971 -9.0361032 -0.57229739
14.413629 -9.0411043 -0.566998
14.324989 -9.1084614 -0.56569815
14.223466 -9.1669512 -0.56389832
14.08662 -9.2015839 -0.56069869
13.998226 -9.266881 -0.55943215
13.858933 -9.2974777 -0.55613256
13.771041 -9.3615513 -0.55489933
13.694409 -9.4328337 -0.55413276
13.637092 -9.5172558 -0.55416608
13.508255 -9.5511322 -0.55129975
13.424208 -9.615797 -0.5502665
13.330978 -9.6733332 -0.54886669
13.238354 -9.7306814 -0.54750019
13.126289 -9.772933 -0.54533374
13.025379 -9.8226023 -0.54363394
12.885434 -9.8416777 -0.54030097
12.860378 -9.9480724 -0.5418008
12.744808 -9.9842682 -0.53950107
12.636326 -10.025013 -0.53750128
12.551201 -10.083582 -0.53650141
12.483665 -10.15599 -0.53626806
12.389487 -10.206344 -0.53490156
12.31665 -10.27385 -0.53446829
12.241162 -10.338912 -0.53393501
12.141032 -10.382651 -0.53233516
12.052163 -10.435363 -0.53123534
11.896214 -10.428742 -0.52716911
11.761733 -10.43918 -0.52403611
11.587431 -10.412291 -0.51910335
11.436823 -10.404509 -0.51520377
11.330127 -10.435219 -0.51327068
11.166467 -10.411851 -0.5087378
11.078386 -10.457533 -0.50763792
11.079767 -10.588144 -0.51067096
11.051944 -10.692063 -0.51240408
11.000413 -10.773661 -0.51307064
10.968878 -10.875435 -0.51470381
10.874429 -10.914922 -0.51340395
10.780611 -10.954373 -0.51213741
10.714587 -11.021749 -0.51220411
7.4761248 -7.7857413 -0.35955447
7.1111159 -7.4971981 -0.34418949
6.8039298 -7.2620969 -0.33145759
6.7449856 -7.2883048 -0.33075768
6.6475368 -7.2720189 -0.32815796
6.6101594 -7.3208299 -0.32852459
6.5784206 -7.3761683 -0.32919118
6.4402323 -7.4944897 -0.32912451
6.3779564 -7.5148163 -0.32829127
6.3400731 -7.563766 -0.32872456
6.3094778 -7.6217713 -0.32955781
6.2720823 -7.6719484 -0.33005774
6.2305408 -7.7172871 -0.33035773
6.2484965 -7.8374228 -0.33385733
6.1514444 -7.813581 -0.33122429
6.1242433 -7.878005 -0.3323575
6.0837007 -7.9257402 -0.33279079
6.0343513 -7.9621234 -0.33275744
5.9973598 -8.0150032 -0.33342403
5.9557886 -8.0621014 -0.33385733
5.9044414 -8.0960712 -0.33375734
5.8552375 -8.1329594 -0.33379066
5.8011718 -8.1630306 -0.33355737
5.7521224 -8.2001085 -0.33362404
7.9388981 -11.466099 -0.46467608
7.8080549 -11.426303 -0.46110979
7.7277379 -11.459083 -0.46050987
7.575326 -11.383145 -0.45557708
7.4104238 -11.284888 -0.44981107
7.2888651 -11.249625 -0.4466114
7.1744809 -11.223404 -0.44381174
7.083087 -11.231709 -0.4424119
7.0800333 -11.381035 -0.44657809
7.1140952 -11.593778 -0.45321068
7.0790491 -11.697063 -0.45554376
7.0327573 -11.783189 -0.45721024
6.9628596 -11.830425 -0.4573769
7.3702555 -12.700162 -0.48927334
7.3795514 -12.89782 -0.49513933
7.3096032 -12.959396 -0.4957726
7.2964883 -13.123672 -0.50033873
7.321497 -13.361016 -0.5076713
7.2716732 -13.465487 -0.5099377
7.1823401 -13.497499 -0.50947106
7.1058836 -13.553708 -0.5099377
7.0019455 -13.557095 -0.50843787
6.9104714 -13.583768 -0.50783795
6.4696965 -12.912868 -0.4812409
6.3624811 -12.895856 -0.47914112
6.2373762 -12.840261 -0.47564152
6.1701155 -12.902636 -0.4765414
6.531405 -13.876163 -0.51103759
6.4503403 -13.925046 -0.51137084
6.3685074 -13.972547 -0.51167083
6.2863345 -14.019567 -0.51197082
4.8533878 -11.004575 -0.40068319
4.7185559 -10.879191 -0.3950505
4.5783901 -10.736028 -0.38881788
4.5081778 -10.753778 -0.38845125
4.4474406 -10.794175 -0.38891786
5.8763371 -14.513805 -0.5217697
5.7712865 -14.509657 -0.52033651
5.6232257 -14.393988 -0.5149371
5.3568735 -13.964457 -0.49837232
5.2326908 -13.895114 -0.49473938
5.0328174 -13.878419 -0.49190637
5.4711604 -15.380807 -0.54400057
5.3891926 -15.449948 -0.54526711
5.3107862 -15.530954 -0.54696691
5.2287292 -15.603048 -0.54836673
5.1821542 -15.784869 -0.5536328
5.1586308 -16.04472 -0.56163192
5.3160768 -16.889256 -0.59006208
3.6725249 -11.923275 -0.41564819
3.6292882 -12.045106 -0.41911447
3.4875102 -11.837064 -0.41111538
3.3672347 -11.69305 -0.40538269
3.2994854 -11.727922 -0.40588263
4.0460043 -14.726815 -0.50890446
3.9522002 -14.738814 -0.50847119
4.7470794 -18.146938 -0.62512481
4.6371245 -18.181536 -0.62532485
4.5235491 -18.201885 -0.62505817
4.4355268 -18.32741 -0.62842447
4.3330717 -18.397085 -0.62989098
4.2212238 -18.428198 -0.63005763
2.8376212 -12.747723 -0.43511271
2.720274 -12.584173 -0.42894673
2.6267953 -12.523355 -0.42631367
2.5578728 -12.578411 -0.42764688
3.76524 -19.113832 -0.64925545
2.9800277 -15.633656 -0.53033543
2.8795164 -15.627074 -0.52950215
2.7720184 -15.579505 -0.52730244
2.6680872 -15.547954 -0.52566928
3.144875 -19.025095 -0.64265621
3.0192893 -18.98876 -0.64078975
2.887326 -18.906155 -0.63739014
2.7579393 -18.832537 -0.63432384
2.6346998 -18.794666 -0.63249069
2.513622 -18.767883 -0.6310575
2.3990502 -18.787912 -0.63122416
1.6219552 -13.355381 -0.44824457
1.5509648 -13.460397 -0.45144421
1.467694 -13.463699 -0.45124424
1.3787147 -13.410811 -0.4491778
1.29544 -13.409069 -0.44884449
1.2112479 -13.395864 -0.44814458
1.5058408 -17.873697 -0.59776121
1.3713142 -17.564745 -0.58712906
1.249529 -17.378441 -0.58062983
1.1369042 -17.295027 -0.57759678
1.0239229 -17.186945 -0.57376391
0.90697587 -16.978329 -0.56659806
0.7900303 -16.714027 -0.55759901
0.67808914 -16.490879 -0.54999989
0.57000059 -16.297958 -0.54343396
0.46378615 -16.086359 -0.53626806
0.35969043 -15.852095 -0.52836895
0.25901783 -15.649146 -0.52153641
0.1616645 -15.523518 -0.51730353
0.065815151 -15.386295 -0.51270407
-0.028264251 -15.204511 -0.50663805
-0.12048392 -15.069131 -0.50213856
-0.21040973 -14.888226 -0.49613923
-0.30004022 -14.801718 -0.49330622
-0.38924935 -14.738655 -0.49127311
-0.47373432 -14.553187 -0.48517379
-0.55904621 -14.447141 -0.48174083
-0.64150923 -14.305654 -0.47714135
-0.7241388 -14.200634 -0.47377506
-0.80487716 -14.084167 -0.47004214
-0.88673776 -14.007148 -0.4676424
-0.96408439 -13.87781 -0.46350953
-1.0407815 -13.760013 -0.45977661
-1.1159881 -13.640806 -0.45601037
-1.1969513 -13.602838 -0.45497715
-1.2699037 -13.483793 -0.45124424
-1.3452319 -13.402158 -0.44877785
-1.421406 -13.337003 -0.44687805
-1.4906737 -13.216798 -0.44314513
-1.5600545 -13.10915 -0.4398455
-1.6301575 -13.017019 -0.43707916
-1.7038771 -12.960197 -0.43551266
-1.7754618 -12.892073 -0.43357953
-1.8481255 -12.83642 -0.4320797
-1.912603 -12.729957 -0.42888007
-1.9837238 -12.673547 -0.42738023
-2.0450726 -12.560517 -0.42398059
-2.1136067 -12.497475 -0.42228079
-2.1726391 -12.38386 -0.41888118
-2.2392921 -12.319161 -0.41714802
-2.3091125 -12.27474 -0.41611481
-2.3681722 -12.17695 -0.4132818
-2.4347768 -12.122015 -0.4119153
-2.4975522 -12.051064 -0.41001549
-2.5576701 -11.971004 -0.40781575
-2.6113164 -11.865283 -0.40474942
-2.6681771 -11.778855 -0.40234968
-2.7369998 -11.747661 -0.40184975
-2.8043766 -11.711205 -0.40118316
-2.8582833 -11.620989 -0.39868343
-2.9241533 -11.581912 -0.39795017
-2.9919064 -11.551174 -0.39751691
-3.0581102 -11.515211 -0.39691696
-3.1389422 -11.533841 -0.39821681
-3.2142146 -11.530731 -0.39878342
-3.2923093 -11.53674 -0.39968333
-3.3577135 -11.498095 -0.39905006
-3.4213374 -11.454291 -0.39825013
-3.4892204 -11.425436 -0.39798352
-3.550626 -11.376143 -0.39701694
-3.6106474 -11.323672 -0.39595041
-3.6683028 -11.265191 -0.39468387
-3.7357795 -11.237728 -0.39451724
-3.8043416 -11.213648 -0.39448389
-3.8580408 -11.146647 -0.39295074
-3.9187121 -11.101089 -0.39218417
-3.9657719 -11.018529 -0.3901177
-4.0284872 -10.980852 -0.38965109
-4.0919394 -10.945629 -0.38928449
-4.1540442 -10.907239 -0.38881788
-4.2082429 -10.848931 -0.38765132
-4.2567434 -10.777355 -0.38601819
-4.3172002 -10.737124 -0.38551822
-4.3830009 -10.710433 -0.38551822
-4.4463315 -10.677801 -0.38531825
-4.4930549 -10.606144 -0.38371843
-4.5473714 -10.553593 -0.38281852
-4.6056242 -10.510844 -0.38228527
-4.6562042 -10.451346 -0.38115206
-4.7070522 -10.393445 -0.3800855
-4.7665582 -10.355289 -0.37975222
-4.8067193 -10.276053 -0.37791908
-4.8456602 -10.195815 -0.37605262
-4.9020467 -10.15329 -0.375586
-4.9611735 -10.116738 -0.37535271
-5.0146909 -10.069109 -0.37471944
-5.0732222 -10.031906 -0.37448612
-5.1287479 -9.9890299 -0.37405285
-5.176548 -9.9316692 -0.37308627
-5.2205663 -9.8679152 -0.37188643
-5.2710891 -9.8172045 -0.37118649
-5.32023 -9.7644911 -0.37041992
-5.3674722 -9.7089205 -0.36955336
-5.4249887 -9.6723166 -0.36942002
-5.4792929 -9.6301603 -0.36908674
-5.5108056 -9.5487471 -0.3672536
-5.5516224 -9.4845638 -0.36608708
-5.595942 -9.4271154 -0.36518717
-5.6366725 -9.3643436 -0.36408728
-5.6898603 -9.3227558 -0.36382064
-5.7243452 -9.2511215 -0.36238748
-5.7671938 -9.1938095 -0.36152092
-5.8122363 -9.1405382 -0.36082098
-5.8427668 -9.065218 -0.35925451
-5.8813372 -9.0032568 -0.35822126
-5.9232292 -8.9469986 -0.35742137
-5.9685507 -8.8963766 -0.35685477
-6.0213394 -8.8571062 -0.35675478
-6.0829425 -8.8306942 -0.35718805
-6.1438756 -8.8030386 -0.35758802
-6.186235 -8.7488527 -0.35692143
-6.1990628 -8.6538534 -0.35458836
-6.2403059 -8.5994749 -0.35392177
-6.2935462 -8.5618286 -0.35395509
-6.342978 -8.519043 -0.35378844
-6.3764768 -8.455224 -0.35275522
-6.4276299 -8.4151459 -0.3527219
-6.4766979 -8.372386 -0.35258856
-6.533494 -8.3395691 -0.35288852
-6.5919952 -8.3087187 -0.3532885
-6.6422272 -8.2673359 -0.35325515
-6.6915679 -8.2248735 -0.35318851
-6.741909 -8.1836605 -0.35318851
-6.791996 -8.1421385 -0.35318851
-6.8379579 -8.0957289 -0.35298854
-6.876462 -8.0407066 -0.35242191
-6.9040813 -7.9734273 -0.35132205
-6.9456282 -7.9226465 -0.35095543
-6.9742079 -7.8574548 -0.34995553
-7.0029178 -7.7929544 -0.34898898
-7.0391693 -7.7372699 -0.34842238
-7.0743251 -7.6806993 -0.34782243
-7.1001916 -7.6144867 -0.34678921
-7.1255131 -7.5482464 -0.34575599
-7.1475272 -7.4790916 -0.34458947
-7.1529799 -7.3934307 -0.34265634
-7.1877208 -7.3386908 -0.34215641
-7.2269859 -7.2887716 -0.34188977
-7.254581 -7.2273598 -0.34108984
-7.2717228 -7.1560702 -0.33982334
-7.2961464 -7.0925064 -0.33892342
-7.3222275 -7.0309901 -0.33812353
-7.3463783 -6.9680452 -0.33725694
-7.3714924 -6.9064364 -0.33645704
-7.3975935 -6.8461404 -0.33572379
-7.4239717 -6.7864585 -0.33502385
-7.4454451 -6.7226925 -0.33412397
-7.4664164 -6.6589189 -0.33322406
-7.4763875 -6.5858927 -0.33185756
-7.512887 -6.5366139 -0.33169091
-7.5498219 -6.4877868 -0.33155757
-7.5826302 -6.4355192 -0.33125761
-7.6081886 -6.3773141 -0.33065769
-7.6102238 -6.2999172 -0.32905787
-7.6216559 -6.2309613 -0.32789132
-7.6519685 -6.1777992 -0.32755804
-7.6709766 -6.1157775 -0.32675812
-7.6942239 -6.0574646 -0.3261582
-7.7146773 -5.9972572 -0.32545826
-7.7386456 -5.9400702 -0.32492501
-7.7550354 -5.8773818 -0.32409176
-7.7829504 -5.823699 -0.32375845
-7.8161259 -5.7740521 -0.32365847
-7.8368731 -5.7153831 -0.32305855
-7.8571954 -5.6566772 -0.3224586
-7.8779078 -5.5985174 -0.32189199
-7.9080205 -5.5472035 -0.32172534
-7.9394431 -5.4968696 -0.32162535
-7.9573441 -5.4373364 -0.32099208
-7.9789567 -5.3805842 -0.32052547
-8.0059967 -5.3276491 -0.32029217
-8.0393715 -5.2789736 -0.32032549
-8.0581913 -5.2208495 -0.31979224
-8.0757589 -5.1621552 -0.31922564
-8.0861483 -5.0991769 -0.3183924
-8.0943708 -5.0352101 -0.31749249
-8.1259661 -4.9859719 -0.3175258
-8.1632462 -4.9401579 -0.31779245
-8.1916885 -4.8889523 -0.31772581
-8.1870804 -4.8183174 -0.3163926
-8.2216768 -4.7710018 -0.31659257
-8.2455921 -4.7174864 -0.3163926
-8.2674179 -4.6628757 -0.31612596
-8.2958736 -4.6120596 -0.31612596
-8.3275223 -4.5629916 -0.31625929
-8.3483286 -4.5080094 -0.31599265
-8.3652449 -4.451066 -0.31559271
-8.3791218 -4.3926921 -0.31509274
-8.4014769 -4.338903 -0.31492612
-8.4306135 -4.2886305 -0.3150261
-8.4648113 -4.24085 -0.31532606
-8.4835033 -4.1852932 -0.31505942
-8.4901457 -4.1239886 -0.31435952
-8.5080776 -4.068367 -0.31409287
-8.5292625 -4.0143833 -0.31395954
-8.5555477 -3.9628131 -0.31402621
-8.5769739 -3.9089992 -0.31392622
-8.5980625 -3.8550713 -0.31382623
-8.6435013 -3.8119228 -0.31462613
-8.6648941 -3.7580199 -0.31455949
-8.6758385 -3.6996849 -0.31412619
-8.687315 -3.6417439 -0.31372625
-8.697484 -3.5834208 -0.31329295
-8.7202349 -3.5303614 -0.3133263
-8.7454472 -3.4782665 -0.3134596
-8.7750025 -3.4278133 -0.31375957
-8.7977362 -3.3746223 -0.31382623
-8.8136005 -3.3188157 -0.31365958
-8.8328609 -3.2643275 -0.31362626
-8.8555431 -3.2110908 -0.31372625
-8.8750792 -3.1566937 -0.31372625
-8.8990002 -3.1038241 -0.3138929
-8.9207144 -3.0501328 -0.31399289
-8.9430513 -2.996609 -0.31412619
-8.9650688 -2.9429264 -0.3142595
-8.9810543 -2.8872504 -0.31419286
-8.9995546 -2.8323896 -0.31422618
-9.0138988 -2.7762332 -0.31412619
-9.0355482 -2.7223146 -0.31429285
-9.0712557 -2.6724722 -0.31495944
-9.0980473 -2.6198046 -0.31532606
-9.1120272 -2.5633895 -0.3152594
-9.1218014 -2.505842 -0.31505942
-9.1485891 -2.4529312 -0.31545937
-9.1770048 -2.4002919 -0.31592599
-9.2012444 -2.3464079 -0.31625929
-9.2280769 -2.2930403 -0.31669256
-9.2584867 -2.2403717 -0.31725919
-9.2603855 -2.1807706 -0.31685922
-9.2921019 -2.1281495 -0.31749249
-9.3079119 -2.0717456 -0.31759247
-9.333148 -2.0173402 -0.31802577
-9.3502417 -1.9610614 -0.31819242
-9.385603 -1.9084336 -0.31899232
-9.4128265 -1.8538998 -0.3195256
-9.4240246 -1.796109 -0.3195256
-9.4604225 -1.7429603 -0.32039216
-9.4817629 -1.6868058 -0.32075879
-9.4909496 -1.628426 -0.32072547
-9.5066786 -1.5711381 -0.32092544
-10.839761 -1.7232834 -0.36562046
-10.72268 -1.637271 -0.36132094
-10.694947 -1.5659428 -0.3600544
-10.652885 -1.4930735 -0.35832128
-10.639063 -1.4246283 -0.35755467
-10.77946 -1.3761626 -0.36198753
-10.377943 -1.2602119 -0.3482224
-10.041947 -1.1569103 -0.33669034
-10.050844 -1.095489 -0.336757
-10.059365 -1.0340021 -0.33682367
-10.036671 -0.96947098 -0.33585709
-10.019537 -0.90579772 -0.33509052
-10.004988 -0.84262317 -0.33442393
-10.766244 -0.84028971 -0.35972112
-10.790138 -0.775576 -0.36035436
-10.822618 -0.71119106 -0.36128759
-10.854713 -0.64643663 -0.36222082
-10.950293 -0.58472955 -0.36528715
-11.103424 -0.5246129 -0.37028658
-11.202299 -0.46041942 -0.37348625
-11.18993 -0.39115012 -0.37298629
-11.198114 -0.32265568 -0.37318626
-11.223864 -0.25448439 -0.37398618
-11.247199 -0.18597607 -0.37471944
-11.285106 -0.11734768 -0.37595263
-11.296607 -0.048148852 -0.37631926
-11.365651 0.021291979 -0.37861902
-11.397288 0.09128423 -0.37968555
-11.435488 0.16176407 -0.38098541
-11.47225 0.23269588 -0.38225192
-11.505576 0.30400589 -0.38341847
-11.534461 0.37560368 -0.38445169
-11.512963 0.44563732 -0.38381842
-11.629826 0.52163851 -0.38781798
-11.665334 0.59497124 -0.38911784
-11.774217 0.67297554 -0.39288408
-11.798793 0.74703795 -0.39385062
-11.760087 0.81706655 -0.39271742
-11.736913 0.88785368 -0.3921175
-11.70136 0.95740986 -0.3911176
-11.719159 1.0312915 -0.39191753
-11.756394 1.1073008 -0.39338401
-11.809046 1.1854019 -0.39538381
-11.857203 1.2637671 -0.39725026
-11.877034 1.3396329 -0.39818349
-11.906304 1.4169699 -0.39945
-11.910277 1.4916128 -0.3998833
-11.906846 1.5654461 -0.40008327
-11.93068 1.6431102 -0.40121648
-11.927299 1.717281 -0.4014498
-11.904677 1.7886519 -0.40104982
-11.901377 1.8629 -0.40131646
-11.963708 1.9479327 -0.40381619
-11.97321 2.0249693 -0.40454945
-12.04522 2.1132457 -0.40741578
-12.108727 2.201052 -0.41001549
-12.159821 2.2875001 -0.41221526
-12.189704 2.3706517 -0.41371509
-12.308193 2.4721615 -0.41824791
-12.376957 2.5650747 -0.42111427
-12.433311 2.6564193 -0.42358065
-12.497794 2.7504842 -0.42634702
-12.545992 2.8419077 -0.42858011
-12.542918 2.9222357 -0.42908004
-12.547107 3.0044947 -0.42984661
-12.563375 3.0900171 -0.43104649
-12.592631 3.1792769 -0.43271297
-12.668672 3.2812881 -0.4360126
-12.663755 3.3630636 -0.43654588
-12.679528 3.4506748 -0.43781239
-12.695664 3.5388739 -0.43911225
-12.715037 3.6284981 -0.44054544
-12.789433 3.7347386 -0.44391173
-12.790217 3.8202925 -0.44474494
-12.810506 3.9121256 -0.44627813
-12.840643 4.0076256 -0.4481779
-12.922461 4.1203384 -0.45191082
-13.051842 4.2499843 -0.45734355
-13.090961 4.3517399 -0.4596433
-13.124586 4.4525294 -0.46177641
-13.149911 4.55128 -0.46364287
-13.274416 4.6857677 -0.46904224
-13.289614 4.7830353 -0.47060874
-13.499286 4.9522529 -0.4791078
-13.612818 5.0888786 -0.48424056
-13.928792 5.3046165 -0.49663916
-13.897845 5.3907046 -0.49670583
-13.85428 5.4718409 -0.4963392
-13.854756 5.5705395 -0.49757239
-13.844366 5.6652861 -0.49843898
-13.820415 5.7547369 -0.49883893
-13.782084 5.8382592 -0.49873894
-13.746001 5.9227152 -0.49873894
-13.699331 6.0025353 -0.49837232
-13.65494 6.0832267 -0.49810567
-13.64376 6.178853 -0.49907222
-13.623748 6.2708101 -0.49973881
-13.595879 6.3593669 -0.50013876
-13.564727 6.4465303 -0.50043875
-13.544717 6.5391998 -0.50117201
-13.522286 6.6309853 -0.50183856
-13.498343 6.7222962 -0.50247186
-13.472004 6.8126607 -0.50303847
-13.464625 6.9129968 -0.50433832
-13.437908 7.003798 -0.50493824
-8.786562 4.6485629 -0.33109096
-8.6407576 4.6395149 -0.32665813
-8.544548 4.6556306 -0.32409176
-8.4808321 4.6886311 -0.32275856
-8.4362125 4.7317805 -0.32215863
-8.4261322 4.7943277 -0.32289189
-8.4632111 4.8844028 -0.32545826
-8.46241 4.9534035 -0.32659146
-8.7060261 5.1679602 -0.33722362
-8.917346 5.3676476 -0.34668922
-8.868886 5.4128914 -0.3460893
-8.8227577 5.4593205 -0.34558934
-9.0176992 5.6567359 -0.35458836
-8.9499273 5.6910477 -0.3532885
-8.9139996 5.7453151 -0.35325515
-8.8685369 5.793344 -0.35285521
-8.8328228 5.847651 -0.35285521
-8.7942867 5.9000678 -0.35275522
-8.7612247 5.9561648 -0.35288852
-8.7648458 6.0375896 -0.35452169
-8.8448381 6.1730452 -0.35928783
-9.2474804 6.5387645 -0.37728581
-9.2088108 6.5965471 -0.37735248
-9.506299 6.8982687 -0.39128426
-9.6973372 7.128118 -0.40094984
-9.6646414 7.1958413 -0.40141645
-9.8692827 7.4427476 -0.41181529
-9.8424921 7.5177226 -0.41261521
-9.9092283 7.6654158 -0.41738135
-10.148399 7.9504132 -0.42951334
-10.410275 8.2591238 -0.44274518
-10.484848 8.4236193 -0.44811124
-10.765573 8.7583637 -0.46240965
-10.788002 8.8871641 -0.4657093
-10.898284 9.090827 -0.47287515
-11.359236 9.5940971 -0.49543929
-11.61235 9.9305744 -0.50913775
-11.772591 10.193316 -0.51890337
-12.088616 10.597398 -0.53570145
-12.260327 10.881672 -0.54626697
-12.43643 11.175125 -0.55716574
-12.512532 11.383039 -0.56369835
-12.524792 11.53543 -0.56743127
-12.468397 11.625695 -0.56809789
-12.420814 11.72462 -0.56919771
-12.390549 11.840658 -0.57113087
-12.351424 11.949122 -0.57269734
-12.311435 12.05755 -0.57426387
-12.258512 12.153975 -0.57526374
-12.230969 12.276399 -0.57749683
-12.193271 12.389681 -0.57929659
-12.153248 12.501527 -0.58102977
-12.099848 12.600372 -0.58216298
-12.036062 12.688879 -0.58282954
-11.98873 12.795312 -0.58432937
-11.969058 12.932445 -0.58722907
-11.951524 13.073504 -0.59029537
-11.901894 13.180713 -0.59182853
-11.836095 13.270647 -0.59259516
-11.770302 13.36102 -0.59339505
-11.706469 13.454101 -0.59432828
-11.676461 13.587073 -0.59702796
-11.627152 13.698846 -0.59879446
-11.650106 13.897838 -0.60436046
-11.655756 14.079146 -0.60912663
-11.644432 14.242475 -0.61309284
-11.577542 14.339315 -0.61419272
-11.567227 14.507764 -0.61835891
-11.532401 14.647568 -0.62129194
-11.48341 14.770918 -0.62352502
-11.492372 14.971115 -0.62899107
-11.496287 15.167992 -0.63429046
-11.56289 15.451895 -0.64318949
-11.571201 15.662421 -0.64898884
-11.510219 15.781573 -0.65098864
-11.522376 16.003572 -0.65722126
-11.95376 16.819365 -0.68771785
-11.857221 16.902212 -0.6881178
-12.099223 17.47423 -0.70838225
-12.147418 17.775885 -0.71758121
-12.097355 17.937916 -0.72111416
-12.358077 18.569256 -0.74344498
-12.481464 19.006462 -0.75787669
-12.539615 19.352764 -0.76860881
-12.814699 20.045734 -0.79300612
-12.766635 20.243183 -0.79770559
-13.286307 21.35644 -0.8383677
-13.171744 21.464819 -0.83943427
-13.086884 21.623043 -0.84246725
-13.102518 21.951809 -0.85213286
-13.184566 22.400433 -0.86639792
-13.238518 22.811113 -0.87912983
-13.211971 23.090563 -0.88676232
-13.097541 23.219942 -0.88862878
-13.058272 23.485926 -0.89572799
-13.016708 23.75317 -0.90286052
-12.971403 24.01902 -0.90992641
-12.927548 24.293146 -0.91729224
-12.834867 24.479998 -0.92135847
-12.90091 24.977417 -0.93709004
-12.824909 25.208429 -0.94278944
-12.703124 25.35277 -0.94525582
-12.763141 25.867619 -0.96152067
-12.613788 25.965221 -0.96225393
-12.49994 26.137703 -0.96578681
-12.384874 26.310663 -0.96935314
-12.299243 26.550303 -0.97538579
-12.23891 26.850805 -0.98365152
-12.075562 26.929045 -0.98378485
-12.014167 27.238556 -0.9923839
-11.889764 27.410784 -0.99598348
-11.696256 27.424387 -0.99385035
-11.677321 27.852337 -1.0067489
-11.58122 28.105503 -1.0133148
-11.448686 28.275158 -1.0168811
-11.291602 28.386663 -1.018381
-11.195412 28.65556 -1.0255468
-10.896937 28.404585 -1.0141481
-10.633321 28.23428 -1.0057157
-10.473392 28.335554 -1.0070156
-10.839785 29.889421 -1.0598763
-10.633068 29.890398 -1.0575767
-10.453743 29.967348 -1.0580099
-10.279696 30.060242 -1.059043
-10.074412 30.061155 -1.0568767
-10.144186 30.897251 -1.0840737
-9.7804718 31.070889 -1.0858735
-9.5719843 31.073008 -1.0838736
-9.3549013 31.044073 -1.0808407
-8.4302273 29.961266 -1.0375456
-8.8542442 32.225136 -1.1140703
-8.6563473 32.278858 -1.1140703
-8.5198498 32.567287 -1.1222028
-8.1388445 32.746983 -1.1248691
-7.7393546 32.85704 -1.1253024
-4.2375164 18.499313 -0.63249069
-4.1265335 18.536673 -0.63289064
-3.9550545 18.294958 -0.62379164
-3.8111205 18.168247 -0.6186589
-3.6955864 18.171701 -0.61799228
-3.5782211 18.164618 -0.61699241
-3.4672592 18.189177 -0.61709243
-3.3635581 18.253355 -0.61855888
-3.2511442 18.271683 -0.61849225
-3.1604428 18.416388 -0.62272513
-3.0504801 18.454166 -0.62335837
-2.951946 18.565321 -0.62649137
-2.8420506 18.609758 -0.62739128
-2.736356 18.685192 -0.6293577
-2.6277606 18.745178 -0.63082421
-2.5174706 18.796612 -0.63202405
-2.4077873 18.856318 -0.63352388
-2.2995155 18.932249 -0.63559031
-2.1974981 19.069118 -0.63972318
-2.0870605 19.142849 -0.6417563
-1.9767209 19.22489 -0.6440894
-1.8650683 19.302313 -0.64628917
-1.7532601 19.387053 -0.64875555
-1.6371245 19.431305 -0.64988875
-1.5270491 19.558561 -0.65382165
-1.4154735 19.685194 -0.65775454
-1.2981373 19.746365 -0.65952098
-1.1788546 19.785885 -0.66058755
-1.0620168 19.878574 -0.66345388
-0.94691938 20.030472 -0.66832
-0.82629859 20.091827 -0.67018646
-0.70709366 20.213381 -0.67408603
-0.58328408 20.225332 -0.67435271
-0.39125577 23.61862 -0.7873401
-0.24886653 23.863426 -0.79543918
-0.10284011 23.957451 -0.7985388
0.044339869 24.055576 -0.80180514
0.19318907 24.21176 -0.80703789
0.3421402 24.238098 -0.80797112
0.49457484 24.419403 -0.81410378
0.64719248 24.521814 -0.81763673
0.80199456 24.651237 -0.82210284
0.95663345 24.733738 -0.82503587
1.1140593 24.854204 -0.82926875
1.2730501 24.974665 -0.8335349
1.4347574 25.115057 -0.83850104
1.5959634 25.218494 -0.84226727
1.76493 25.413618 -0.84913319
1.9237698 25.441175 -0.85043305
2.0971045 25.64007 -0.85749894
2.2604311 25.695415 -0.85979867
2.4197385 25.698975 -0.86039859
1.8607384 18.540493 -0.62099195
5.6810575 39.468052 -1.3293463
6.1565785 37.820873 -1.2774521
6.308887 37.311337 -1.2615205
2.1106339 11.611156 -0.39315072
2.1759276 11.566556 -0.39208415
2.236939 11.501971 -0.39035103
2.2954693 11.428256 -0.38831791
2.3521655 11.349365 -0.38611817
2.4117386 11.287804 -0.38451836
2.4719338 11.231796 -0.38311851
2.5039389 11.053633 -0.37755245
2.5628734 11.000098 -0.37625259
2.6219432 10.949175 -0.37505272
2.6814399 10.901824 -0.37398618
2.7365408 10.838651 -0.37238637
2.7939742 10.786825 -0.37118649
2.8477974 10.723111 -0.36958668
2.8930724 10.630214 -0.36698696
2.9703176 10.655586 -0.36848679
3.0372884 10.642926 -0.36868677
3.1165404 10.67206 -0.37035325
3.1959777 10.699661 -0.37198642
3.2840428 10.753452 -0.37455279
3.4940593 11.19487 -0.39068434
3.5538802 11.145605 -0.38971776
3.6129193 11.095079 -0.38871789
3.6576023 11.002518 -0.38625148
3.750406 11.05464 -0.38888451
3.8629434 11.160815 -0.39345068
3.9765906 11.265078 -0.39798352
4.0963988 11.381527 -0.40298295
4.2067695 11.466899 -0.40691584
4.3099432 11.528872 -0.41004884
4.4225702 11.612424 -0.41398174
4.5197597 11.65216 -0.41638145
4.6539445 11.783166 -0.42208081
4.7492704 11.811882 -0.42414725
4.8481507 11.84727 -0.42648032
4.9768386 11.952008 -0.43134645
5.1034837 12.047327 -0.43591261
5.2457204 12.17458 -0.44167864
5.5052142 12.564182 -0.45704359
5.5712228 12.505517 -0.45614368
5.5517917 12.258962 -0.44837788
13.477749 28.816193 -1.0604763
13.535486 28.482903 -1.051244
13.701745 28.382214 -1.0506107
13.904676 28.356834 -1.0528104
14.166173 28.447231 -1.0593764
14.418475 28.514072 -1.0651424
17.933895 34.932583 -1.3090819
14.387163 27.605558 -1.0377121
12.831388 24.255915 -0.91469252
12.961541 24.142384 -0.91339266
13.099391 24.043968 -0.91269279
13.236038 23.943897 -0.91195953
1.1668781 2.0498192 -0.078252502
1.1764364 2.0374269 -0.078052528
1.1879059 2.028445 -0.077985868
1.1987997 2.0185394 -0.077885881
1.2106472 2.0102894 -0.077852547
1.216712 1.9925855 -0.077452593
1.2357513 1.9961315 -0.077885881
1.2522244 1.995285 -0.078152515
1.2649798 1.9884074 -0.078185849
1.2847363 1.9923697 -0.078652464
1.3051353 1.9970006 -0.079152405
1.3206741 1.9939553 -0.079352379
1.3228619 1.9708743 -0.078752451
1.3366157 1.9651999 -0.078852437
1.3435465 1.9495537 -0.07855247
1.3383249 1.9166849 -0.077552579
1.3425597 1.8978279 -0.077119298
1.3524333 1.8871168 -0.077019311
1.3557698 1.8674577 -0.076552697
1.3760812 1.8711836 -0.077052638
1.3946986 1.8723251 -0.077452593
1.4013468 1.8573481 -0.077185959
1.4139301 1.8503032 -0.077252619
1.4307601 1.8487077 -0.077552579
22.748867 29.040022 -1.2297907
22.919792 28.891279 -1.2294241
23.094131 28.746986 -1.2292907
23.225935 28.550468 -1.2269577
23.290751 28.273964 -1.2211916
23.437551 28.099054 -1.2198251
23.584372 27.924934 -1.2185253
22.236662 26.003752 -1.1406007
20.265778 23.406584 -1.0320795
20.401768 23.273525 -1.0317128
20.520969 23.121742 -1.0305463
20.578289 22.90172 -1.0263468
20.686144 22.739534 -1.0247469
20.732525 22.511459 -1.0201808
20.896843 22.412334 -1.0214807
21.119722 22.374544 -1.0256468
21.496895 22.495995 -1.0372455
21.65954 22.389528 -1.0384454
25.406227 25.942207 -1.2104928
25.590961 25.812092 -1.2117261
25.737534 25.643293 -1.2111928
25.89653 25.486994 -1.2112927
26.050993 25.326221 -1.2112261
26.213112 25.172821 -1.2115594
10.282289 9.7531157 -0.47220856
9.900712 9.2763968 -0.45204416
9.8789616 9.1428318 -0.44847786
9.8729143 9.0253954 -0.44567817
9.9288483 8.9653158 -0.44571152
9.9381742 8.8636427 -0.44367841
9.9833746 8.794569 -0.44327846
10.057506 8.7508602 -0.44417834
10.031424 8.6205826 -0.44067875
10.175565 8.6364822 -0.44467831
10.235258 8.5796614 -0.44497827
10.273852 8.5052252 -0.44437835
10.295671 8.4173536 -0.44307849
10.349458 8.3559046 -0.44317847
10.435699 8.3202839 -0.44467831
10.466139 8.2400198 -0.44381174
10.569366 8.2167473 -0.4460448
10.720265 8.2290325 -0.45027769
10.770556 8.1630993 -0.45027769
10.77243 8.0609293 -0.44827789
10.995318 8.1229639 -0.45547709
10.860849 7.9210606 -0.44787794
32.198997 23.183693 -1.322747
32.343086 22.987427 -1.322847
31.14172 21.847172 -1.2681865
31.31216 21.681284 -1.2696862
31.546101 21.558111 -1.2737858
31.714243 21.388729 -1.2752523
31.874838 21.213669 -1.2764522
32.040325 21.041279 -1.2778853
32.19986 20.864397 -1.2791185
32.360115 20.687426 -1.2804184
32.52195 20.51087 -1.2818183
32.656521 20.31674 -1.2821848
11.031569 6.7690787 -0.43121314
32.899105 19.911877 -1.2820182
33.025814 19.712711 -1.2822182
1.6014972 0.94191825 -0.061554369
1.6063821 0.9315722 -0.061521038
1.5990559 0.9142524 -0.061021093
1.6098585 0.90736991 -0.061221071
1.6276246 0.90427464 -0.061687686
1.6375248 0.89667231 -0.061854333
1.6614629 0.89658141 -0.062554255
1.6845788 0.89576072 -0.063220851
1.7157127 0.89886665 -0.064187407
1.7176437 0.8864876 -0.064054087
1.730177 0.87955737 -0.064320728
1.7373284 0.86982012 -0.064387381
1.7408403 0.8582592 -0.064320728
1.7415788 0.84537774 -0.064154081
1.7485365 0.83553815 -0.064220734
1.7545346 0.82521933 -0.064254068
1.7713542 0.81989968 -0.064687349
1.7745328 0.80818635 -0.064620689
1.7940495 0.80382615 -0.065153964
1.8163222 0.80046672 -0.065787226
1.8322022 0.79407972 -0.066187181
1.885764 0.80360413 -0.067953654
1.8519475 0.775787 -0.066553809
1.7393173 0.71604836 -0.062320948
1.7242242 0.69748515 -0.061621025
1.7303288 0.68763125 -0.061687686
1.738239 0.67845607 -0.061821006
1.7461019 0.66920966 -0.061954323
1.7511104 0.65883547 -0.061987653
1.7607447 0.65015757 -0.062187631
1.76658 0.64002317 -0.062254291
1.7667073 0.62783158 -0.06212097
1.7761884 0.61895472 -0.062320948
1.7837355 0.60933828 -0.062454268
1.7883884 0.59869957 -0.062487599
1.7872803 0.58615607 -0.062320948
1.8136784 0.58252132 -0.063120857
1.8248452 0.57378268 -0.063387498
1.8273764 0.5622806 -0.063354164
1.8317488 0.55134583 -0.063387498
1.8379736 0.54094356 -0.063487485
1.8431789 0.530209 -0.063554145
1.8819945 0.52890629 -0.064787343
45.357792 12.462873 -1.5682529
45.391899 12.173196 -1.5668198
45.652351 11.943271 -1.5732524
46.025959 11.739755 -1.5836179
46.173748 11.47617 -1.586251
46.374435 11.224379 -1.5907505
46.518314 10.957494 -1.5933502
37.634647 8.6214113 -1.287151
37.44783 8.3371115 -1.2789853
37.368355 8.0790863 -1.2745523
37.196163 7.803267 -1.2670199
36.914268 7.5079532 -1.2558211
36.480133 7.1868343 -1.2395229
36.51667 6.9615507 -1.2392896
