# .PCD v0.7 - Point Cloud Data file format
VERSION 0.7
FIELDS x y z
SIZE 4 4 4
TYPE F F F
COUNT 1 1 1
WIDTH 1494
HEIGHT 1
VIEWPOINT 0 0 0 1 0 0 0
POINTS 1494
DATA ascii
-1.7691327 7.688087 0.3067292
-1.719308 7.6870961 0.30626228
-1.670411 7.6896887 0.305951
-1.6194849 7.6821947 0.30525059
-1.5693142 7.6773024 0.30466694
-1.5231487 7.6916876 0.30486149
-1.4766774 7.7048144 0.30501711
-1.4270058 7.7009573 0.30451128
-1.3795507 7.7085853 0.30447236
-1.3313754 7.7119813 0.30427781
-1.2827182 7.7121196 0.30396652
-1.2334776 7.708005 0.30349958
-1.1849436 7.7075272 0.30318829
-1.1386498 7.7215729 0.30346069
-1.0913895 7.729404 0.30349958
-1.0430062 7.729023 0.30322722
-0.99556214 7.7352767 0.30322722
-0.94710821 7.733305 0.30291593
-0.89917785 7.7350011 0.30276027
-0.85027796 7.7274604 0.30225444
-0.80253732 7.7295504 0.3021377
-0.7552889 7.7363181 0.30221552
-0.70826089 7.7457824 0.3024101
-0.66072035 7.7499828 0.3024101
-0.61299723 7.7518988 0.30233225
-0.56585735 7.7614932 0.30256572
-0.5177567 7.7578402 0.30229336
-0.47014576 7.7608705 0.30229336
-0.42235395 7.7606163 0.30217662
-0.37414861 7.7510853 0.30170968
-0.32641321 7.7492414 0.30155405
-0.27849853 7.7411122 0.30116493
-0.23114412 7.7476697 0.30135947
-0.18374349 7.7549362 0.30159295
-0.13638575 7.7689052 0.30209881
-0.088840522 7.7805862 0.30252683
-0.04119996 7.7999711 0.30326614
0.0066566966 7.7950807 0.30307156
0.05441729 7.7849011 0.30268246
0.10228776 7.7924132 0.30299374
0.15009919 7.7916393 0.30299374
0.19755089 7.776587 0.30244899
0.24548335 7.7822194 0.30272138
0.293605 7.7905517 0.30311048
0.34148875 7.7906003 0.30318829
0.38978255 7.7983384 0.30357742
0.43796042 7.8017864 0.30381089
0.48551279 7.7939653 0.30361632
0.53339469 7.7918367 0.30365524
0.57584667 7.7166705 0.30085364
15.369855 137.62244 5.391932
0.60434413 5.1205435 0.20030758
0.64867526 5.22086 0.20439324
0.67953521 5.2078643 0.20404303
0.71188295 5.2065668 0.20415977
3.7690341 26.378897 1.0371668
7.4627366 41.309502 1.6341785
7.6741924 41.038986 1.6253068
7.9133396 40.926376 1.6227387
9.789176 49.013096 1.9458169
9.8830643 42.629185 1.7035569
10.169925 42.674664 1.7078371
10.716224 42.639687 1.7115725
9.3926859 36.425983 1.4643708
9.5971146 36.296181 1.4614915
9.8617182 36.391888 1.4677562
10.079484 36.311436 1.466978
10.358366 36.446907 1.4749936
10.576504 36.364433 1.4742543
16.22604 31.213791 1.369428
16.480209 31.232952 1.374681
17.296379 30.916771 1.379039
17.430519 30.712729 1.374681
17.717846 30.777533 1.3824242
17.850435 30.572454 1.3781052
17.987797 30.378086 1.3742919
18.359226 30.155062 1.3742919
18.502972 29.975519 1.3712568
19.848957 31.719049 1.4565886
20.214548 31.438623 1.4549934
10.582198 15.809853 0.74035358
10.719384 15.597273 0.7365014
10.8166 15.533667 0.7366181
10.844316 15.371471 0.73206556
10.884977 15.22985 0.7284857
10.892669 15.044601 0.72280473
11.062187 15.083041 0.72790205
10.944783 14.732527 0.71420538
11.075226 14.718591 0.71681243
11.215327 14.530154 0.71428323
11.29504 14.449256 0.71369952
11.454004 14.28773 0.71261001
11.632917 14.1515 0.7128824
11.465755 13.774947 0.69743472
11.55328 13.708156 0.69762927
17.3857 20.122534 1.0350657
17.912128 20.476522 1.0589181
17.871147 20.178469 1.0491514
18.16139 20.254427 1.0588791
18.337042 20.199581 1.0618753
18.364626 19.98221 1.05635
18.415421 19.792336 1.0522643
14.258944 14.589864 0.79393405
14.021409 14.171784 0.77584046
13.881119 13.858849 0.76335001
13.878386 13.687108 0.75856394
13.78103 13.42528 0.74871945
13.780347 13.260785 0.74424469
13.669534 12.993538 0.73393327
13.724965 12.886847 0.73264921
13.724656 12.729001 0.72844684
13.770082 12.614848 0.72673476
13.754613 12.446308 0.72187084
13.715247 12.25846 0.71583962
13.647132 12.047758 0.70840764
13.601053 11.859374 0.7022208
13.630407 11.738527 0.70000285
13.686193 11.641075 0.69918573
13.590576 11.416759 0.69070315
13.570398 11.258501 0.68615055
13.583573 11.129424 0.68334895
13.523438 10.942154 0.67692864
13.373309 10.685557 0.66611135
13.280951 10.478884 0.65829027
13.322927 10.379999 0.65720075
11.637685 8.9526958 0.57128519
11.666936 8.8617773 0.57004005
11.713097 8.784029 0.56965095
11.803715 8.7393456 0.57144088
13.091353 9.568984 0.63097471
13.115788 9.4639177 0.62934047
13.153264 9.3687687 0.62836766
13.208867 9.2867365 0.62828988
13.242616 9.1895609 0.62720037
13.284737 9.0985336 0.62653887
13.263326 8.9648056 0.62292016
13.287326 8.8627386 0.62148041
13.256322 8.7250032 0.61751151
13.197314 8.5705681 0.61229742
13.253019 8.4915857 0.61245304
13.317542 8.4181156 0.61303675
13.357922 8.3293686 0.61253089
13.382394 8.23102 0.61132467
13.410435 8.1352758 0.61031294
13.43609 8.0384731 0.60922348
13.451596 7.9360752 0.60770595
13.471536 7.8368068 0.60642189
13.432691 7.7042809 0.60253078
13.240514 7.4864535 0.59183025
13.286201 7.4050703 0.59183025
13.32876 7.3219652 0.59171349
13.386617 7.24718 0.59229714
13.183979 7.0332031 0.58140206
13.17824 6.9266038 0.57926196
13.197422 6.8336658 0.57825029
13.180357 6.7225919 0.57568216
13.181177 6.6214061 0.57393116
13.188419 6.5240088 0.57249147
13.225506 6.4416504 0.5723747
13.293614 6.3742051 0.5736199
13.324343 6.2886782 0.57326967
13.378085 6.2139602 0.57393116
13.440498 6.1429729 0.57498175
13.476115 6.0595679 0.57490396
13.498422 5.9702988 0.57428133
13.565038 5.9005156 0.5755654
13.651517 5.8387852 0.5777055
13.742352 5.7781515 0.58004022
13.775702 5.6929584 0.57996237
13.85759 5.6275015 0.58194685
13.951256 5.5660677 0.58443713
14.072598 5.5146341 0.58809477
14.243257 5.4809413 0.59381467
18.295006 5.6564345 0.74521744
103.2019 28.4737 4.1684141
103.02167 27.067987 4.1474023
103.03771 26.397406 4.141449
103.412 25.818174 4.1500483
101.66735 24.720884 4.0738606
102.22747 24.193718 4.090281
99.964874 23.011423 3.994015
6.7034817 1.4130759 0.26630065
6.6983204 1.3691148 0.26575589
6.6428819 1.3153666 0.26322669
6.6135364 1.2674314 0.26174808
6.6005559 1.2230026 0.26093093
6.612854 1.1833599 0.2611255
6.6308217 1.1446328 0.26155353
6.6475773 1.1055655 0.26194263
6.6917291 1.0707592 0.26342124
6.7426167 1.0365158 0.26517224
6.6836061 0.98549765 0.26260412
6.8646541 0.96921229 0.26949137
7.0427761 0.95034009 0.27626187
7.0217156 0.90366232 0.27521127
7.0261364 0.8604393 0.27517238
6.9578352 0.80876702 0.27229297
6.8802276 0.75698113 0.26906335
6.9264865 0.71908832 0.27069759
6.9009333 0.67365932 0.26953027
7.0233517 0.6421411 0.27416068
7.0570288 0.60158354 0.27532801
71.347214 -1.2825207 1.5692462
71.610909 -2.1665816 1.5755131
96.9963 -3.5305166 2.1345491
53.265057 -2.921227 1.1730416
53.402798 -3.2575579 1.176494
53.132423 -3.5684204 1.1709967
95.94812 -7.0357733 2.1157482
43.932125 -4.8525991 0.97188282
43.400043 -5.06356 0.96077818
43.559669 -5.3532991 0.96502215
43.899811 -5.6687465 0.97331214
78.52137 -12.599268 1.7488774
55.049026 -10.574394 1.2326548
68.279289 -13.986786 1.5326998
22.182985 -4.6859646 0.4984076
21.691748 -4.7214112 0.48800662
21.27117 -4.7667503 0.47918889
20.93952 -4.827549 0.47237217
20.64101 -4.8922997 0.46630311
20.518322 -4.9963865 0.46421412
20.416475 -5.1044874 0.4626089
19.935436 -5.1143837 0.45240584
19.936552 -5.2452583 0.45315346
19.920403 -5.3719134 0.45352727
20.14629 -5.5656581 0.45944244
20.160822 -5.7030478 0.4605639
20.150419 -5.8338737 0.4611356
20.12958 -5.9619479 0.46148744
17.102512 -5.1797161 0.39277065
17.024569 -5.2703657 0.39171514
16.576311 -5.2432632 0.38212779
16.186125 -5.2293057 0.37385976
16.090122 -5.3075395 0.37238649
15.972924 -5.3777742 0.37042943
15.862094 -5.4490457 0.3686263
15.711366 -5.5052738 0.36589962
15.394852 -5.5006523 0.35930282
14.585822 -5.312717 0.34116158
14.467659 -5.3704524 0.33916053
14.223099 -5.3791928 0.33419093
14.077875 -5.423234 0.33155221
14.008966 -5.4956374 0.33071661
13.843143 -5.5288339 0.32759413
13.738572 -5.5850544 0.32592294
13.642147 -5.6436405 0.32444966
13.533545 -5.6962128 0.32269049
13.306255 -5.6969042 0.31809473
11.743945 -5.1134877 0.28146043
11.499348 -5.0911441 0.27633691
11.347553 -5.1074405 0.27343431
11.230543 -5.1378736 0.27136731
11.131721 -5.1754947 0.26974007
11.0871 -5.237721 0.26943225
11.026813 -5.2922416 0.26875055
10.983348 -5.3545432 0.26848668
10.947598 -5.4205041 0.26842073
10.921279 -5.4911685 0.26859665
10.870462 -5.5494394 0.26817885
10.827331 -5.6114345 0.26795894
10.75288 -5.6568174 0.26696941
10.679165 -5.7019696 0.26600188
10.616728 -5.7526231 0.26532021
10.557576 -5.8046522 0.26472652
10.51303 -5.8644524 0.26450661
10.519483 -5.9529762 0.26558408
10.360503 -5.9472303 0.2624836
10.264203 -5.9759789 0.26096633
10.181715 -6.0119047 0.25980088
10.142062 -6.0727248 0.25973493
10.099482 -6.1317272 0.25960299
9.7773085 -6.0185337 0.25225854
9.6299372 -6.0096025 0.24939992
9.3436422 -5.9108982 0.24291305
9.1313066 -5.8553257 0.23831727
9.0314989 -5.8698368 0.23664607
8.8967943 -5.8602471 0.23405133
8.7891598 -5.8669896 0.23216024
8.6660461 -5.8619909 0.22985135
8.5705404 -5.8743567 0.22826812
8.4136267 -5.8430018 0.22503568
8.3440924 -5.8709288 0.22413412
8.2875595 -5.9075089 0.22358438
8.1644316 -5.8956208 0.22123152
8.067584 -5.9013357 0.21958232
7.9444699 -5.8864436 0.21720746
7.8226442 -5.8708663 0.2148546
7.6917615 -5.8467569 0.21223786
7.6185093 -5.8651772 0.21120436
7.5287652 -5.8700104 0.20970909
7.4416041 -5.875824 0.20827977
7.3804245 -5.9013944 0.20757613
7.3021188 -5.9125948 0.2063887
7.212359 -5.9135485 0.20487143
7.1367097 -5.9251208 0.20374997
7.0711398 -5.9443517 0.20291437
6.9584031 -5.9228249 0.20071544
6.7871294 -5.8492308 0.19680132
6.7013946 -5.8473821 0.19535002
6.6189361 -5.8473516 0.19398668
6.5344973 -5.8445311 0.19255738
6.4651651 -5.8543172 0.19156785
6.4018559 -5.8688788 0.19075425
6.3078356 -5.85432 0.18901709
6.2441096 -5.866899 0.18818149
6.1688771 -5.8678923 0.18699406
6.1003509 -5.8744264 0.18600455
6.0405679 -5.8887162 0.18527889
5.9915133 -5.9130282 0.18488309
5.942389 -5.9369607 0.18448728
5.8805442 -5.9477167 0.18369566
5.8069177 -5.9457779 0.18253022
5.745338 -5.9553938 0.1817386
5.7024808 -5.9840202 0.1815407
5.6492105 -6.0014257 0.18101296
5.5850501 -6.0066881 0.18013337
5.5244203 -6.0150723 0.17936376
5.478004 -6.0384893 0.1790559
5.416832 -6.0451832 0.17826428
5.3630729 -6.0595894 0.17771454
5.3132892 -6.0780811 0.17729674
5.2654414 -6.0984602 0.17694493
5.2026243 -6.1009851 0.17608733
5.1586514 -6.1251454 0.17586744
5.106267 -6.1390047 0.17536168
5.0608878 -6.1609497 0.17509781
5.0116529 -6.1779113 0.174702
4.9586506 -6.1898193 0.17417426
4.9001088 -6.194253 0.17344861
4.8509321 -6.2100205 0.1730528
4.8084626 -6.234127 0.17289887
4.7531605 -6.2412434 0.17228317
4.6967511 -6.2463179 0.1716235
4.6434383 -6.25495 0.17107375
4.6173816 -6.3002582 0.17153554
4.5780511 -6.3276615 0.17151354
4.533329 -6.3474965 0.17129365
4.4931436 -6.373559 0.17124967
4.4505258 -6.3960843 0.17111774
4.4106307 -6.4224482 0.17109574
4.3649707 -6.4402862 0.17085387
4.3114767 -6.4461722 0.17030413
4.2685385 -6.4674993 0.1701722
4.2205906 -6.4810023 0.16984235
4.1802044 -6.5059361 0.16982037
4.1353889 -6.5238633 0.16962245
4.0979314 -6.5533528 0.16973241
4.0497713 -6.5656104 0.16940257
4.0062914 -6.5852108 0.16927063
3.9694104 -6.6156697 0.16942455
3.9414699 -6.6614122 0.16997428
3.9111016 -6.7036057 0.17043607
3.8758769 -6.7378774 0.17069994
3.840379 -6.7719679 0.17096381
3.8187549 -6.8311844 0.17186537
3.784487 -6.8684978 0.17221721
3.7522898 -6.9100404 0.17267898
3.7230263 -6.9576154 0.17329468
3.698915 -7.0157042 0.17417426
3.6710043 -7.0675468 0.17489991
3.6412303 -7.1166391 0.1755596
3.6226888 -7.1888452 0.176791
3.6033969 -7.2610898 0.1780224
3.5943265 -7.3558226 0.17980354
3.6314662 -7.5489178 0.18398152
3.5953467 -7.5927444 0.18450926
5.273797 -11.500378 0.2780081
5.2088885 -11.545279 0.27831593
5.1201062 -11.536815 0.2773484
5.0224266 -11.506622 0.27587512
4.9438429 -11.518848 0.27543533
4.8831763 -11.572916 0.27600706
4.8101592 -11.598043 0.27589712
4.7434325 -11.63845 0.27616099
4.6533494 -11.62093 0.27506152
4.5687838 -11.615769 0.27426991
4.4516783 -11.525143 0.27147725
4.4039183 -11.613003 0.27290654
4.3245587 -11.618256 0.2724008
4.2679372 -11.684953 0.27334633
4.2376366 -11.826684 0.27605104
3.6923668 -10.507428 0.24469419
4.1735959 -12.114106 0.28154838
3.6463029 -10.798224 0.25041142
4.1696978 -12.602923 0.29170746
4.1372843 -12.767128 0.29491791
4.2514615 -13.399299 0.30892515
4.2883539 -13.808956 0.31776488
9.1623812 -30.835777 0.70726269
9.0307293 -31.090153 0.71181446
8.9558058 -31.553732 0.72115999
3.2671976 -11.785558 0.26872858
3.1624391 -11.685717 0.26600188
3.0937402 -11.716501 0.26626575
2.9993551 -11.648128 0.26428673
2.9100633 -11.595524 0.26268148
2.8566635 -11.685999 0.26433069
2.7768061 -11.669266 0.26356107
2.6875675 -11.610112 0.26184589
2.614084 -11.616631 0.26162601
2.5461721 -11.648078 0.26197782
2.4775577 -11.677174 0.26228568
2.4074731 -11.699991 0.2624616
2.3360288 -11.716503 0.26250559
2.2644727 -11.732578 0.26254955
2.1948247 -11.759029 0.26283541
2.119261 -11.753581 0.26241761
2.0495012 -11.780153 0.26272547
1.9742057 -11.774758 0.26232967
1.9073344 -11.820208 0.26307729
1.8435026 -11.888002 0.26433069
1.8146609 -12.195752 0.27092752
1.7656072 -12.387783 0.27495158
1.7855312 -13.102703 0.29058602
1.8141454 -13.952149 0.30918902
7.8294377 -126.54537 2.7883811
3.0695913 -61.933983 1.3636235
2.6762896 -61.647015 1.3569168
2.2999904 -61.716221 1.3581042
-1.4413348 -29.603765 0.65162957
-1.6109623 -29.375748 0.64681387
-1.0005366 -13.647063 0.30070111
-1.0556512 -13.28089 0.29276296
-1.0914605 -12.741245 0.28099865
-1.1475774 -12.494376 0.2756992
-1.1921211 -12.15975 0.26846471
-1.2520924 -12.011999 0.2653642
-1.3219311 -11.969311 0.26459458
-1.3859637 -11.880539 0.26281342
-1.3290766 -10.816012 0.23941673
-1.5221769 -11.789264 0.26118621
-1.5834879 -11.698463 0.25938308
-1.6503314 -11.653881 0.25861347
-1.7111295 -11.571338 0.25700822
-1.7860585 -11.586311 0.25757995
-1.8575923 -11.578095 0.25764593
-1.9304082 -11.577327 0.25788781
-2.0005565 -11.560339 0.25777787
-2.0758653 -11.572447 0.2583276
-2.1608913 -11.635179 0.26002079
-2.2299795 -11.60992 0.25975692
-2.3161604 -11.671526 0.26145008
-2.3859265 -11.64828 0.26125219
-2.4745049 -11.714609 0.26307729
-2.5395336 -11.667945 0.26237366
-2.649776 -11.824818 0.26626575
-2.7946062 -12.122029 0.27334633
-2.838496 -11.976243 0.27044374
-5.634119 -23.137138 0.52349746
-3.8359516 -15.342922 0.34758246
-3.8746173 -15.103145 0.34267884
-3.8751276 -14.729085 0.33471867
-3.9482496 -14.641322 0.33326739
-3.9323184 -14.234249 0.32453761
-3.9504602 -13.965503 0.31895229
-3.9582255 -13.672112 0.31279528
-4.0048475 -13.521991 0.30991468
-4.0251441 -13.290487 0.30516496
-4.0705457 -13.149025 0.30248228
-4.187428 -12.189699 0.28321958
-4.2624745 -12.16472 0.28324157
-4.3383808 -12.142102 0.28332952
-4.39364 -12.062649 0.28209811
-4.4578304 -12.00922 0.2814824
-4.5179939 -11.946107 0.2806468
-4.591928 -11.920026 0.28069079
-4.7029543 -11.988419 0.2829777
-4.8290825 -12.091174 0.28610018
-4.9133472 -12.086323 0.2866939
-5.0164618 -12.126158 0.2883651
-5.081852 -12.073956 0.28785932
-5.1920428 -12.1271 0.28988236
-5.2595701 -12.079431 0.28950852
-5.3072805 -11.987512 0.28807923
-10.947632 -22.809734 0.55621767
-11.769541 -24.141323 0.59045511
-11.87619 -23.985329 0.58841014
-11.999784 -23.865561 0.58726668
-12.090079 -23.681959 0.58456194
-12.268745 -23.672127 0.58616722
-12.444951 -23.655682 0.58764046
-12.63931 -23.671478 0.58994937
-12.867671 -23.747305 0.5937975
-13.073833 -23.778286 0.59656817
-13.292058 -23.827709 0.59984457
-6.2686076 -11.07721 0.27967927
-16.105562 -26.897205 0.68927538
-16.373283 -25.881317 0.67333311
-16.439495 -25.636454 0.66957289
-16.559441 -25.478098 0.66807765
-16.77038 -25.122467 0.66409755
-16.902367 -24.986799 0.66323996
-17.094366 -24.939516 0.66475725
-17.220837 -24.796387 0.6637457
-11.456555 -16.071884 0.4338468
-11.614079 -15.474841 0.42529294
-11.555138 -15.201127 0.41970763
-11.563416 -15.019828 0.4166511
-11.619088 -14.902077 0.41535372
-11.541612 -14.253685 0.40312764
-11.579409 -14.122297 0.40141246
-11.663288 -14.047906 0.40132451
-11.744075 -13.79714 0.39824599
-11.618346 -13.480967 0.39116541
-11.68244 -13.388331 0.39054972
-11.678318 -13.218996 0.38769108
-11.896208 -12.660743 0.38184193
-11.934392 -12.546221 0.38058853
-11.975781 -12.436031 0.37946707
-12.083268 -12.394528 0.3804566
-11.242618 -11.391563 0.35176045
-13.400747 -12.613906 0.40451297
-14.13759 -13.144801 0.42432541
-14.222397 -13.061865 0.42445734
-14.280061 -12.9542 0.42379764
-13.728877 -10.997832 0.3866356
-13.847851 -10.954322 0.38808692
-16.723516 -12.8986 0.4642581
-16.867569 -12.845411 0.46606123
-16.948465 -12.743475 0.46612719
-17.230982 -12.627904 0.46960151
-12.034173 -8.7064581 0.32642868
-12.127234 -8.6609249 0.32750618
-12.218554 -8.6134224 0.32853967
-19.243484 -13.389474 0.51536143
-19.354126 -13.290955 0.51613104
-19.33931 -13.106888 0.51358026
-19.373661 -12.957409 0.51237082
-19.401903 -12.804698 0.51102948
-19.429838 -12.652676 0.50971013
-19.592062 -12.5878 0.51193106
-19.724661 -12.502672 0.51338238
-19.771336 -12.362858 0.51261276
-19.851076 -12.243936 0.51272267
-20.294813 -12.346367 0.5222221
-20.357327 -12.213892 0.52189225
-22.428967 -13.270323 0.57292962
-22.611004 -13.191394 0.57550234
-22.87641 -12.9726 0.57816309
-23.141457 -12.935893 0.58284682
-21.278202 -11.723594 0.53407437
-23.750055 -12.896148 0.59414935
-29.219893 -15.404926 0.7262615
-29.23988 -14.509878 0.71768564
-29.158587 -14.247241 0.71352965
-29.135542 -14.015187 0.71084696
-29.234653 -13.623655 0.70913178
-29.35223 -13.459854 0.70996737
-29.465248 -13.293477 0.710715
-31.82897 -14.125463 0.76564449
-31.901297 -13.9239 0.76531464
-32.04401 -13.752735 0.76669997
-32.624279 -13.765339 0.77855223
-37.20182 -14.368978 0.87688875
-37.343502 -14.160999 0.87816411
-37.524323 -13.966821 0.88038504
-51.133759 -18.321039 1.1944153
-33.71542 -11.847269 0.78574276
-40.151585 -13.557606 0.93184018
-36.931725 -11.220725 0.84869838
-37.074631 -11.016115 0.8504135
-37.160728 -10.793999 0.85085332
-37.346481 -10.599903 0.85360199
-37.754761 -10.465892 0.86145216
-62.577553 -16.934021 1.4256116
-61.723396 -15.892605 1.4015992
-62.162052 -15.599476 1.4093615
-62.357597 -15.242451 1.4116484
-62.772854 -14.936378 1.4189488
-63.026951 -14.588804 1.4226431
-62.528111 -14.069684 1.4094055
-62.725582 -13.710304 1.4119343
-62.943489 -13.353801 1.4149687
-63.032078 -12.968947 1.4151447
-63.276165 -12.61498 1.4188609
-63.38575 -12.232929 1.4196085
-63.590332 -11.868165 1.422533
-64.797371 -11.682461 1.4479089
-65.600647 -11.412132 1.4642689
-65.675346 -11.010391 1.4644009
-66.898193 -10.37305 1.4887211
-52.757538 -2.290401 1.1612114
-51.101158 -1.9044344 1.1244671
-51.259773 -1.5954504 1.1277215
-51.091518 -0.64925504 1.1235656
-51.166996 2.4913549 1.1264682
-51.191677 2.8075078 1.1273698
-16.815786 1.2329029 0.37058336
-15.918926 1.265383 0.35096884
-15.322163 1.3125956 0.33797312
-14.844908 1.3635093 0.32761613
-14.548712 1.4263741 0.3212612
-14.139948 1.4739419 0.31242147
-13.977608 1.543771 0.30903509
-13.626271 1.5896502 0.30147076
-13.376126 1.6437167 0.29614931
-13.202188 1.7046336 0.29252109
-12.978475 1.7567726 0.28779337
-12.802141 1.8129607 0.28412113
-12.610778 1.8648582 0.28011906
-12.485468 1.924683 0.2775903
-12.317456 1.9762298 0.27411598
-12.113788 2.0198681 0.26985005
-12.019402 2.0800078 0.26802492
-11.837156 2.1233537 0.26424274
-11.722661 2.1771402 0.26197782
-11.605992 2.2292252 0.25966895
-11.439116 2.2700355 0.25623861
-11.337805 2.3223255 0.25428155
-11.229437 2.3720117 0.25217056
-11.124798 2.4213068 0.25014755
-10.995591 2.4639423 0.24757479
-10.870181 2.5059826 0.24508999
-10.806932 2.5613351 0.24401252
-10.73176 2.6131675 0.24267116
-10.662179 2.6656294 0.24146175
-10.639812 2.7295105 0.2413298
-10.646068 2.8008492 0.24185756
-10.651848 2.8723669 0.2423853
-10.660043 2.9448597 0.24297902
-10.67929 3.0208266 0.2438366
-10.68072 3.0921354 0.24429838
-10.69318 3.1669827 0.24502403
-10.685028 3.2360127 0.2452879
-10.433852 3.2299621 0.23996647
-10.231775 3.2363315 0.2357665
-10.114689 3.2677004 0.23352358
-9.913106 3.2698808 0.22932361
-9.7763138 3.2914059 0.22661892
-9.6263981 3.3068295 0.22360638
-9.3813715 3.2871461 0.2183729
-9.2885332 3.3187442 0.21667972
-9.0857553 3.3092933 0.21241379
-8.9453087 3.3204453 0.20959914
-8.8022671 3.3289387 0.20671853
-8.6557312 3.3343661 0.20374997
-8.5439005 3.3516316 0.20159501
-8.4006195 3.3550434 0.19869241
-8.2752209 3.3639791 0.19620761
-8.1999187 3.3921423 0.19491024
-8.0573177 3.3911955 0.19200765
-8.0299253 3.4378159 0.19185372
-8.0150957 3.489816 0.19200765
-8.0182152 3.5498581 0.19260135
-8.0254555 3.6121213 0.19330502
-8.0213232 3.6696155 0.19374481
-8.0158806 3.7267728 0.19416261
-8.0217886 3.7895532 0.19486625
-10.995266 5.2771006 0.26798093
-12.959471 6.317976 0.31684133
-11.498602 5.693336 0.28194419
-11.517044 5.79073 0.28326356
-11.461707 5.8512874 0.28277978
-11.419375 5.9182844 0.28262585
-11.404966 5.9998784 0.28317559
-11.394394 6.0838718 0.28383526
-11.41838 6.1870136 0.28537452
-11.443278 6.2916403 0.28695777
-11.458591 6.3919339 0.28832111
-11.440037 6.4739399 0.28884885
-11.497208 6.5997591 0.29131165
-11.193846 6.5172548 0.2846269
-11.095107 6.5512495 0.2831316
-10.913173 6.5344591 0.27950338
-10.898509 6.6168633 0.28016305
-10.907084 6.7140093 0.28143844
-10.924204 6.8173299 0.28295571
-10.902445 6.8970585 0.28348345
-10.872544 6.97192 0.2838133
-10.90165 7.0853572 0.28570437
-10.851291 7.1477156 0.28552845
-10.745697 7.1730876 0.28390124
-10.628611 7.1895924 0.28196618
-10.51915 7.2100186 0.280229
-10.349897 7.1877432 0.27688664
-10.225471 7.1947327 0.27473167
-10.117634 7.2120743 0.27301651
-9.9880867 7.2125616 0.27070761
-9.8774767 7.2253098 0.26890448
-9.7486143 7.2232838 0.2665956
-9.657732 7.2481575 0.26532021
-9.5494041 7.2588778 0.26356107
-9.4207144 7.252686 0.2612302
-9.3035002 7.2537975 0.25920716
-9.2038918 7.2673764 0.25766793
-9.0982227 7.275013 0.25595275
-8.9788237 7.2703032 0.25384176
-8.8660126 7.2694755 0.25190669
-8.7827816 7.2918077 0.25080723
-8.698082 7.3121057 0.24966379
-8.5852957 7.3076639 0.24770673
-8.4728947 7.3021159 0.24574968
-8.3819799 7.31387 0.24440832
-8.2800026 7.314857 0.24273713
-8.2051573 7.3388634 0.24185756
-8.107357 7.3414249 0.2402963
-7.9980454 7.3322539 0.23838323
-7.9030766 7.3349428 0.23688796
-7.8214922 7.3490672 0.23578849
-7.7125072 7.3362827 0.23385343
-7.6320615 7.3494868 0.23277594
-7.5474501 7.3577938 0.23156653
-7.4672942 7.3695536 0.23048905
-7.3872809 7.3806081 0.22941157
-7.2975726 7.3810067 0.22802624
-7.2074413 7.379868 0.22661892
-7.1217656 7.3822207 0.22534354
-7.0370226 7.3845243 0.22409014
-6.94841 7.381701 0.22270481
-6.8614602 7.3795328 0.22136346
-6.793735 7.3971958 0.22063781
-6.7240367 7.4120846 0.21984619
-6.6464071 7.4174628 0.2187907
-6.5590267 7.4109387 0.21740536
-6.468688 7.3998599 0.21591009
-6.3963747 7.4083843 0.21500853
-6.3190117 7.4102168 0.21393105
-6.2515287 7.4228497 0.21318342
-6.1777358 7.4272485 0.21221589
-6.1041255 7.4310222 0.21124835
-6.0395203 7.4450436 0.21058866
-5.9668479 7.4484096 0.20964313
-5.8813367 7.4346991 0.2082358
-5.812222 7.4407058 0.2074002
-5.7383704 7.4398127 0.2063887
-5.679287 7.4573851 0.20590493
-5.6196041 7.4737124 0.20539917
-5.5480165 7.4735346 0.20445363
-5.4671884 7.4598584 0.20315626
-5.3855662 7.4438534 0.2018149
-5.3304939 7.4637408 0.20146307
-5.2765326 7.484868 0.20115522
-5.2162318 7.4965868 0.20060548
-5.1497617 7.4987826 0.19981387
-5.0700002 7.4805837 0.19849451
-5.0056634 7.4841275 0.19776885
-4.9502854 7.5005159 0.19739504
-4.8850756 7.5014267 0.19662541
-4.8238249 7.5077085 0.19600971
-4.7551875 7.5016999 0.19508615
-4.701118 7.5180206 0.19475631
-4.6470275 7.5339608 0.19442648
-4.5804482 7.5290217 0.19356889
-4.5156479 7.5261221 0.19277728
-4.451057 7.5227122 0.19198565
-4.3922195 7.5282931 0.19143592
-4.3374701 7.540369 0.19106209
-4.2812586 7.549448 0.19062231
-4.2231483 7.5546308 0.19009456
-4.1593461 7.5488782 0.18930295
-4.0914812 7.5347209 0.18831342
-4.0343237 7.5394087 0.18780766
-3.973067 7.5357208 0.18710402
-3.9161551 7.5395513 0.18659826
-3.8607123 7.5456371 0.18615846
-3.8111916 7.5629344 0.18600455
-3.7536044 7.5637884 0.18545482
-3.6974673 7.5669155 0.18497105
-3.641434 7.5696397 0.18448728
-3.5897849 7.5809975 0.1842234
-3.5322216 7.5793204 0.18365169
-3.4789817 7.5863109 0.18329985
-3.4249671 7.5911107 0.18290403
-3.3677804 7.5882239 0.18233232
-3.3119583 7.5876708 0.18182656
-3.2487786 7.5692635 0.180903
-3.1976094 7.5780015 0.18063913
-3.1518176 7.5993261 0.18068312
-3.0960741 7.596303 0.18015537
-3.0419734 7.5965948 0.17971559
-2.9887176 7.5983696 0.17931977
-2.9387968 7.6081719 0.17912187
-2.8867412 7.6120381 0.17879203
-2.8347492 7.6155534 0.17846219
-2.7759633 7.599936 0.17769256
-2.7245576 7.6036491 0.1773847
-2.6781828 7.6211672 0.1774067
-2.6264851 7.6232777 0.17707686
-2.5729437 7.6193585 0.17661507
-2.5261438 7.6350026 0.17661507
-2.4792488 7.6503587 0.17661507
-2.4250042 7.6425562 0.17608733
-2.3745067 7.6458344 0.17582346
-2.3290012 7.6650434 0.17593341
-2.2807865 7.6753559 0.17584544
-2.2266767 7.6652045 0.17529571
-2.1741426 7.6594872 0.17485593
-2.1244333 7.6630492 0.17463604
-2.0729342 7.6595345 0.17426221
-2.022069 7.6576099 0.17393237
-1.9713054 7.6553502 0.17360254
-1.9230791 7.6624537 0.17349258
-1.8734158 7.6634259 0.17325071
-1.8245074 7.666996 0.1730748
-1.7740474 7.6634364 0.17274494
-1.7296257 7.6858821 0.17300881
-1.6798717 7.6846299 0.17274494
-1.6270859 7.6683869 0.17215124
-1.5777868 7.6674547 0.17190935
-1.5320787 7.6838551 0.17206328
-1.4856606 7.6970367 0.17215124
-1.4341856 7.683404 0.17164548
-1.384176 7.6763167 0.17129365
-1.3365349 7.6817112 0.17122768
-1.2913593 7.7015986 0.17149155
-1.2445567 7.7123384 0.17155752
-1.1949134 7.7050104 0.17122768
-1.1474668 7.7112083 0.1712057
-1.0968859 7.6953402 0.17069994
-1.0493776 7.699944 0.17065597
-1.0019829 7.7052464 0.17063397
-0.95505399 7.7142258 0.17069994
-0.90945315 7.7348351 0.17102978
-0.85843605 7.7084737 0.17032611
-0.80944914 7.6976876 0.16997428
-0.76397341 7.720417 0.1703701
-0.71741831 7.7339191 0.170568
-0.66917449 7.7292113 0.1703701
-0.62117571 7.7261958 0.17021617
-0.57316518 7.7218852 0.17004025
-0.52550232 7.7212672 0.1699523
-0.47799215 7.7223511 0.16990831
-0.43076655 7.7281327 0.16997428
-0.38393334 7.7426133 0.17023817
-0.33654839 7.7478199 0.17030413
-0.28911403 7.7527356 0.1703701
-0.2416009 7.7563624 0.17041408
-0.19390434 7.7537007 0.17032611
-0.14653203 7.7657404 0.170568
-0.099031985 7.7784896 0.17083187
-0.051243115 7.7699523 0.17063397
-0.0035623088 7.7601237 0.17041408
0.044121422 7.771996 0.17067795
0.091844179 7.7745786 0.17074391
0.13965419 7.7798657 0.17087585
0.18702635 7.7638702 0.17054601
0.23423773 7.7485867 0.17023817
0.28275967 7.7739792 0.17083187
0.33087957 7.7820859 0.17105177
0.37789395 7.7649307 0.17072193
0.42635283 7.7774401 0.17105177
0.47418803 7.7766728 0.17109574
0.52149385 7.7676315 0.17096381
0.56834108 7.7533183 0.17072193
13.454252 137.21161 3.0321333
14.306902 137.23187 3.0344644
0.60910463 5.2223277 0.11537467
0.64089286 5.2165079 0.11533069
0.67570555 5.2342906 0.11581445
0.70311558 5.1953707 0.11504482
4.0038857 23.135416 0.51615304
9.7090197 48.921814 1.0967385
9.9861441 48.749668 1.0942317
9.59799 42.829105 0.96511012
9.8475771 42.712906 0.9638347
10.082264 42.536884 0.96123999
10.611015 42.440025 0.96192163
9.6296263 36.600254 0.83214033
10.097478 36.549675 0.8337456
10.312299 36.454319 0.83299792
12.404316 35.399544 0.82475191
12.364278 34.603489 0.80795205
12.473374 34.244217 0.80133325
12.626198 34.013329 0.79772699
12.891603 34.085766 0.80126727
13.08038 33.953781 0.80003583
13.305632 33.916626 0.80106938
13.529805 33.875195 0.80203688
13.826639 34.01104 0.80724835
14.155076 34.215637 0.81415302
14.524549 34.507782 0.82321268
37.527637 74.635155 1.8371428
38.033527 74.498764 1.8394957
38.81702 74.895088 1.8551301
39.3559 74.807686 1.8589122
39.876797 74.682091 1.8618368
17.119545 31.136364 0.78125691
17.427471 30.795164 0.7780025
17.995722 30.908159 0.78638047
18.218582 30.853977 0.78783178
19.27762 31.750994 0.81672579
55.267696 70.882317 1.9766654
55.849041 70.728607 1.9818988
56.491764 70.646942 1.9892873
57.026104 70.424858 1.9928496
57.540192 70.174904 1.9957302
11.42763 13.764073 0.39321044
11.51573 13.698287 0.39334238
11.586604 13.612144 0.39290258
59.850735 69.444443 2.0161362
60.309887 69.115067 2.0172796
15.164057 17.164495 0.50348717
14.16667 15.838626 0.46711671
14.029382 15.492772 0.45944244
13.924198 15.188268 0.45293358
13.56689 14.617451 0.43837661
13.610456 14.485115 0.43690333
13.388312 14.074639 0.4269861
13.422409 13.938216 0.4253369
13.322737 13.665893 0.41950971
13.334705 13.511309 0.41726682
13.344575 13.35639 0.4150019
13.336697 13.185693 0.41223124
13.356554 13.044238 0.41036215
13.341363 12.870416 0.40745956
13.276775 12.651754 0.40310565
13.247869 12.470008 0.39989519
13.228218 12.299307 0.39701459
13.191511 12.115119 0.3936722
13.210063 11.983571 0.392023
13.22899 11.853587 0.39041778
13.221365 11.701297 0.38806492
13.221406 11.557444 0.38597593
13.2111 11.406194 0.38362306
13.194115 11.250967 0.38111627
13.114548 11.044861 0.37685034
13.101364 10.897057 0.37454146
13.006516 10.683838 0.36994568
12.990302 10.5377 0.36763677
12.919727 10.349661 0.36383262
12.898306 10.203205 0.36145777
12.710907 9.9287825 0.35448715
11.614985 8.9585505 0.32236066
11.659396 8.8792391 0.3220748
11.714458 8.8081322 0.32209679
11.805209 8.7634993 0.32310829
12.661931 9.2795 0.34500971
12.713771 9.1981163 0.34487778
12.742308 9.1001787 0.34413013
12.691678 8.9469385 0.34127152
12.748797 8.8706083 0.3413375
12.788153 8.7820301 0.34094167
12.794624 8.6714277 0.3396883
12.768642 8.539958 0.33759931
12.78075 8.4350166 0.3365438
12.723353 8.2855148 0.33368519
12.730215 8.1791897 0.33254173
12.68052 8.0377665 0.32994699
12.68891 7.9343672 0.32889152
12.717786 7.8442888 0.32838574
12.75372 7.758832 0.32807791
12.807945 7.684545 0.32825381
12.831624 7.5920677 0.32766011
12.865013 7.5056343 0.32733026
12.864027 7.3996363 0.32614282
12.768303 7.240674 0.32258055
12.761875 7.1339006 0.32130516
12.780014 7.0414701 0.32066748
12.786078 6.942884 0.31974393
12.809926 6.8543944 0.31928214
12.799564 6.748157 0.31798476
12.821211 6.6593552 0.31750101
12.836909 6.5678101 0.31688529
12.851075 6.4758744 0.31624761
12.878031 6.3906779 0.31593975
12.921492 6.3137341 0.3160497
12.963593 6.236064 0.31613767
13.013359 6.1619654 0.31642354
13.057267 6.0849566 0.31657746
13.111624 6.0126424 0.31699526
13.145536 5.9308443 0.31692928
13.188077 5.8529119 0.31708321
13.228322 5.773881 0.31719315
13.273607 5.6969419 0.31743503
13.343316 5.6301579 0.31827062
13.387769 5.552392 0.31851253
13.406773 5.4641047 0.31816068
13.451185 5.3861985 0.31842455
13.519336 5.3174677 0.31926015
13.616059 5.2592688 0.32077742
13.747162 5.2131977 0.32310829
13.859469 5.1587405 0.32499939
13.988527 5.1092734 0.32728627
14.028084 5.0263801 0.32748419
14.258625 5.0104747 0.33214593
18.288795 5.6794887 0.42093903
58.291088 16.931562 1.3348175
58.331367 16.555832 1.3333882
58.379829 16.183186 1.3322008
58.464516 15.821012 1.3318928
58.549862 15.459177 1.331651
58.608757 15.090656 1.3308594
34.7132 8.2598715 0.78455532
34.786602 8.0521307 0.78508312
34.787563 7.8277788 0.78400558
6.6943073 1.4204332 0.15024982
6.6392465 1.3662349 0.1488205
6.6249537 1.3209759 0.14831476
6.6025028 1.2744282 0.14763308
6.5984054 1.231691 0.14736921
6.6087899 1.1917129 0.14743517
6.6415873 1.1555946 0.1480069
6.663342 1.1173004 0.14833674
6.6829033 1.078464 0.1486226
6.7042146 1.039736 0.14895244
6.733212 1.001964 0.1494582
7.0203247 1.0006893 0.15570319
7.0164266 0.95624477 0.15548329
7.0112562 0.91175693 0.1552414
7.0097733 0.8678599 0.15508749
7.0229101 0.82576609 0.15526339
7.0377808 0.78376502 0.15548329
7.0533943 0.74171704 0.15572517
7.0687566 0.69950694 0.15596706
7.0082092 0.65012014 0.15453775
7.0100746 0.60693395 0.15449376
7.0296106 0.56519103 0.1548456
6.9561758 0.51635128 0.15315242
71.549698 -2.3015389 0.1998744
96.061043 -7.2282634 0.26897818
96.020859 -7.8180332 0.26899493
69.451279 -7.3745875 0.19500144
69.25367 -7.7836185 0.19457698
43.617222 -5.4453087 0.12271418
43.664291 -5.7234926 0.12294317
82.782837 -12.924329 0.23394038
78.532616 -12.754898 0.22214477
22.251181 -4.1772971 0.063188761
21.043186 -4.0843768 0.059826564
21.026552 -4.2151871 0.059851695
20.544931 -4.2499428 0.05855317
20.411865 -4.3531928 0.058248788
20.26561 -4.4521813 0.057908099
19.885801 -4.4968328 0.056899998
19.864653 -4.6203508 0.056919545
19.485794 -4.6584568 0.055914238
18.920767 -4.6463089 0.054372765
19.386435 -4.8869615 0.055796951
19.369638 -5.0093274 0.055836048
19.34337 -5.1293645 0.05585001
19.313461 -5.2484813 0.055855595
19.33099 -5.3808298 0.056000806
19.515921 -5.5615468 0.056634709
16.413212 -4.7865415 0.047709804
16.250334 -4.8474326 0.047321644
16.089241 -4.9070911 0.046939068
15.952858 -4.972692 0.046629097
15.653339 -4.9849234 0.045841604
15.598683 -5.0731459 0.045771793
15.516012 -5.1517482 0.045620997
14.671487 -4.9715314 0.043225013
14.103876 -4.8758969 0.041638859
13.986927 -4.9317555 0.041381948
13.939464 -5.0113964 0.041331682
13.850237 -5.0755024 0.041158546
13.768245 -5.1415019 0.04100775
13.642038 -5.1899762 0.040725704
13.556786 -5.2529926 0.04056653
12.536399 -4.9463477 0.037600871
12.187523 -4.8953476 0.036643036
11.955464 -4.8875532 0.036034264
11.775673 -4.8986049 0.035581876
11.632118 -4.9228344 0.035238396
11.508922 -4.9541855 0.034956351
11.412349 -4.9958401 0.03475529
11.219771 -4.9938064 0.034261011
11.12423 -5.0332909 0.034062743
11.007733 -5.0621834 0.033800244
10.873184 -5.0813708 0.0334819
10.776759 -5.1171122 0.033280838
10.692917 -5.1579452 0.03311887
10.658373 -5.2221389 0.033110492
10.660151 -5.3043656 0.033216607
10.572065 -5.3417177 0.03304347
10.521295 -5.3973589 0.032987621
10.44984 -5.4419556 0.032867543
10.393266 -5.4938231 0.032794937
10.348785 -5.5518193 0.032761429
10.250408 -5.5803132 0.032557573
10.178335 -5.6223145 0.032437496
10.051174 -5.6328459 0.032141488
9.9694767 -5.667727 0.031990692
9.872138 -5.6928287 0.031789631
9.5918646 -5.6099319 0.030996552
9.3955603 -5.572783 0.030471558
9.2292156 -5.5509634 0.03004151
9.1104565 -5.5559478 0.029765049
8.9477568 -5.5323429 0.02934338
8.8483973 -5.5462508 0.029128354
8.7770615 -5.5768442 0.029005483
8.6871862 -5.594862 0.028821178
8.6016111 -5.6147203 0.028650833
8.4986057 -5.6221557 0.028421845
8.3933439 -5.6268692 0.028184481
8.2891731 -5.6310668 0.027949911
8.204217 -5.6472387 0.027779566
8.1201963 -5.6631536 0.027612014
7.9979038 -5.6511321 0.027313214
7.8947711 -5.6512113 0.027078642
7.7846551 -5.6449575 0.026818939
7.6982894 -5.6547322 0.026640216
7.5623546 -5.6266556 0.026288358
7.5053248 -5.6561012 0.026210168
7.4156275 -5.6601858 0.026017483
7.323791 -5.66155 0.025816422
7.233006 -5.6626177 0.025618153
7.1573753 -5.6745896 0.025472941
7.0179267 -5.6345153 0.025098743
6.8932099 -5.6043005 0.02477481
6.8231773 -5.6172571 0.024646355
6.7094612 -5.5930715 0.024358725
6.6421556 -5.6064019 0.024238646
6.5909047 -5.63276 0.02417721
6.5138693 -5.6364551 0.02402083
6.435533 -5.6381006 0.023858864
6.3544312 -5.6363444 0.023685727
6.3011255 -5.6585264 0.023615913
6.2440882 -5.6769037 0.023532137
6.1826482 -5.6907315 0.023431607
6.1190796 -5.7019753 0.0233227
6.0454226 -5.7030482 0.023174696
5.9878955 -5.7186265 0.023088127
5.9462228 -5.7490044 0.023062995
5.8715272 -5.746913 0.022909405
5.8013449 -5.7483463 0.022772571
5.7377214 -5.7555089 0.02266087
5.6756334 -5.7635326 0.022554755
5.6108747 -5.7681456 0.022437468
5.5538964 -5.7801132 0.0223509
5.4962945 -5.7908745 0.022261539
5.4401388 -5.8026061 0.022177765
5.3724947 -5.8013954 0.022046516
5.3226213 -5.8187575 0.021987872
5.2787724 -5.8424034 0.021954363
5.242825 -5.8746834 0.021954363
5.1960988 -5.8947406 0.021909682
5.136847 -5.9001169 0.021811944
5.0738134 -5.9004402 0.02169745
5.0232711 -5.9146943 0.021636015
4.9791718 -5.9362116 0.021602504
4.9254284 -5.9458609 0.021527106
4.8875861 -5.9744229 0.021521522
4.8238106 -5.9708543 0.021401443
4.7671247 -5.9753275 0.021312082
4.7266574 -5.999753 0.021295328
4.6860704 -6.0239062 0.021278571
4.6325712 -6.0311356 0.021203173
4.5761385 -6.0339518 0.021113813
4.5150509 -6.0299001 0.021002112
4.4690499 -6.0454292 0.020960225
4.4301028 -6.0703139 0.020951847
4.3840036 -6.0852127 0.020909959
4.3286147 -6.0867362 0.020823391
4.281992 -6.1000867 0.02077871
4.2490387 -6.1328216 0.020801051
4.2028608 -6.1463962 0.020759162
4.1549978 -6.1571493 0.020708896
4.1165857 -6.1816959 0.020706104
4.0664949 -6.1884532 0.020644668
4.0170207 -6.1956687 0.020586027
3.9870133 -6.2328358 0.020627914
3.9417553 -6.2461886 0.020591611
3.88697 -6.2439418 0.020505043
3.8454447 -6.2625618 0.020488288
3.8079824 -6.2877493 0.020493872
3.790869 -6.3470526 0.02061116
3.7533755 -6.3727779 0.020619536
3.7106867 -6.3896356 0.020599989
3.6793618 -6.426168 0.020644668
3.6354377 -6.4407859 0.020619536
3.5866103 -6.4463692 0.020566478
3.5498741 -6.473515 0.020583233
3.5062823 -6.4881372 0.020560894
3.4645255 -6.5059986 0.020549724
3.4245403 -6.5271344 0.020549724
3.3807521 -6.5409179 0.020527383
3.30879 -6.4991603 0.020331906
3.2715392 -6.524704 0.020348661
3.2310002 -6.5437584 0.020345869
3.1925368 -6.5670576 0.020357039
3.1655667 -6.6144843 0.020443607
3.1262002 -6.636497 0.020451985
3.0887859 -6.6628118 0.020474326
3.0652795 -6.7198496 0.020591611
3.0444646 -6.7841463 0.020731237
2.9999535 -6.7962952 0.02071169
2.9697456 -6.8411756 0.020792672
2.9445965 -6.8988152 0.020912752
2.9095638 -6.9342723 0.020965809
2.8837392 -6.9926696 0.02108868
2.8467891 -7.0250607 0.021133361
2.8062203 -7.0488992 0.021152908
2.7836783 -7.1190696 0.021312082
2.7496243 -7.1612206 0.02138748
2.7179799 -7.2107062 0.021485219
2.6889544 -7.2685132 0.02160809
2.6617103 -7.3328133 0.021750508
2.622035 -7.36408 0.021795189
2.5807571 -7.3913584 0.021828698
2.539567 -7.419354 0.021865001
2.4965398 -7.4423809 0.021887342
2.4508271 -7.4575591 0.021887342
2.4148288 -7.5029168 0.021976702
2.3801692 -7.5538354 0.022082819
2.3482177 -7.6151204 0.022219652
2.3080921 -7.6514049 0.02228388
2.2704396 -7.6970739 0.022376033
2.2386868 -7.764667 0.022532415
2.2091722 -7.8427453 0.022719514
2.1756001 -7.9091821 0.022873102
2.1298823 -7.9330058 0.02290382
2.0796454 -7.9401217 0.022887066
2.9466565 -11.537597 0.033219401
2.8569665 -11.479771 0.033001583
2.7765791 -11.456267 0.0328843
2.710825 -11.492554 0.032940149
2.6328764 -11.476807 0.032847997
2.5584886 -11.475177 0.032797731
2.4857016 -11.47991 0.032767013
2.4024634 -11.434272 0.032593876
2.346036 -11.516407 0.032786559
2.276684 -11.537453 0.032806106
2.2058487 -11.551205 0.032806106
2.1371095 -11.576324 0.032839619
2.0618248 -11.565591 0.032772597
1.9969233 -11.613503 0.032873128
1.9287325 -11.644281 0.032926187
1.8758224 -11.772425 0.033255704
1.8286765 -11.947801 0.033719264
1.7537336 -11.947913 0.033688545
1.7488784 -12.445658 0.035062466
1.775387 -13.222271 0.037221085
1.8033526 -14.084951 0.039619863
1.8426872 -15.128112 0.042524088
2.6272502 -22.727545 0.06385617
2.9194641 -28.293648 0.079396568
2.7181873 -28.026365 0.078597903
2.5411046 -27.986748 0.078441523
2.3657913 -27.959963 0.078324236
2.182611 -27.826406 0.077910945
2.0064228 -27.764469 0.077701502
1.8336502 -27.740337 0.077600971
1.6616085 -27.721119 0.077517197
1.4896567 -27.696844 0.077422254
1.3178276 -27.666506 0.077313341
1.1460536 -27.626114 0.077179305
0.97454232 -27.57666 0.077022918
0.80379796 -27.530142 0.076877706
0.63333809 -27.468575 0.076693401
0.46396908 -27.423952 0.076559365
0.29560372 -27.418283 0.076537021
0.12720865 -27.38658 0.076444864
-0.040745139 -27.325846 0.076274522
-0.20817693 -27.294083 0.076187953
-0.37523419 -27.262293 0.076104179
-0.54200858 -27.234486 0.076034367
-0.70952213 -27.246637 0.076079048
-0.87289834 -27.123835 0.075749531
-1.0378946 -27.080994 0.075646207
-1.2030196 -27.051138 0.075581975
-1.3677163 -27.018282 0.075512163
-1.5301286 -26.950476 0.075347409
-0.93752646 -14.892444 0.041636065
-0.98568213 -14.260902 0.039885152
-1.0311514 -13.696167 0.038321342
-1.0813329 -13.273959 0.037156858
-1.1328304 -12.925384 0.036199022
-1.1597375 -12.359643 0.034632418
-1.2160554 -12.157268 0.034085084
-1.2640219 -11.898986 0.033381369
-1.3354454 -11.877093 0.033342272
-1.3697842 -11.543953 0.032429118
-1.3549993 -10.849655 0.030499483
-1.5183606 -11.579817 0.032579914
-1.5899285 -11.574244 0.032591082
-1.6606327 -11.562291 0.032585498
-1.7321391 -11.55584 0.03259667
-1.8084103 -11.579576 0.032694407
-1.8791065 -11.566287 0.032688823
-1.9430535 -11.513125 0.032571536
-2.0240045 -11.560087 0.032739088
-2.0841908 -11.488415 0.032571536
-2.1705086 -11.559933 0.032811694
-2.2433033 -11.556214 0.032839619
-2.3302839 -11.622633 0.033068605
-2.3800859 -11.504313 0.032772597
-2.4771156 -11.613699 0.033127248
-2.5509038 -11.610002 0.033160757
-2.632679 -11.640949 0.033294801
-2.7355421 -11.759962 0.033682961
-2.8185751 -11.788669 0.033814207
-2.9099319 -11.848844 0.034037609
-3.906909 -15.498058 0.044598933
-3.9606225 -15.314049 0.044138167
-3.928422 -14.813892 0.042764246
-3.8886642 -14.308935 0.04137357
-3.9447501 -14.171127 0.041044053
-3.9631207 -13.906226 0.040345922
-4.0326972 -13.827887 0.040189538
-4.0754528 -13.662015 0.039779037
-3.9935265 -13.093453 0.038192883
-4.0562353 -13.012376 0.038028125
-4.064095 -12.761415 0.037366297
-4.0436726 -12.432876 0.036475483
-4.1022387 -12.354683 0.036319103
-4.1648121 -12.290447 0.03620461
-4.2365527 -12.254266 0.036173891
-4.2664452 -12.099777 0.035794109
-4.3301215 -12.044199 0.035707541
-4.3998132 -12.006135 0.035674028
-4.4629049 -11.950808 0.035590254
-4.5436158 -11.942827 0.035648897
-4.6160874 -11.912858 0.035643309
-4.6949682 -11.899194 0.03568799
-4.7746 -11.886865 0.035738256
-4.8644733 -11.898999 0.035863921
-4.9523697 -11.904937 0.03597283
-5.0451984 -11.921293 0.036115248
-5.1273441 -11.911239 0.036179475
-5.2195802 -11.923526 0.036313515
-5.3060603 -11.921424 0.036405671
-5.3988934 -11.932375 0.036539711
-5.5221386 -12.008049 0.036874812
-12.744012 -25.613623 0.079857334
-12.905443 -25.543871 0.079885259
-13.057371 -25.455305 0.079857334
-13.229942 -25.406639 0.079957865
-5.9157701 -11.191616 0.035316586
-13.825871 -25.398592 0.080720223
-14.004177 -25.354422 0.080851473
-14.160951 -25.270634 0.080859847
-6.2913723 -11.066608 0.035514854
-14.637326 -25.385168 0.081795342
-14.830672 -25.359619 0.082004778
-15.003848 -25.298246 0.082102522
-15.190747 -25.258842 0.082275659
-15.387094 -25.233461 0.082499057
-15.587381 -25.212572 0.082742006
-15.761438 -25.147806 0.08284533
-15.925097 -25.065817 0.082895599
-16.11758 -25.028164 0.083096661
-16.310198 -24.989092 0.083297722
-16.585142 -25.07287 0.083914869
-16.742573 -24.976448 0.083934419
-16.965181 -24.975822 0.084280685
-17.128315 -24.886082 0.084330954
-17.311579 -24.824812 0.084481753
-11.467918 -16.231419 0.05546464
-11.523064 -16.098946 0.05525241
-11.581714 -15.972886 0.055062518
-11.581241 -15.767729 0.054598957
-11.656285 -15.667488 0.054498427
-11.503686 -15.072534 0.052915066
-11.561094 -14.956566 0.052755892
-11.536152 -14.736521 0.052228108
-11.538965 -14.373157 0.051437821
-11.558186 -14.217504 0.051133439
-11.57212 -14.057528 0.050812297
-11.599894 -13.916355 0.050558176
-11.605091 -13.750155 0.050211906
-11.669104 -13.655121 0.050125338
-11.686587 -13.506884 0.049843293
-11.72378 -13.383018 0.049650609
-11.746623 -13.244245 0.049402073
-11.751505 -13.087093 0.049083725
-11.758266 -12.934086 0.048779339
-11.745989 -12.76236 0.04840235
-11.746366 -12.606639 0.048084002
-11.811147 -12.521233 0.048033737
-11.877395 -12.437676 0.047991849
-11.925686 -12.335805 0.047880147
-11.934707 -12.194502 0.047614858
-11.228094 -11.3325 0.044515159
-12.269715 -12.083626 0.048056077
-12.493429 -12.153853 0.048639715
-12.561278 -12.07073 0.04861458
-12.722863 -12.076734 0.048952475
-12.876237 -12.072998 0.049256861
-12.996293 -12.036573 0.049432792
-14.228995 -13.017041 0.053819846
-14.328629 -12.947591 0.053895243
-14.266059 -12.732907 0.053364664
-14.318415 -12.622647 0.053269718
-14.409171 -12.546374 0.053319983
-14.468445 -12.442728 0.053255755
-14.851411 -12.458338 0.054099098
-14.880603 -12.32806 0.053928751
-15.11385 -12.365706 0.054498427
-15.297554 -12.360098 0.054886587
-13.779323 -10.994254 0.049192633
-16.752115 -13.03315 0.059237339
-16.814325 -12.916712 0.059175905
-11.849713 -8.8735828 0.041306548
-11.840416 -8.7537403 0.04108594
-11.940752 -8.7151194 0.041247904
-11.960739 -8.6177187 0.041133411
-17.574162 -12.499473 0.06018959
-17.797844 -12.494832 0.060692243
-11.912675 -8.2542772 0.040438075
-12.074528 -8.2572374 0.040815063
-19.406532 -13.097709 0.065347381
-19.454906 -12.957321 0.065241262
-19.442122 -12.777289 0.06493409
-19.436253 -12.603344 0.064654835
-19.53849 -12.500016 0.064738609
-19.68078 -12.421528 0.064956427
-19.780396 -12.315334 0.06503462
-19.943357 -12.247636 0.06532225
-20.154984 -12.207932 0.065769054
-20.476751 -12.231731 0.066573299
-20.621208 -12.146971 0.066799492
-22.61587 -13.135752 0.07300169
-22.70472 -13.001705 0.073029615
-22.851992 -12.900493 0.073247425
-23.031206 -12.815953 0.073568568
-21.432142 -11.754441 0.068226472
-28.99897 -15.674036 0.092018768
-29.076063 -15.485934 0.091960125
-29.13069 -15.286325 0.091834463
-29.172415 -15.08066 0.091672495
-24.517271 -12.107477 0.076324791
-24.384258 -11.856236 0.075682506
-24.447527 -11.702076 0.075654581
-29.257227 -13.784425 0.090281822
-29.156185 -13.518829 0.089712143
-26.068022 -11.893075 0.079980202
-26.899544 -12.073607 0.082303584
-26.798019 -11.635065 0.0815496
-26.927715 -11.300692 0.081516087
-27.248791 -11.04415 0.082071804
-23.934639 -9.1915903 0.071563534
-23.957838 -9.0322104 0.071465798
-24.031565 -8.8919783 0.071521647
-24.093191 -8.7470865 0.071543992
-34.656391 -10.922483 0.10143795
-34.880424 -10.758265 0.10189871
-35.008968 -10.563106 0.10208302
-35.215069 -10.389979 0.10249632
-35.731674 -10.304504 0.10381439
-36.194633 -10.197887 0.10497608
-36.316303 -9.9920578 0.10514922
-36.446465 -9.7877121 0.10535028
-36.616116 -9.5927887 0.10566863
-37.010487 -9.4538202 0.10663763
-37.281284 -9.2796936 0.10725199
-37.927429 -9.1937723 0.10894705
-60.78986 -14.341789 0.17438424
-60.942993 -13.983727 0.17457414
-60.968109 -13.596248 0.17440379
-61.059185 -13.223803 0.17442892
-61.213554 -12.864533 0.17464115
-61.361885 -12.503068 0.17484222
-61.523777 -12.143365 0.17508796
-61.936626 -11.437035 0.17585032
-62.542168 -11.152463 0.17737225
-62.828205 -10.806134 0.17799218
-33.457054 -5.1219764 0.094484568
-33.439621 -4.4910293 0.09418577
-33.710552 -4.3170147 0.094872728
-33.795757 -3.9070299 0.094970465
-64.4095 -5.4507704 0.18047473
-52.682014 -2.509973 0.1472493
-57.577206 -2.3892667 0.16089077
-50.61517 -1.7892554 0.14139895
-50.456268 -1.4737167 0.14092702
-50.455364 -1.1638875 0.14090189
-50.52755 -0.85539532 0.14108619
-50.380856 -0.54371655 0.14066452
-49.921246 -0.23241827 0.13937438
-33.033894 0.25181806 0.092217036
-32.731754 0.45038393 0.091379285
-32.756374 0.65177017 0.091457471
-32.751755 0.8527472 0.091457471
-32.7579 1.0540779 0.091490984
-32.75581 1.2552481 0.091504946
-32.738499 1.4558108 0.091479816
-32.777893 1.6591392 0.091616645
-44.363071 2.7914999 0.12409648
-44.350094 3.0639985 0.12411045
-16.761492 1.2617856 0.046905559
-15.871355 1.2927955 0.044434175
-15.341125 1.3444326 0.042970892
-14.864642 1.394655 0.041658405
-14.501572 1.4504226 0.040664267
-14.160268 1.5041115 0.039731566
-13.91923 1.5649476 0.039080907
-13.650183 1.6195856 0.038352057
-13.40283 1.673707 0.037684646
-13.197971 1.7304431 0.037137311
-12.981039 1.7830966 0.036556467
-12.827315 1.8422494 0.036154345
-12.65556 1.8969164 0.035701953
-12.450028 1.9443014 0.035154618
-12.268089 1.993084 0.034674305
-12.143219 2.0493572 0.034355957
-11.989557 2.0991738 0.033956628
-11.836731 2.1473613 0.03356009
-11.684752 2.1939378 0.033166341
-11.611189 2.2539718 0.032995999
-11.482422 2.3021805 0.032669272
-11.330982 2.3442361 0.032278322
-11.241077 2.3976598 0.032063298
-11.090391 2.4367671 0.031675134
