# .PCD v0.7 - Point Cloud Data file format
VERSION 0.7
FIELDS x y z
SIZE 4 4 4
TYPE F F F
COUNT 1 1 1
WIDTH 1449
HEIGHT 1
VIEWPOINT 0 0 0 1 0 0 0
POINTS 1449
DATA ascii
-17.612839 -18.903236 0.072116457
-18.150478 -19.242195 0.07383386
-37.658863 -39.437366 0.15224233
-37.296856 -38.581478 0.14981842
-37.482525 -38.300446 0.14961736
-40.113251 -40.48864 0.15912589
-33.949425 -33.849026 0.13384239
-6.7282033 -6.6257453 0.026335832
-6.7938175 -6.6087437 0.02643357
-34.662468 -32.501686 0.13265836
-99.857155 -91.357155 0.37791452
-27.775419 -25.099161 0.10450693
-28.043045 -25.030148 0.10493419
-83.456718 -72.671707 0.30899504
-52.703213 -43.122314 0.19012849
-76.356766 -60.164284 0.27143279
-76.913902 -59.84201 0.27210301
-45.778923 -33.847153 0.15895276
-80.092911 -56.96825 0.27443478
-80.266632 -56.35334 0.27383995
-41.078247 -28.465012 0.13952796
-83.122772 -53.181454 0.27553222
-83.434837 -52.662415 0.27549034
-64.847794 -39.280193 0.21168676
-64.988869 -38.822575 0.21136563
-32.457134 -19.119385 0.10516039
-63.098007 -36.649944 0.20373645
-57.997044 -33.212788 0.18660153
-60.725948 -34.282486 0.19470264
-72.597115 -39.817612 0.23118696
-72.799599 -39.349541 0.23105851
-73.578949 -39.189339 0.23276474
-67.238937 -35.284588 0.21201628
-65.559402 -33.891808 0.20605983
-62.128609 -31.636597 0.19466075
-56.366531 -28.268221 0.17605697
-25.388779 -12.537885 0.079039119
-67.199562 -32.167076 0.20801459
-65.873711 -30.544527 0.20273393
-65.238365 -29.764929 0.20021228
-59.142052 -26.111401 0.18050267
-57.399673 -24.922392 0.17471376
-57.580025 -24.581896 0.17480032
-57.803539 -24.259089 0.17502373
-58.099209 -23.964968 0.17547053
-56.224831 -22.789118 0.16938284
-58.77169 -23.402618 0.17662105
-59.041771 -23.091463 0.17700362
-59.20755 -22.738434 0.17707902
-18.331482 -6.9108853 0.054674357
-58.126942 -21.50868 0.17304383
-60.524994 -21.974785 0.1797794
-44.837238 -15.968159 0.13287897
-44.938148 -15.694062 0.13289014
-44.480141 -15.228538 0.13125652
-43.96315 -14.750781 0.12946092
-43.421089 -14.273079 0.12760389
-43.247986 -13.922721 0.12684153
-43.024544 -13.559999 0.12593955
-39.363007 -12.140928 0.11499844
-52.627289 -15.87935 0.15347382
-52.80238 -15.579342 0.15370281
-52.582787 -15.164446 0.15278967
-51.772003 -14.587124 0.15017027
-51.416054 -14.146881 0.14888293
-51.07695 -13.717005 0.14765421
-50.760643 -13.298672 0.1465009
-50.337463 -12.858257 0.14504878
-49.898201 -12.420402 0.14356036
-49.786877 -12.068764 0.14302421
-39.055676 -9.213932 0.1120244
-39.133892 -8.9792614 0.11208864
-39.733849 -8.8606491 0.11364965
-39.535316 -8.562067 0.11292918
-39.398235 -8.2796268 0.11239023
-38.947586 -7.935698 0.11096325
-39.085804 -7.7143869 0.11122016
-39.112759 -7.4706631 0.11116431
-39.047726 -7.2101922 0.11085155
-39.353096 -7.0171628 0.11159436
-39.54324 -6.800992 0.11201324
-39.67992 -6.5740871 0.11228411
-39.847889 -6.3509555 0.11264714
-41.545761 -6.3604445 0.11733579
-40.212715 -5.9040489 0.11346535
-40.291759 -5.663322 0.11358822
-43.940277 -5.9015017 0.12377255
-39.217545 -5.0223546 0.11037682
-35.926205 -4.376914 0.10103303
-36.086487 -4.1718988 0.10141002
-36.288349 -3.9697578 0.1019071
-36.470184 -3.763345 0.10235111
-36.621979 -3.5520499 0.10271414
-36.810398 -3.3424697 0.10318328
-37.04644 -3.1348433 0.10378926
-37.149719 -2.9141202 0.10402662
-37.421234 -2.704505 0.10473871
-37.532913 -2.4811757 0.1050068
-37.764038 -2.2638199 0.10561277
-37.921013 -2.0397987 0.1060149
-38.186523 -1.8191723 0.1067242
-38.377815 -1.5923363 0.10722964
-38.519775 -1.3615248 0.10760105
-38.724319 -1.1309004 0.10815118
-38.984463 -0.89913195 0.10886048
-39.171223 -0.66299391 0.10936872
-39.235546 -0.42329043 0.10953906
-39.542397 -0.18396161 0.11039078
-39.772785 0.059006896 0.11103306
-39.89167 0.30395937 0.11136816
-40.212021 0.55316186 0.11227015
-40.339844 0.80251104 0.11263876
-40.487106 1.0539957 0.11306602
-39.520378 1.2715447 0.11038519
-39.484852 1.5129799 0.11030979
-41.296017 1.8361741 0.11540057
-41.511684 2.1010487 0.11603726
-41.739624 2.3694317 0.11671305
-41.810127 2.6308963 0.11695321
-42.052578 2.9053047 0.11767927
-40.659847 3.0598919 0.11383117
-42.683537 3.4756646 0.11955584
-42.884552 3.7570467 0.12018137
-43.266911 4.0582056 0.12132072
-43.334728 4.3329601 0.12158322
-7.3714519 0.78331476 0.020667009
-7.4231496 0.83489621 0.020826183
-7.4029913 0.87866145 0.020784294
-7.3537998 0.91861868 0.020661425
-31.878645 4.3779421 0.089823849
-31.633417 4.5421996 0.08920949
-31.603962 4.7360649 0.089206696
-31.436972 4.9084535 0.088818535
-31.325321 5.0881095 0.088589549
-31.327042 5.2858787 0.088684499
-31.297956 5.4786878 0.088695668
-31.314917 5.6799045 0.088840879
-31.780094 6.5736938 0.090591788
-31.779259 6.7771192 0.090706281
-32.259617 7.0867658 0.092200287
-32.397923 7.3258128 0.092722483
-32.43515 7.5437188 0.092959851
-24.349747 5.8211117 0.069879644
-33.212231 8.1553059 0.095467538
-23.556015 5.937891 0.067804798
-50.603191 13.085783 0.14592564
-53.025436 14.059805 0.15315828
-42.597149 11.575066 0.12323359
-50.382214 14.356591 0.14626074
-22.968208 6.697886 0.066777155
-57.242115 17.456642 0.16708459
-53.486965 16.6709 0.15641715
-53.047306 16.891674 0.15543139
-52.916985 17.2085 0.15535599
-52.916695 17.568157 0.15566875
-55.611355 18.842354 0.16393462
-56.756649 20.010134 0.16802287
-56.399418 20.274118 0.16733032
-56.019501 20.526564 0.16657355
-56.143566 20.963652 0.16732195
-58.803841 22.369015 0.17565763
-69.211601 26.815283 0.20724107
-68.655067 27.085323 0.20606822
-60.643562 24.355827 0.18246301
-60.232872 24.621151 0.18167831
-35.38203 14.717278 0.10697832
-35.260666 14.921243 0.10688616
-35.046284 15.084737 0.10651476
-33.851013 14.817129 0.10315535
-33.680889 14.989591 0.1029152
-33.422459 15.120954 0.10240696
-33.244556 15.286894 0.10214725
-33.011517 15.42582 0.10172
-32.762676 15.555176 0.10124527
-32.567535 15.708125 0.10093809
-32.296322 15.822314 0.10039634
-32.060753 15.951586 0.099966288
-31.842669 16.087582 0.09959209
-31.675734 16.247978 0.09937986
-31.421999 16.362133 0.098896757
-31.260008 16.522385 0.09870407
-31.044361 16.652905 0.098343834
-30.825659 16.779968 0.097975224
-30.664345 16.936886 0.097790912
-30.497908 17.090014 0.097592644
-17.854568 10.14987 0.057318877
-17.778957 10.25174 0.05727699
-17.70536 10.35458 0.057243478
-17.604507 10.441088 0.0571234
-17.49555 10.522113 0.056978188
-17.400776 10.611044 0.056880452
-17.314924 10.704993 0.05681343
-17.196379 10.778109 0.056640293
-17.103758 10.866797 0.056553725
-17.0191 10.960171 0.056495082
-16.929758 11.05018 0.056422476
-16.807423 11.117992 0.056240961
-16.729752 11.214787 0.056210246
-16.668068 11.322285 0.056235377
-5.800499 3.9929113 0.019630983
-5.675818 3.9586456 0.019290294
-27.053988 19.11381 0.092468366
-26.879274 19.238708 0.092272893
-26.72348 19.376274 0.092144437
-26.517042 19.475952 0.091842838
-26.336866 19.593527 0.091633402
-26.167427 19.718048 0.091463059
-25.960094 19.812716 0.091161467
-25.788191 19.933104 0.090985537
-25.619726 20.05521 0.090823568
-25.456223 20.180351 0.090681151
-25.270313 20.286715 0.090460539
-25.101906 20.406065 0.090304159
-24.946886 20.535555 0.090198047
-24.811962 20.681194 0.090167329
-24.748028 20.88658 0.090399109
-24.968359 21.336218 0.091680877
-25.434408 22.005899 0.093886971
-25.767534 22.572048 0.095626712
-26.25102 23.281771 0.097950086
-26.598761 23.883347 0.099793151
-26.985228 24.531078 0.10180657
-27.476572 25.287365 0.10424443
-27.874754 25.971508 0.10635838
-15.907539 15.005171 0.061032932
-15.817339 15.104568 0.06104131
-15.81639 15.290299 0.061398752
-27.698545 27.107286 0.10819306
-27.512516 27.25773 0.10811767
-27.334862 27.416117 0.10807857
-14.282075 14.501851 0.056805052
-14.227691 14.625049 0.056944679
-14.154315 14.729377 0.057011697
-14.100849 14.855114 0.057162493
-13.980706 14.910718 0.05704521
-13.901184 15.009426 0.057095475
-13.812876 15.098866 0.057112228
-13.746789 15.213014 0.057223931
-13.750408 15.405997 0.057631638
-13.705879 15.547086 0.057843871
-13.661448 15.689714 0.058061689
-13.630127 15.84906 0.058340941
-11.57296 13.625367 0.049887974
-13.520731 16.117788 0.058715139
-13.334174 16.094952 0.058332562
-13.275062 16.225224 0.058508493
-13.21548 16.356152 0.058687214
-13.103021 16.422081 0.058634154
-13.003867 16.504528 0.058642533
-12.887614 16.565063 0.058575511
-12.814973 16.681894 0.058709554
-12.731108 16.784908 0.058796123
-12.669239 16.917938 0.058988806
-12.604433 17.048426 0.059173111
-12.517276 17.149675 0.059256889
-12.615253 17.508495 0.060228687
-12.664663 17.806404 0.060985461
-12.670662 18.048281 0.061546758
-12.728274 18.36898 0.062373344
-12.687584 18.552387 0.062730789
-12.619384 18.697855 0.062959775
-12.558745 18.856497 0.063233443
-51.436516 78.263 0.26149422
-50.961315 78.586365 0.26152492
-50.486786 78.911057 0.26156962
-64.051155 101.47813 0.33507439
-28.454283 45.700508 0.15030152
-25.542515 41.59063 0.1362635
-25.495115 42.090408 0.1373861
-27.552877 46.123798 0.14999993
-17.580273 38.532841 0.11824057
-17.385687 38.733955 0.11852819
-47.274849 107.07573 0.32682529
-48.511829 113.63129 0.34499344
-47.825298 113.95448 0.34507722
-47.12595 114.24763 0.34508282
-31.992464 86.458313 0.25740317
-28.582207 80.254875 0.23786947
-27.361544 78.345169 0.23170637
-31.974945 93.391525 0.27562717
-25.846783 77.032066 0.22686693
-19.079489 58.04229 0.17058362
-18.73065 58.182064 0.17065343
-29.962254 95.064651 0.27831078
-29.378975 95.248619 0.27831638
-33.487984 110.98326 0.32369208
-16.509178 58.593357 0.16996089
-26.733122 97.157852 0.28136581
-26.145287 97.35289 0.28146076
-20.985931 80.101204 0.23120092
-24.997158 97.856308 0.28200808
-12.338514 49.569241 0.14261371
-17.499195 74.172379 0.21278143
-17.065222 74.371925 0.21304952
-11.139546 54.670422 0.15577208
-12.312615 62.381229 0.17752862
-11.943503 62.52829 0.17773527
-10.136621 54.894718 0.15585306
-11.061699 62.033199 0.1759285
-10.292594 62.121849 0.17580843
-8.0116348 52.330044 0.14780222
-7.6341701 51.995323 0.14672151
-7.3020425 51.949097 0.1464618
-6.2738557 46.712368 0.13158324
-5.9596739 46.535732 0.13098006
-5.6494708 46.369919 0.13041317
-5.3565736 46.332184 0.13021211
-5.0832777 46.465572 0.13049695
-4.3302956 44.644287 0.12522188
-4.0562816 44.670021 0.12522188
-3.7864168 44.744884 0.12536429
-3.5146115 44.803165 0.12546483
-3.242739 44.866776 0.1255849
-2.9742424 44.989601 0.12587532
-2.7102861 45.209637 0.12644221
-2.4348218 45.262363 0.12654553
-1.4278949 40.396595 0.11284541
-0.69040239 40.788982 0.11388702
0.055851031 37.621796 0.10502634
0.047610797 1.4602009 0.0040459111
1.3791767 35.991425 0.10054713
0.065481722 1.4585077 0.0040431186
0.078472354 1.537976 0.0042665205
0.088644296 1.5504446 0.004302823
0.097779274 1.5438833 0.004286068
0.10725052 1.5432543 0.004286068
0.11701784 1.5465559 0.0042972378
0.12626168 1.5428187 0.0042888606
0.13494055 1.5330492 0.0042637279
0.14453135 1.5341836 0.0042693126
0.15364377 1.5302829 0.0042609354
0.16281936 1.5273225 0.0042553502
0.16973081 1.5044324 0.0041939146
0.18037196 1.5152791 0.004227425
0.187932 1.5002517 0.0041883294
0.1975237 1.5020449 0.0041967072
0.20510393 1.4889162 0.0041631968
0.2055672 1.427249 0.0039928532
0.21269077 1.4150823 0.0039621354
0.22106104 1.4117746 0.0039565503
0.22923844 1.4074303 0.0039481726
0.23687181 1.400081 0.0039314176
0.24614771 1.4025413 0.0039425874
0.25510579 1.4029725 0.0039481726
0.26426291 1.4043292 0.0039565503
0.27306527 1.403663 0.0039593428
0.28167284 1.4019611 0.0039593428
0.28986472 1.3982478 0.0039537577
0.2990644 1.3993769 0.0039621354
0.30700153 1.3945854 0.0039537577
0.31599385 1.3946263 0.0039593428
0.32567772 1.397531 0.0039733052
0.3328518 1.3896708 0.0039565503
0.33541119 1.3633236 0.0038867372
0.35452375 1.4039054 0.0040096082
0.38090593 1.4704424 0.0042078774
0.36967486 1.3917164 0.0039872681
0.36457244 1.3392415 0.0038420567
8.7871733 30.836287 0.089505501
8.9708967 30.763548 0.089452438
9.3449812 31.329851 0.091264792
9.7379675 31.242409 0.09135136
9.9746904 31.324045 0.091767445
10.095578 31.043528 0.09112516
10.340375 31.145185 0.091608271
13.449785 39.695137 0.11700626
13.69767 39.625095 0.11704537
14.125078 40.063725 0.11859521
14.377066 39.994179 0.11864827
14.70614 40.134315 0.11932965
10.69795 28.649681 0.085366979
15.597518 41.002319 0.12247124
15.873014 40.968315 0.12265833
20.332582 51.537983 0.15468299
20.629797 51.365852 0.15454337
20.847343 51.000412 0.15382569
21.082308 50.685028 0.1532616
21.304838 50.346581 0.15263049
18.825825 43.738346 0.13294041
11.440986 26.13755 0.079642311
19.259501 43.275631 0.13224228
19.539509 43.189438 0.1323428
19.67297 42.783447 0.13146596
20.031208 42.867584 0.13209985
20.256979 42.666183 0.1318597
20.462353 42.424892 0.13149947
20.786074 42.428753 0.13190438
21.107935 42.424862 0.13229254
23.40781 46.332493 0.14492592
23.622747 46.053635 0.14450425
23.875324 45.851055 0.14432552
24.117897 45.631199 0.14409654
19.772648 36.860447 0.11677449
19.964024 36.675194 0.11657342
20.174179 36.525745 0.11648965
16.120665 28.767986 0.092055075
20.44002 35.957241 0.11546759
16.381071 28.40946 0.09154404
20.739397 35.463726 0.11469126
20.901516 35.242908 0.11438967
17.156839 28.528183 0.092929132
21.208523 34.78056 0.11372505
21.308479 34.466896 0.11312466
21.450527 34.225349 0.11276163
21.615082 34.022186 0.11252706
21.780119 33.821655 0.11230366
22.029318 33.751862 0.11251868
22.44895 33.938 0.1135966
21.748648 32.444824 0.10904199
21.952374 32.318211 0.10906713
24.039865 34.928482 0.1183746
24.511124 35.149437 0.11963124
25.149281 35.597046 0.12167816
25.622725 35.799046 0.12290408
26.269815 36.23135 0.12493983
31.791866 43.286194 0.14994408
27.089676 36.413322 0.12670471
27.709772 36.773525 0.12854777
28.380188 37.186302 0.13059747
27.280779 35.294544 0.12453771
27.490664 35.118614 0.12450977
30.512857 38.490555 0.13712919
31.089628 38.727608 0.13865112
0.58774751 0.72199368 0.0025658736
0.60296571 0.72240835 0.0025937988
0.61061174 0.72251618 0.0026077614
0.61503357 0.7187559 0.0026077614
0.61616075 0.71118742 0.0025937988
0.62776089 0.71566772 0.0026245166
0.63280386 0.71255052 0.0026273092
0.63983643 0.71163058 0.0026384792
0.63948238 0.70251149 0.0026189317
0.644458 0.6993103 0.002621724
0.64328343 0.6894896 0.0025993839
0.64612967 0.68407464 0.0025937988
0.64824307 0.67792743 0.0025854213
0.65169555 0.67321813 0.0025826287
0.65651345 0.66992146 0.0025854213
0.66272306 0.66801178 0.0025937988
0.66610128 0.66322666 0.0025910065
0.69010711 0.67877489 0.002669197
0.72149557 0.70102596 0.0027753129
0.71424711 0.68549913 0.0027306324
0.72424191 0.68661153 0.0027529728
0.72114658 0.67531466 0.0027250475
0.71720648 0.66340232 0.0026943297
0.71240991 0.65088898 0.0026608196
0.70748705 0.63845986 0.0026273092
0.71661347 0.63876814 0.0026468569
0.72201961 0.63568163 0.0026524418
0.72967726 0.63452297 0.0026664045
0.73507321 0.63133794 0.0026719896
0.74045748 0.62811053 0.0026775745
0.7450636 0.62419802 0.0026803671
0.74810958 0.61897665 0.0026775745
0.74879771 0.61184168 0.0026664045
0.75176001 0.60660714 0.0026636119
0.75312299 0.60011184 0.0026552344
0.75600559 0.59486061 0.0026524418
0.75964129 0.59021062 0.0026524418
0.76483446 0.58675689 0.002658027
0.77001381 0.58326155 0.0026636119
0.77677977 0.58092362 0.002674782
0.77872151 0.57495743 0.002669197
0.78061926 0.56898934 0.0026636119
0.78085059 0.56185037 0.0026524418
0.77939403 0.55357093 0.0026356867
0.7786839 0.54590517 0.002621724
0.77790916 0.5382691 0.0026077614
0.77954638 0.5323568 0.0026021765
0.78279823 0.52756357 0.0026021765
0.78602058 0.5227505 0.0026021765
0.79255599 0.52011466 0.0026133466
0.79321533 0.51360953 0.0026049691
0.80309063 0.51304424 0.0026273092
0.80876034 0.50970817 0.0026356867
0.80677933 0.5015648 0.0026189317
0.81239802 0.49817505 0.0026273092
0.82142669 0.49680761 0.0026468569
0.82274258 0.49073237 0.0026412718
0.83090788 0.48872027 0.002658027
0.827838 0.48009688 0.0026384792
0.83163601 0.47550523 0.0026412718
0.82931316 0.46744373 0.0026245166
0.8286705 0.46040133 0.0026133466
0.83235663 0.45578891 0.0026161391
0.83601737 0.4511486 0.0026189317
0.83347416 0.4431898 0.0026021765
0.83617783 0.43806735 0.0026021765
0.83263189 0.42971379 0.0025826287
0.83347064 0.42368922 0.0025770438
0.82443422 0.41273928 0.0025407409
0.83502078 0.41165811 0.0025658736
0.83123577 0.40346572 0.002546326
55.423553 25.698853 0.17056686
47.002842 21.444794 0.14423895
33.346798 14.967568 0.10203835
32.453682 14.328081 0.099033587
23.70318 10.291278 0.072127625
23.777836 10.150747 0.072163932
140.78513 59.085964 0.42633405
29.534126 12.181993 0.089181565
29.322876 11.884848 0.08832147
29.312563 11.671776 0.088072933
29.199232 11.419577 0.087520018
29.230476 11.225499 0.087405525
29.456938 11.105555 0.08787746
23.656427 8.7531614 0.070404641
15.561199 5.6492815 0.046196256
23.813871 8.4806538 0.070558228
25.05216 8.7488346 0.074068427
29.375031 10.056809 0.086671092
29.436186 9.8763781 0.086671092
44.870766 14.749629 0.13186528
21.259514 6.8436756 0.062334247
21.070301 6.6403542 0.061658457
21.121159 6.5141873 0.061689176
21.222004 6.4029555 0.061867896
21.537268 6.2107701 0.062560439
21.566307 6.0760617 0.062535308
21.467236 5.9062123 0.062141564
21.289637 5.7170582 0.061524417
21.366879 5.5974712 0.061647289
28.078171 6.9887781 0.080767691
28.093313 6.8097653 0.080689505
39.653267 9.3549252 0.11373901
39.708946 9.1112175 0.11373622
39.850971 8.8867693 0.11398476
32.52293 7.043293 0.092892833
32.581192 6.8468943 0.092937507
32.48737 6.6192975 0.09255214
32.572502 6.4287419 0.092680596
30.278038 5.590714 0.085947827
30.132599 5.3728738 0.085439585
30.08123 5.1734738 0.085202217
30.213034 5.005475 0.08548706
30.221451 4.816534 0.085425623
30.341377 4.6449323 0.085682534
30.360401 4.457366 0.085657403
30.425802 4.276423 0.085766308
23.924116 3.2128842 0.067374751
23.959249 3.0680604 0.067419432
30.733629 3.744204 0.086425349
30.836487 3.5648594 0.086651541
30.861755 3.376018 0.08666271
30.922672 3.1907995 0.086777203
31.046177 3.0111399 0.08707042
31.317944 2.6500008 0.087735042
31.430317 2.4653747 0.088005915
31.536612 2.279109 0.088262826
31.570957 2.0869465 0.08832147
31.604128 1.8944484 0.088380113
31.97364 1.7197825 0.089382626
60.567036 2.8857434 0.16929348
59.52552 2.4701376 0.16633619
59.063854 2.0880272 0.16500695
20.10734 0.58689803 0.05614043
47.909328 0.0041424586 -0.66881412
29.848873 -0.36365393 -0.41665712
29.7731 -0.54545873 -0.41563788
29.863157 -0.73043174 -0.41695032
45.273388 -1.3854758 -0.632303
45.069187 -1.6560812 -0.62958038
43.455536 -2.1310468 -0.60735255
43.644318 -2.4088316 -0.61018693
42.519909 -2.6085527 -0.59467494
42.506092 -2.8696032 -0.59471679
39.768391 -3.6671023 -0.55749363
38.522049 -4.029489 -0.5406692
38.505543 -4.2667713 -0.54079485
38.583912 -4.5152764 -0.54227483
44.542583 -5.4898796 -0.62650871
56.133858 -7.2684984 -0.79020131
41.41925 -6.1402774 -0.58451045
41.306686 -6.382853 -0.58346331
48.261963 -8.0652332 -0.68308347
40.316212 -6.9919028 -0.57119054
40.013725 -7.1926198 -0.56751847
34.245667 -6.3729181 -0.48623067
34.092022 -6.5610051 -0.48461106
34.006989 -6.7612915 -0.48398274
33.949192 -6.9666109 -0.48375937
33.944939 -7.1830688 -0.48431784
33.915852 -7.3946242 -0.48454124
34.241558 -7.6860275 -0.48986083
44.655388 -10.311845 -0.63978672
41.405144 -9.8292704 -0.5940606
44.856667 -11.23188 -0.64552516
40.872017 -10.768817 -0.59002554
40.652649 -10.978211 -0.58781952
40.457314 -11.192251 -0.58597648
40.251266 -11.401586 -0.58399385
39.887642 -11.563432 -0.5797354
39.491917 -11.711865 -0.5750162
39.458546 -11.965861 -0.57558864
39.569664 -12.265181 -0.57829726
28.166338 -8.9202843 -0.41238469
48.871811 -15.808484 -0.71706742
48.740665 -16.097082 -0.71657872
48.610657 -16.385628 -0.71613193
48.460033 -16.666677 -0.71540588
48.28326 -16.937891 -0.71431684
48.057915 -17.190723 -0.71252972
47.916771 -17.472605 -0.71201307
47.771168 -17.752356 -0.71145463
47.647316 -18.039827 -0.71124518
48.825039 -18.829067 -0.73054093
47.548927 -18.672884 -0.713144
47.593151 -19.028133 -0.71554554
47.652397 -19.391788 -0.71821231
47.623047 -19.721306 -0.71958059
47.336201 -19.943649 -0.71708137
47.224884 -20.238844 -0.71726286
47.454548 -20.68284 -0.7226662
47.341373 -20.98011 -0.7228896
47.201721 -21.265676 -0.72273606
47.134895 -21.584459 -0.72372735
47.223671 -21.976629 -0.72714812
47.155731 -22.298033 -0.72819525
46.635876 -22.403372 -0.72227532
47.315281 -23.088139 -0.73498088
47.178997 -23.381132 -0.73507863
47.13736 -23.721869 -0.73668426
47.186806 -24.110744 -0.73975593
47.35218 -24.562813 -0.74469858
46.077831 -24.261723 -0.72698057
47.338211 -25.297569 -0.74930608
47.418537 -25.715782 -0.75306189
47.51215 -26.145088 -0.757083
48.395878 -27.019579 -0.77379572
48.237003 -27.320457 -0.77392137
48.677097 -27.965591 -0.78372288
49.757286 -28.993698 -0.80396801
48.44302 -28.627468 -0.78555191
49.565529 -30.117542 -0.8096925
49.361919 -30.410089 -0.80939931
38.30624 -23.924515 -0.63047397
38.168015 -24.164991 -0.63062751
37.936554 -24.345804 -0.62925923
50.333286 -32.739269 -0.8382591
50.668247 -33.40136 -0.84723681
35.742641 -23.877972 -0.60005039
50.943451 -34.486988 -0.85885334
40.742222 -27.947132 -0.6897155
40.503468 -28.150373 -0.68858457
82.896721 -59.136204 -1.4217107
82.202179 -60.954594 -1.4288036
44.185768 -33.186642 -0.77146405
69.36602 -52.767769 -1.2168297
69.071037 -53.215584 -1.2173603
69.289513 -54.064663 -1.227036
47.760201 -38.701046 -0.85819709
47.524151 -38.99527 -0.858239
65.75061 -55.314789 -1.1996282
65.059067 -55.418282 -1.1931918
7.3161001 -6.3095732 -0.13473277
7.1499624 -6.243197 -0.13237315
6.8073783 -6.0180607 -0.12670451
6.4387813 -5.762958 -0.12049134
6.2269568 -5.6425562 -0.11716834
6.170114 -5.6603785 -0.11674948
5.9396515 -5.5164447 -0.11302157
5.828476 -5.4801803 -0.11154158
5.7339048 -5.4579296 -0.11036877
5.6736679 -5.4673371 -0.10985216
5.6142488 -5.4769096 -0.10934953
5.5478115 -5.4789343 -0.10870726
5.4872198 -5.4860067 -0.1081767
5.3923163 -5.4576888 -0.10696199
5.3091426 -5.4398646 -0.10597067
5.2104321 -5.4046702 -0.10465823
5.1123552 -5.3684716 -0.10334579
5.0313635 -5.3487558 -0.10236843
4.8956795 -5.2689157 -0.10026015
4.7915926 -5.2207665 -0.098780155
4.740665 -5.2293262 -0.098389208
4.5344033 -5.063889 -0.094745085
4.4654889 -5.0489225 -0.093949236
4.3989038 -5.035562 -0.093195282
4.1549897 -4.81565 -0.08864361
4.0404077 -4.7413526 -0.08681456
3.9681029 -4.7147975 -0.085879095
3.9058642 -4.69907 -0.085153066
3.6054368 -4.3921533 -0.079177253
3.5526037 -4.3823457 -0.078604802
3.5087762 -4.3829851 -0.078227825
3.4390323 -4.3503065 -0.077264436
3.3932023 -4.3468914 -0.076831602
3.3542588 -4.3517904 -0.076552361
3.3056948 -4.3436441 -0.076049723
3.2825842 -4.3686423 -0.076133497
3.257504 -4.3911109 -0.076175384
3.2245917 -4.4029484 -0.07603576
3.1940002 -4.4177895 -0.075951986
3.1441808 -4.4055619 -0.07540746
3.1101799 -4.4149618 -0.075239919
3.0653372 -4.4085121 -0.074807085
3.0048504 -4.3785944 -0.073983319
2.9538181 -4.3613486 -0.073382944
2.8786659 -4.3070641 -0.072168238
2.8208072 -4.2770662 -0.07137239
2.7781503 -4.2691512 -0.070953526
2.7600057 -4.2987385 -0.071162961
2.7014766 -4.2649088 -0.070325226
2.6413481 -4.2271328 -0.069431648
2.6137872 -4.2407069 -0.06938976
2.5918725 -4.2635002 -0.06950146
2.5497255 -4.2527375 -0.069068633
2.521039 -4.263999 -0.068998821
2.4887857 -4.269021 -0.068831272
2.4485934 -4.2599378 -0.068440333
2.4243805 -4.2783618 -0.068496183
2.4097853 -4.3141084 -0.068831272
2.3702493 -4.3051629 -0.068454295
2.3437889 -4.3196254 -0.068454295
2.3035686 -4.3083529 -0.068049394
2.2840798 -4.3356767 -0.068258822
2.1994021 -4.237783 -0.066499591
2.1610701 -4.2271595 -0.066122614
2.1243007 -4.2189054 -0.065787517
2.0899353 -4.2148395 -0.065522239
2.0570157 -4.2132068 -0.06529884
2.034157 -4.232058 -0.065396577
1.9923307 -4.2110167 -0.064879976
1.9495735 -4.186903 -0.064321488
1.9130183 -4.1751513 -0.063958474
1.8705181 -4.149436 -0.063386023
1.8409697 -4.1516943 -0.063246399
1.7974761 -4.1216669 -0.062618107
1.7579671 -4.099535 -0.062115464
1.7234585 -4.088131 -0.061780374
1.6960455 -4.0930862 -0.0616966
1.6656202 -4.0904508 -0.06150113
1.6222938 -4.0551028 -0.060816985
1.5988443 -4.0687032 -0.06087283
1.5749288 -4.0812359 -0.060914718
1.5438356 -4.0749264 -0.060677361
1.5188034 -4.0843225 -0.060677361
1.4933712 -4.0926256 -0.060663398
1.4685681 -4.102653 -0.060677361
1.439062 -4.0993218 -0.060495853
1.4129059 -4.105238 -0.060453966
1.3870511 -4.1119351 -0.060426041
1.3552063 -4.100431 -0.060132835
1.3204761 -4.0791783 -0.059700008
1.2975363 -4.0938759 -0.059797745
1.2768353 -4.116086 -0.060007177
1.2532974 -4.1295838 -0.060090952
1.2316332 -4.1496577 -0.060272459
1.2184052 -4.1993909 -0.060886793
1.2179741 -4.2962542 -0.062185276
1.1998595 -4.3335199 -0.062618107
1.1768988 -4.3543148 -0.062813573
1.1578066 -4.39046 -0.063232437
1.1288537 -4.3897343 -0.063120745
1.0931482 -4.361661 -0.062618107
1.0898359 -4.4644537 -0.064000361
1.062422 -4.4710569 -0.064000361
1.0401464 -4.4998989 -0.064321488
1.0144883 -4.5149765 -0.06444715
0.98463422 -4.5113473 -0.064307526
0.9602493 -4.5329556 -0.064530924
0.93523383 -4.5524745 -0.064726397
0.90884399 -4.5659723 -0.064838089
0.87835187 -4.5586987 -0.064656585
0.847251 -4.5472918 -0.064419225
0.81915629 -4.5514207 -0.064405262
0.79241109 -4.5632572 -0.064502999
0.76225179 -4.555213 -0.064321488
0.73206234 -4.5459838 -0.064126022
0.70323771 -4.5444613 -0.064042248
0.67592734 -4.5526466 -0.064098097
0.64896518 -4.5636377 -0.064195834
0.61906594 -4.5536633 -0.064000361
0.59072781 -4.5544009 -0.063958474
0.56828302 -4.6025968 -0.064586774
0.53886741 -4.596066 -0.06444715
0.50955343 -4.5893478 -0.064307526
0.54754657 -5.2238698 -0.073173515
0.54834306 -5.560483 -0.077850841
0.51366234 -5.5577688 -0.077767074
0.48032367 -5.5697818 -0.077892728
0.44510227 -5.5596662 -0.077711225
0.41024405 -5.552321 -0.077571601
0.38940164 -5.7502675 -0.080308184
0.35392711 -5.7495542 -0.080266304
0.31963673 -5.7695885 -0.08051762
0.29430383 -5.9761739 -0.083379865
0.26016712 -6.0368066 -0.084203638
0.22503911 -6.0902486 -0.084929667
0.18889596 -6.1314921 -0.085488155
0.15171345 -6.1505284 -0.085739478
0.11515481 -6.2153263 -0.086633056
0.077263162 -6.2359128 -0.086912297
0.039123204 -6.2562666 -0.087191544
0.00073571742 -6.2683878 -0.087359086
-0.037774831 -6.2762737 -0.087470785
-0.076845281 -6.3219156 -0.088113047
-0.1160375 -6.3433194 -0.088420212
-0.15556861 -6.3674784 -0.088769272
-0.19448283 -6.3614068 -0.08869946
-0.23409958 -6.376081 -0.088922851
-0.27403226 -6.3935056 -0.089188136
-0.31433451 -6.4136753 -0.089495301
-0.35445368 -6.4256034 -0.089690775
-0.39417991 -6.4282975 -0.089760587
-0.43240342 -6.4078002 -0.089509264
-0.47384354 -6.4339447 -0.089914165
-0.51219833 -6.4169621 -0.089718699
-0.55087674 -6.4057288 -0.089607
-0.58925301 -6.3922715 -0.089467376
-0.62924755 -6.3964963 -0.089579076
-0.66806775 -6.3885369 -0.089523226
-0.70593297 -6.3723917 -0.089355677
-0.74699575 -6.3848238 -0.089593038
-0.78921616 -6.4049292 -0.08994209
-0.83119768 -6.4207907 -0.0902353
-0.87380701 -6.4393492 -0.09057039
-0.91639405 -6.4556456 -0.090877555
-0.95804077 -6.4637485 -0.091073029
-0.99768358 -6.4577489 -0.091073029
-1.03713 -6.4505186 -0.091059066
-1.0747123 -6.432198 -0.090891518
-1.119627 -6.4570093 -0.091338307
-1.1755008 -6.5405579 -0.092622831
-1.217989 -6.546001 -0.092804343
-1.2660683 -6.5796432 -0.093390748
-1.3103162 -6.5913649 -0.093669996
-1.3591776 -6.6243396 -0.094256409
-1.4080787 -6.655005 -0.094814897
-1.4503776 -6.6530781 -0.094912626
-1.4916108 -6.6460052 -0.094940551
-1.5370865 -6.6571875 -0.095233761
-1.5795219 -6.6544404 -0.095331497
-1.6274307 -6.6737661 -0.095750362
-1.673207 -6.683054 -0.096029602
-1.7144308 -6.6736302 -0.096043564
-1.7604425 -6.682323 -0.096322812
-1.8186169 -6.7351065 -0.097244315
-1.875105 -6.7787523 -0.098040156
-1.9204786 -6.7805877 -0.098235629
-1.9659451 -6.7821217 -0.098431095
-2.0353839 -6.8638768 -0.099799395
-2.0704975 -6.8282938 -0.099464297
-2.1173887 -6.8316975 -0.099701658
-2.1737585 -6.8643322 -0.10037184
-2.2232223 -6.8736973 -0.10070693
-2.2728822 -6.8827143 -0.10104202
-2.3153906 -6.869586 -0.10105599
-2.3614004 -6.8665962 -0.10122354
-2.4011714 -6.8453727 -0.1011258
-2.4592941 -6.8757019 -0.10179599
-2.7693107 -7.5950899 -0.11271441
-2.825614 -7.6041985 -0.11310535
-2.8885055 -7.6297331 -0.11374761
-2.947499 -7.6435857 -0.11422233
-2.9998262 -7.639317 -0.11443175
-3.0555525 -7.6430492 -0.11476685
-3.113699 -7.6519413 -0.11518572
-3.1556182 -7.6206822 -0.1150042
-3.1980479 -7.5910401 -0.11485063
-3.2559879 -7.5979271 -0.11525553
-3.3193262 -7.6163039 -0.11584194
-3.339258 -7.5354595 -0.11492043
-3.3915927 -7.5285029 -0.11512987
-3.4443839 -7.5220966 -0.11535326
-3.475286 -7.4681849 -0.11485063
-3.5176249 -7.4394889 -0.11473893
-3.5770619 -7.4466066 -0.11518572
-3.630579 -7.4406934 -0.11543703
-3.7032504 -7.4729276 -0.11628873
-3.7661142 -7.4840045 -0.11681929
-3.8429022 -7.5213022 -0.11776872
-3.912461 -7.5428481 -0.11848079
-3.9712477 -7.5425882 -0.11885777
-4.0560985 -7.5903931 -0.12000266
-4.264667 -7.8642101 -0.12474981
-5.4432836 -9.8921709 -0.15749112
-5.5550585 -9.9502563 -0.15895715
-5.6051664 -9.896842 -0.15864998
-5.6657867 -9.8622637 -0.15864998
-5.7538819 -9.8748293 -0.1594179
-5.840817 -9.8841009 -0.16014394
-5.9239697 -9.8858147 -0.16075827
-6.002171 -9.8783331 -0.16123299
-6.0894179 -9.8847361 -0.16194506
-6.1626678 -9.8675404 -0.16228016
-6.2583995 -9.8852987 -0.16320166
-6.3761821 -9.9359121 -0.16468164
-6.4419346 -9.9041452 -0.1648073
-6.5477114 -9.932888 -0.16595221
-6.6224213 -9.913311 -0.16630127
-6.7565546 -9.9809589 -0.16813031
-6.8719673 -10.018471 -0.16947067
-6.9778218 -10.04016 -0.17055972
-7.1078019 -10.094444 -0.17222123
-7.2143197 -10.11332 -0.17329632
-7.2897091 -10.087504 -0.17361744
-7.429431 -10.149084 -0.17546044
-7.5856662 -10.230209 -0.17766647
-7.7299614 -10.292206 -0.17956533
-7.8256588 -10.287556 -0.18031929
-7.9673576 -10.341523 -0.18212041
-8.2035074 -10.513959 -0.18604378
-8.3317184 -10.544231 -0.18748188
-8.4624825 -10.575666 -0.18896188
-8.6329718 -10.654056 -0.19130753
-8.7286263 -10.637987 -0.19197771
-8.8518839 -10.654216 -0.19324827
-9.0072098 -10.706821 -0.19520298
-9.1855555 -10.783798 -0.19763239
-9.3129368 -10.798409 -0.19894484
-6.3957791 -7.324697 -0.13561238
-9.7864904 -11.069858 -0.20614932
-9.8969097 -11.057282 -0.2070429
-10.017612 -11.054881 -0.20814592
-17.456671 -19.028011 -0.36040351
-17.605078 -18.954975 -0.36105973
-18.071066 -19.218834 -0.3681944
-12.80891 -13.291872 -0.257586
-13.013816 -13.339711 -0.2600573
-13.083478 -13.247514 -0.25981995
-13.172294 -13.174765 -0.25997353
-6.7330594 -6.6523371 -0.13199618
-6.7572918 -6.5948358 -0.13167505
-13.588936 -13.100095 -0.26339427
-13.666888 -13.014399 -0.26335236
-13.789457 -12.970715 -0.26417613
-13.912736 -12.926696 -0.26501387
-14.044832 -12.889763 -0.26601917
-14.200705 -12.873185 -0.26747122
-14.358388 -12.85651 -0.26895121
-14.78005 -13.071552 -0.27534589
-14.895371 -13.011535 -0.27600211
-29.030905 -25.046667 -0.53522396
-28.733484 -24.484146 -0.52695835
-27.467852 -23.116293 -0.50112832
-26.877878 -22.33951 -0.48785028
-24.599184 -20.191687 -0.44421846
-24.723392 -20.040997 -0.44423243
-22.609449 -18.09869 -0.40423077
-23.546862 -18.613163 -0.41894692
-20.205864 -15.771753 -0.35775068
-20.535891 -15.827539 -0.36186951
-20.673996 -15.732723 -0.36259556
-22.9949 -17.277107 -0.4014523
-22.927814 -17.00761 -0.39845043
-22.98011 -16.8288 -0.39755687
-23.418413 -16.930004 -0.40333721
-23.575571 -16.824327 -0.4042587
-24.147581 -17.009872 -0.41227299
-24.206345 -16.829994 -0.41150507
-25.291088 -17.35495 -0.42813402
-25.518805 -17.281858 -0.43018648
-25.480541 -17.028837 -0.427771
-25.572863 -16.864464 -0.42757556
-25.653233 -16.692511 -0.42719856
-28.07415 -18.023548 -0.46567833
-27.002438 -17.102465 -0.44614524
-27.548674 -17.212496 -0.45341954
-28.573948 -17.610237 -0.46851265
-28.229467 -17.15983 -0.46112666
-27.911428 -16.73283 -0.4542433
-27.800974 -16.435568 -0.45079464
-26.990801 -15.733925 -0.43607852
-27.048689 -15.546091 -0.43546417
-26.749477 -15.156539 -0.42913932
-26.788721 -14.962379 -0.42828763
-26.479717 -14.577356 -0.42190689
-26.527355 -14.392195 -0.42125067
-26.073742 -13.939701 -0.41267788
-26.036699 -13.715145 -0.4107511
-26.05735 -13.522428 -0.40975979
-26.136271 -13.360468 -0.40970394
-26.222221 -13.202095 -0.40977377
-25.345078 -12.566153 -0.3948482
-25.984198 -12.684994 -0.40358853
-25.929064 -12.461649 -0.40153608
-25.9725 -12.286924 -0.40103343
-25.380238 -11.816712 -0.39075726
-25.366816 -11.621612 -0.38944483
-25.383863 -11.441504 -0.38862106
-22.762514 -10.092402 -0.34751639
-22.498636 -9.8106632 -0.34255981
-21.979445 -9.4241915 -0.33376366
-21.324619 -8.9889317 -0.3229709
-20.994165 -8.6983223 -0.31714866
-20.694304 -8.4256859 -0.31182906
-20.546938 -8.219079 -0.30884117
-20.201458 -7.937448 -0.30290723
-18.275822 -7.0517192 -0.27336326
-18.313135 -6.9373226 -0.27327949
-18.349735 -6.8227339 -0.27319571
-39.471912 -14.400982 -0.58653498
-38.650116 -13.833036 -0.57304752
-38.672943 -13.574099 -0.57213998
-38.590042 -13.279613 -0.56969661
-37.910931 -12.786302 -0.55849892
-37.904171 -12.525521 -0.55725628
-16.649881 -5.3890328 -0.24419627
-37.043694 -11.738955 -0.54244238
-36.914471 -11.449238 -0.53951037
-37.872913 -11.49224 -0.55248123
-37.285126 -11.064502 -0.54290318
-36.72427 -10.65333 -0.53377187
-36.641758 -10.386075 -0.5316357
-36.545792 -10.117033 -0.52933192
-36.362 -9.8263474 -0.52578551
-36.456417 -9.6122265 -0.52628815
-36.266796 -9.3246126 -0.52271384
-36.154564 -9.0596199 -0.52028441
-36.082222 -8.8065519 -0.51845539
-35.646244 -8.4687386 -0.51143241
-35.63129 -8.2345486 -0.51048297
-35.368958 -7.9456329 -0.50601506
-35.270508 -7.6964884 -0.50392073
-34.978611 -7.4082465 -0.49908984
-34.903915 -7.1689401 -0.49738646
-35.515053 -7.0676317 -0.50547057
-35.57346 -6.8526077 -0.50569397
-35.454609 -6.6043587 -0.50341809
-35.323235 -6.3558788 -0.50098866
-35.229553 -6.1161027 -0.49911776
-35.174702 -5.8844805 -0.49781927
-34.978157 -5.6311951 -0.49453816
-34.784779 -5.3813086 -0.49132687
-34.628227 -5.1397333 -0.4886601
-34.401726 -4.890573 -0.48502991
-34.291386 -4.6604104 -0.48306125
-33.836426 -4.3873029 -0.47626168
-33.730721 -4.1633139 -0.47440469
-36.241375 -4.2475882 -0.50935203
-36.326385 -4.0317531 -0.51018977
-36.507565 -3.8252449 -0.5123958
-36.570152 -3.6050904 -0.51295429
-37.247726 -3.4412482 -0.52215534
-37.627773 -3.2436347 -0.52719569
-29.543657 -2.3642762 -0.41368318
-29.542652 -2.1818507 -0.41347376
-38.236774 -2.5880892 -0.53497267
-38.355728 -2.3598092 -0.5364247
-30.626099 -1.6957324 -0.42813402
-38.282928 -1.8840824 -0.53504246
-38.754299 -1.6689776 -0.54147899
-29.903706 -1.1040915 -0.41767636
-29.739016 -0.91532618 -0.41528884
-29.611126 -0.7295593 -0.41343185
-29.565058 -0.54693079 -0.41273373
-27.484221 -0.33977085 -0.38363656
-27.499784 -0.17121148 -0.38383204
-38.190273 -0.0033473207 -0.53310168
-28.042753 0.16955313 -0.39141351
-28.058182 0.34182423 -0.39165086
-28.049557 0.51386964 -0.39156708
-28.038881 0.68579757 -0.39146936
-39.592606 1.2116019 -0.55294198
-39.536461 1.4527521 -0.55227178
-41.756535 1.7909623 -0.58343536
-42.145241 2.0667834 -0.5890342
-42.288513 2.3339946 -0.59122628
-33.240261 2.0392072 -0.46485457
-33.183228 2.2401638 -0.46424022
-28.212776 2.0785551 -0.3948482
-32.432602 2.5896585 -0.45414558
-32.227818 2.7724137 -0.45150673
-32.155437 2.9650576 -0.45073882
-32.133652 3.1620102 -0.45069692
-7.4138422 0.77532279 -0.10391823
-7.4188833 0.82190001 -0.10405786
-7.3948312 0.86519766 -0.10379258
-7.3923602 0.91092211 -0.10383447
-26.747091 3.4632323 -0.37643209
-30.447838 4.1325502 -0.42888799
-30.389238 4.3146582 -0.42842725
-30.382961 4.5041213 -0.42872044
-30.16799 4.6616025 -0.4260816
-30.03615 4.8301101 -0.42462954
-29.922115 5.0003085 -0.42344275
-29.852449 5.1771493 -0.4228982
-29.79355 5.3554463 -0.42252123
-30.194624 5.6190157 -0.42869252
-30.279039 6.2134457 -0.43144307
-30.258934 6.4030509 -0.43170834
-30.574682 6.6661315 -0.43679059
-30.767357 6.9061685 -0.4401415
-30.880283 7.1308208 -0.44237545
-24.388779 5.789619 -0.34984809
-31.398567 7.6575446 -0.45111579
-31.479023 7.8821182 -0.45295879
-23.439404 6.0220737 -0.33775684
-32.072231 8.4502306 -0.46295571
-32.121136 8.6742353 -0.46442175
-33.023384 9.3541718 -0.479096
-23.013161 6.6714196 -0.3344059
-33.230125 9.8548088 -0.48381522
-33.620674 10.195484 -0.49040535
-33.67878 10.439182 -0.49217856
-44.08625 14.860524 -0.64946252
-21.548666 7.7080102 -0.31939656
-41.147438 15.290862 -0.61278385
-21.396589 8.1008663 -0.31929883
-21.307299 8.2168894 -0.31871241
-21.262993 8.3500328 -0.31881016
-21.206717 8.478487 -0.31874034
-21.156147 8.6092033 -0.31876826
-21.104771 8.7396183 -0.31879619
-21.017574 8.8549738 -0.31829357
-20.954575 8.9802227 -0.3181679
-20.881662 9.1010389 -0.31790262
-20.545696 9.1050262 -0.31363019
-20.435654 9.206687 -0.31280643
-20.377871 9.3314886 -0.31279245
-20.366463 9.4778652 -0.31350452
-20.36668 9.6304369 -0.31441206
-20.338751 9.7703772 -0.31490076
-20.349409 9.9296312 -0.31600377
-31.990545 15.853907 -0.49837777
-31.75333 15.979777 -0.49619967
-31.580778 16.136549 -0.4950408
-31.325842 16.249447 -0.49259743
-31.256516 16.457659 -0.4930861
-31.023546 16.578915 -0.49100572
-30.866739 16.739405 -0.49014008
-30.680223 16.882689 -0.48881367
-30.446846 16.998482 -0.48674726
-30.301949 17.162312 -0.486105
-17.777996 10.213514 -0.28612471
-17.689074 10.307303 -0.28570583
-17.591925 10.395807 -0.28516132
-17.496071 10.484536 -0.28464469
-17.392103 10.567808 -0.28400245
-17.306501 10.661738 -0.28366736
-17.21701 10.752897 -0.28327641
-17.107622 10.831058 -0.28256434
-17.02906 10.928264 -0.28236887
-16.927319 11.010193 -0.28179643
-16.84692 11.105595 -0.28158697
-16.772642 11.204868 -0.28148925
-16.697779 11.303648 -0.2813915
-5.7406783 3.937587 -0.097034879
-5.750895 3.9967048 -0.097621292
-27.071733 19.062481 -0.46215987
-26.92984 19.21081 -0.461741
-26.736898 19.321806 -0.46045649
-26.591213 19.466003 -0.45999572
-26.411032 19.584131 -0.45894855
-26.2416 19.709187 -0.45809686
-26.069241 19.831087 -0.4572033
-25.863901 19.926594 -0.45573726
-25.698578 20.051701 -0.45498329
-25.480129 20.133995 -0.45329389
-25.293653 20.239981 -0.4521769
-25.137136 20.368988 -0.45160446
-24.97303 20.491131 -0.45090634
-15.567872 12.93445 -0.28245264
-15.495867 13.036166 -0.28259227
-15.372199 13.094045 -0.28179643
-15.275665 13.174405 -0.2815032
-15.171947 13.248157 -0.28108436
-15.076887 13.32908 -0.28083304
-14.993327 13.420005 -0.28080511
-14.905515 13.50705 -0.28070736
-14.780359 13.559723 -0.27991152
-14.699078 13.652201 -0.27995342
-14.619404 13.746245 -0.28003719
-14.540576 13.841205 -0.28014889
-14.460415 13.93502 -0.28024662
-14.284459 13.935506 -0.27848738
-14.146038 13.970897 -0.27745417
-14.064291 14.061674 -0.27753794
-13.981962 14.151974 -0.27762172
-13.863437 14.205297 -0.27699342
-13.741316 14.254101 -0.2762953
-13.612223 14.2947 -0.27545759
-13.51809 14.371399 -0.27533191
-13.416724 14.440156 -0.27506664
-13.31367 14.506737 -0.27477345
-13.220379 14.583711 -0.27468967
-13.137982 14.672749 -0.27484325
-13.167602 14.888657 -0.27737039
-13.154936 15.059538 -0.27904588
-13.111925 15.19751 -0.28010699
-11.63061 13.648976 -0.25022793
-12.924441 15.357268 -0.28010699
-12.88621 15.503953 -0.28133565
-12.818117 15.615963 -0.28193605
-12.733391 15.708301 -0.28218737
-12.673009 15.831411 -0.28299716
-12.616554 15.960646 -0.28391868
-12.538687 16.06377 -0.28437942
-12.49421 16.21089 -0.28562206
-12.392691 16.284861 -0.28558016
-12.302144 16.373386 -0.28580356
-12.182981 16.423666 -0.28537074
-12.080796 16.496496 -0.28534281
-11.937171 16.511969 -0.28433752
-11.848989 16.603622 -0.28465867
-11.768769 16.707079 -0.28518924
-11.711699 16.844654 -0.2863062
-11.648289 16.974733 -0.28729752
-11.669505 17.231342 -0.29042503
-11.69134 17.493828 -0.29363635
-11.807822 17.904974 -0.29931894
-12.148735 18.670197 -0.31086567
-12.118756 18.876492 -0.31305775
-12.055137 19.033279 -0.31442603
-12.019716 19.23748 -0.31657621
-12.259233 19.891409 -0.32609841
-17.234619 28.352507 -0.46313721
-21.604658 36.038074 -0.58654892
-21.386179 36.175125 -0.58663273
-21.20863 36.382549 -0.58787537
-20.968546 36.483391 -0.58741456
-23.766396 41.945099 -0.67301673
-17.480173 38.781406 -0.59382325
-19.689825 58.380009 -0.86013788
-19.120729 57.862667 -0.85076922
-18.752398 57.938946 -0.85018283
-18.370863 57.971897 -0.84899604
-17.980154 57.97179 -0.84736246
-17.603785 58.014046 -0.84638512
-17.230135 58.062492 -0.84553343
-16.543316 58.364799 -0.84691566
-16.187551 58.474846 -0.84705532
-15.83993 58.615543 -0.84766966
-15.479464 58.709698 -0.84764171
-15.126156 58.831657 -0.8480466
-12.147483 49.771046 -0.71521044
-14.271579 60.071964 -0.86199486
-11.744766 52.280796 -0.7480495
-10.823671 51.105301 -0.72927034
-10.487763 51.063011 -0.72773451
-9.7648211 49.068947 -0.69844186
-9.452775 49.071972 -0.69764602
-8.5637331 47.593975 -0.6750831
-7.4154282 46.061363 -0.65129155
-6.5572057 44.178669 -0.62347889
-6.2270432 43.803284 -0.61762875
-5.9056416 43.454262 -0.61218351
-5.6283574 43.408363 -0.61103863
-5.285965 42.826809 -0.60238206
-4.9832802 42.518795 -0.59760696
-4.7177739 42.507828 -0.59703451
-4.4042444 42.033775 -0.58998364
-4.1241775 41.836117 -0.58684212
-3.7127774 40.186924 -0.56337172
-3.4462032 39.977829 -0.5601325
-3.1848879 39.798874 -0.55734003
-2.9219222 39.564384 -0.55379367
-2.6363654 38.950073 -0.54495561
-2.3730094 38.570301 -0.53942657
-2.1227603 38.339535 -0.53600585
-1.8732215 38.062218 -0.53195679
-1.6252736 37.739338 -0.52729344
-1.3787402 37.34391 -0.52163875
-1.139243 37.015862 -0.51694745
-0.90968376 36.924194 -0.51557916
-0.67302871 36.384228 -0.5079698
-0.44522107 36.019737 -0.5028317
-0.22279467 35.795815 -0.49967626
-0.0031345475 35.589527 -0.49678609
0.21260551 35.153931 -0.49071252
0.42393845 34.794025 -0.48571408
0.63487571 34.651806 -0.48377332
0.83899659 34.300396 -0.47892845
1.0432342 34.091717 -0.47609413
1.2389573 33.718956 -0.47098395
1.4402159 33.579853 -0.46915492
0.073836893 1.5100477 -0.020940995
0.083266303 1.5125613 -0.020982882
0.093770295 1.5319825 -0.021262126
0.10229298 1.518409 -0.021080617
0.11234259 1.5277247 -0.021220239
0.12163483 1.5260099 -0.021206276
0.13168162 1.5332047 -0.021317974
0.1415458 1.5373462 -0.021387786
0.15058441 1.5324683 -0.021331936
0.15894432 1.5215708 -0.021192314
0.16563439 1.4967153 -0.020857222
0.17307156 1.4807739 -0.02064779
0.183255 1.4886156 -0.02077345
0.18981744 1.4676307 -0.020494206
0.19438103 1.4337415 -0.020033453
0.20134732 1.4196521 -0.019851945
0.20770819 1.4025644 -0.019628551
0.21600486 1.3992872 -0.019600626
0.22331655 1.3900378 -0.019488929
0.23200627 1.3896276 -0.019502891
0.23967418 1.3832519 -0.019433079
0.24780333 1.379787 -0.019405155
0.25827724 1.3890537 -0.019558739
0.2664175 1.3854791 -0.019530814
0.27705851 1.394606 -0.019684399
0.28581145 1.3938593 -0.019698361
0.29518667 1.3959924 -0.01975421
0.30438581 1.3970855 -0.019796096
0.31317145 1.3961673 -0.019810058
0.32285717 1.3990908 -0.01987987
0.33397627 1.4077848 -0.020033453
0.34521413 1.4163948 -0.020187037
0.35657009 1.4249195 -0.020340621
0.3640624 1.4178627 -0.020270811
0.37199113 1.4127014 -0.020228924
0.35588679 1.3186867 -0.018902516
8.165185 29.515419 -0.42744988
8.3259687 29.393572 -0.4264167
8.5017128 29.326565 -0.4261933
8.6732521 29.246046 -0.42578837
8.7898617 28.985594 -0.42277256
8.8997536 28.712404 -0.41957521
9.0630827 28.61722 -0.41898879
9.1960363 28.429781 -0.41706201
9.320446 28.221857 -0.41484204
9.5189886 28.239939 -0.415959
9.6641188 28.099682 -0.41475827
9.8390017 28.047403 -0.41486996
9.9984503 27.95167 -0.41435337
10.180389 27.918915 -0.41478619
10.360213 27.879356 -0.41513523
10.529312 27.810587 -0.41506544
10.703714 27.755718 -0.41521901
10.879301 27.70348 -0.41542846
11.050196 27.63899 -0.41547033
11.217693 27.566036 -0.41540053
11.407665 27.547497 -0.41616845
12.334307 29.275663 -0.44342262
12.568456 29.327179 -0.44536337
12.799305 29.366837 -0.44715053
12.99222 29.317003 -0.44759732
13.189111 29.275021 -0.44818372
13.385143 29.229908 -0.44874221
13.595884 29.215218 -0.44978938
13.779164 29.140284 -0.449929
13.986715 29.115574 -0.45086446
14.179134 29.057962 -0.45131126
14.347396 28.950705 -0.45100409
14.553981 28.920181 -0.45191163
14.685206 28.740404 -0.45050144
14.816616 28.56366 -0.44914711
14.971569 28.434166 -0.44854674
15.128319 28.309137 -0.44803014
15.291248 28.196442 -0.44772297
15.455776 28.087193 -0.44748563
15.614177 27.967384 -0.44709468
15.775138 27.852779 -0.44680145
15.936777 27.739855 -0.44655016
16.117258 27.659689 -0.44684336
16.302441 27.58696 -0.44727618
16.613262 27.723131 -0.45112973
16.869249 27.762524 -0.45344746
17.202389 27.923252 -0.45778969
17.417364 27.887566 -0.45894855
17.6518 27.880703 -0.46061006
17.870605 27.846762 -0.4618527
18.740086 28.811142 -0.47975221
18.931923 28.718988 -0.48014316
19.223871 28.776054 -0.48306125
19.396152 28.651762 -0.4829635
19.90926 29.024467 -0.49129894
20.35005 29.280273 -0.4977355
20.665764 29.348618 -0.50104451
21.050438 29.508606 -0.50597316
21.615307 29.910528 -0.51513237
21.917145 29.939505 -0.51793879
22.376785 30.177134 -0.52441722
22.745878 30.284714 -0.52870363
23.390762 30.748596 -0.53930092
23.633303 30.674992 -0.54054356
23.884434 30.6106 -0.54198164
24.447487 30.938896 -0.55044276
25.161016 31.443323 -0.56215698
25.884153 31.943243 -0.5739271
26.49321 32.287807 -0.58303046
26.797539 32.253078 -0.58536214
27.531143 32.72541 -0.59699267
27.947338 32.809338 -0.60164207
28.525587 33.074894 -0.60971218
29.16338 33.397839 -0.61895514
29.989645 33.921688 -0.63206565
30.447964 34.01717 -0.63731545
30.977062 34.183872 -0.64398932
0.61766857 0.6735853 -0.012591612
0.63267761 0.68150491 -0.012815006
0.64444017 0.67731076 -0.012884817
0.63956392 0.66398394 -0.012703309
0.65689278 0.67364585 -0.01296859
0.70106363 0.71015346 -0.013764434
0.74711967 0.74755716 -0.014588203
0.75098121 0.7422561 -0.014574241
0.75265908 0.73484069 -0.014518392
0.7477954 0.72118717 -0.014336884
0.75220644 0.71658516 -0.014336884
0.75731748 0.7126413 -0.014350845
0.75801331 0.7045781 -0.014281035
0.74464166 0.68368763 -0.013945943
0.75252682 0.68246353 -0.014015754
0.75223058 0.67383128 -0.01393198
0.7488609 0.66257888 -0.013792358
0.75968981 0.66389173 -0.013918018
0.76450616 0.65987098 -0.01393198
0.76854068 0.65516764 -0.01393198
0.7702511 0.64850819 -0.013890094
0.78267455 0.65080017 -0.014043678
0.78897166 0.64788872 -0.014085565
0.78904837 0.63988727 -0.014015754
0.8054496 0.64503151 -0.014239148
0.85253584 0.67418057 -0.015007068
0.86375052 0.67447394 -0.015132728
0.87024868 0.67099255 -0.015174614
0.86718804 0.66019052 -0.015048955
0.83285087 0.62602717 -0.01437877
0.83908564 0.62269223 -0.014420656
0.84289062 0.61753201 -0.014420656
0.84666383 0.6123485 -0.014420656
0.84959131 0.60656112 -0.014406695
0.80097979 0.5644843 -0.013513115
0.80196542 0.55784661 -0.013471228
0.80207533 0.55065233 -0.013415379
0.81454611 0.55188793 -0.013568964
0.81791705 0.54687959 -0.013568964
0.8179183 0.53964871 -0.013513115
0.82540464 0.53734666 -0.013582926
0.82447904 0.529571 -0.013513115
0.81335253 0.51540691 -0.013275758
0.8190437 0.51199603 -0.013317645
0.82897967 0.51115769 -0.013429342
0.82782829 0.50346464 -0.013359531
0.82747149 0.4963192 -0.013303682
0.83050132 0.4912326 -0.013303682
0.83868289 0.48914889 -0.013387456
0.83993465 0.48299709 -0.013359531
0.83940256 0.47586259 -0.013303682
0.8484174 0.47411615 -0.013401418
0.84605491 0.46600819 -0.013317645
0.84538275 0.45890084 -0.013261796
0.85435522 0.45700499 -0.013359531
0.85625857 0.45128816 -0.013345568
0.85989904 0.44648632 -0.013359531
0.86974502 0.44484258 -0.013471228
0.86174095 0.43410182 -0.013303682
0.85453403 0.42392048 -0.013150099
0.85082924 0.41559863 -0.013052363
0.82091916 0.39477769 -0.012549724
0.8450188 0.3999953 -0.012884817
0.84201837 0.39227065 -0.012801044
29.177874 13.151576 -0.44673166
25.29088 11.213396 -0.38613579
23.682827 10.327024 -0.36059895
23.743908 10.180727 -0.36057103
