# .PCD v0.7 - Point Cloud Data file format
VERSION 0.7
FIELDS x y z
SIZE 4 4 4
TYPE F F F
COUNT 1 1 1
WIDTH 1440
HEIGHT 1
VIEWPOINT 0 0 0 1 0 0 0
POINTS 1440
DATA ascii
1.0966287 -6.6321177 -0.8274523
1.0565376 -6.642642 -0.82794183
1.0141109 -6.6382079 -0.82659554
0.97220999 -6.6364493 -0.82561642
0.92912871 -6.6255813 -0.8235358
0.88489991 -6.604598 -0.82023132
0.84460962 -6.6118717 -0.82047611
0.80450279 -6.6208706 -0.82096565
0.76090825 -6.6000476 -0.81778353
0.7194286 -6.5957127 -0.81668204
0.68219328 -6.6315961 -0.82059848
0.64072603 -6.6277537 -0.81961936
0.59772241 -6.6058607 -0.81643724
0.55634499 -6.599514 -0.81521338
0.51622695 -6.6077504 -0.81582534
0.47488979 -6.599905 -0.81447905
0.43366829 -6.5918007 -0.81313276
0.39291841 -6.5893836 -0.8125208
0.35221452 -6.5867157 -0.81190884
0.31183943 -6.5897441 -0.81203127
0.27103251 -6.5826082 -0.81092978
0.23008198 -6.5682778 -0.80897152
0.18948925 -6.5596452 -0.80774766
0.14901112 -6.5507622 -0.80652374
0.10894515 -6.5594916 -0.80750287
0.068798371 -6.5699606 -0.80872673
0.028377913 -6.5454473 -0.80566704
-0.011762842 -6.5335889 -0.80419838
-0.051662035 -6.5095744 -0.80126101
-0.091224968 -6.4823413 -0.79795653
-0.13057621 -6.4608212 -0.79538637
-0.17050458 -6.4708123 -0.7967326
-0.21068956 -6.4845228 -0.79856849
-0.25028211 -6.4781494 -0.79795653
-0.28944889 -6.4636025 -0.79636544
-0.32834554 -6.4468374 -0.79452962
-0.36761338 -6.4397469 -0.79391766
-0.40617979 -6.4225121 -0.79208183
-0.44365478 -6.3921762 -0.78865492
-0.47613332 -6.3002644 -0.77763993
-0.51518655 -6.3021703 -0.77825189
-0.55488992 -6.3107548 -0.77972054
-0.59350848 -6.3062429 -0.77959818
-0.63120073 -6.2926073 -0.77837425
-0.67158717 -6.3053932 -0.78045487
-0.71059728 -6.304112 -0.78082204
-0.74891347 -6.2966771 -0.78045487
-0.78605545 -6.2801456 -0.77898622
-0.82004791 -6.2407637 -0.77470261
-0.85697132 -6.2257829 -0.77347869
-0.89529735 -6.2213898 -0.77360111
-0.93242216 -6.208909 -0.77274436
-0.97142243 -6.2089534 -0.77347869
-1.0117341 -6.2165909 -0.77519214
-1.0417513 -6.1623144 -0.76919508
-1.0791999 -6.1538515 -0.76895034
-1.1132121 -6.1266079 -0.76638013
-1.1463803 -6.0962524 -0.76344281
-1.1797864 -6.068645 -0.76087266
-1.2197365 -6.074914 -0.76258612
-1.2590023 -6.0770345 -0.76380998
-1.2910831 -6.04493 -0.76075023
-1.3232441 -6.0146008 -0.75793529
-1.3561779 -5.988945 -0.7557323
-1.3933501 -5.9824438 -0.75597709
-1.4279517 -5.965095 -0.7548756
-1.4600227 -5.9379096 -0.75255018
-1.4957007 -5.9259524 -0.75218302
-1.5302918 -5.9099374 -0.75132632
-1.560922 -5.8793335 -0.74863374
-1.5967069 -5.8686876 -0.74851137
-1.6313541 -5.8539996 -0.74789941
-1.6661536 -5.8400621 -0.74740982
-1.69222 -5.7963843 -0.74312621
-1.7257659 -5.7792349 -0.74226952
-1.7559769 -5.751451 -0.74006653
-1.7879817 -5.7301469 -0.73872024
-1.8222032 -5.7162313 -0.73835307
-1.8547848 -5.6973929 -0.73737395
-1.8878301 -5.6802545 -0.73663962
-1.9169091 -5.6516461 -0.73443663
-1.9470067 -5.626647 -0.73272318
-1.9778608 -5.6043 -0.73137689
-2.0196044 -5.6126032 -0.73406947
-2.0577645 -5.6103549 -0.7354157
-2.0890226 -5.5892558 -0.7343142
-2.1109161 -5.5438704 -0.7300306
-2.1402273 -5.5187845 -0.72843957
-2.1667585 -5.4870863 -0.72599179
-2.2014964 -5.4764504 -0.72635895
-2.2305477 -5.4518166 -0.72489029
-2.2570906 -5.4215355 -0.72268724
-2.2821846 -5.3883924 -0.72011709
-2.3116698 -5.3660846 -0.7190156
-2.3385777 -5.3381634 -0.71717978
-2.3700764 -5.3209944 -0.71681261
-2.4006336 -5.3018308 -0.71620065
-2.423161 -5.2653637 -0.71326333
-2.4491158 -5.2369108 -0.71142745
-2.4794989 -5.2181993 -0.71093792
-2.513628 -5.207356 -0.71154988
-2.5520866 -5.2052016 -0.7133857
-2.5760136 -5.1734524 -0.71118271
-2.6014388 -5.1451492 -0.70946926
-2.6248007 -5.1131978 -0.70726627
-2.6506209 -5.0864344 -0.70579755
-2.6841013 -5.074461 -0.70640951
-2.7081451 -5.0447803 -0.70457369
-2.7380986 -5.0263252 -0.70432889
-2.7636063 -4.9998751 -0.7029826
-2.7879219 -4.9715705 -0.70139158
-2.8144481 -4.9474692 -0.70041245
-2.8452485 -4.9309669 -0.70053482
-2.8709388 -4.9057069 -0.69943333
-2.8918669 -4.8726363 -0.69723034
-2.9140337 -4.8420453 -0.69539452
-2.936451 -4.8122134 -0.69368106
-2.9575675 -4.780601 -0.69172281
-2.9857903 -4.7606821 -0.69147807
-3.0202703 -4.7506475 -0.69270194
-3.0547392 -4.7403684 -0.69392586
-3.0745413 -4.7074099 -0.69184524
-3.0902193 -4.6685944 -0.68890792
-3.1226776 -4.6553144 -0.68976462
-3.1522992 -4.6377087 -0.69000942
-3.1790073 -4.6158266 -0.68964225
-3.1987498 -4.5840259 -0.68780637
-3.2354114 -4.576468 -0.68964225
-3.246671 -4.5331311 -0.68609297
-3.2674303 -4.5034847 -0.68462425
-3.2832458 -4.4673576 -0.68217647
-3.3153365 -4.4534965 -0.6831556
-3.355149 -4.4497108 -0.68572575
-3.3691359 -4.4116879 -0.68303323
-3.3676019 -4.3540354 -0.67728096
-3.3967023 -4.3364158 -0.6777705
-3.4337325 -4.3287101 -0.67985111
-3.4422021 -4.2851214 -0.67630184
-3.4684303 -4.2639198 -0.67630184
-3.4869556 -4.2333651 -0.67483318
-3.5109582 -4.2096033 -0.67446601
-3.5296776 -4.1796408 -0.67311972
-3.5468714 -4.1480985 -0.67152864
-3.5761549 -4.1307592 -0.67226297
-3.6073215 -4.1154556 -0.67336446
-3.6213059 -4.0806251 -0.6712839
-3.6197422 -4.0287986 -0.66638833
-3.6323729 -3.9932978 -0.66418529
-3.6709263 -3.9862657 -0.6667555
-3.6905787 -3.958585 -0.66589874
-3.6998107 -3.9199872 -0.66320622
-3.7121375 -3.8850136 -0.6611256
-3.731765 -3.8578832 -0.66039127
-3.7428668 -3.8221495 -0.65818822
-3.7627547 -3.7955878 -0.65757632
-3.7901914 -3.7766316 -0.65831065
-3.8111711 -3.7512157 -0.65794349
-3.8248651 -3.7187667 -0.6563524
-3.8404527 -3.6883531 -0.65512854
-3.8478906 -3.6503756 -0.65255833
-3.8542831 -3.6117673 -0.64986581
-3.8741868 -3.5860274 -0.64949864
-3.9283476 -3.5916536 -0.65488374
-3.9399991 -3.5581698 -0.65317029
-3.9536102 -3.5266607 -0.651824
-3.9632595 -3.4918382 -0.64986581
-3.9846106 -3.4674544 -0.64986581
-3.9997895 -3.4377651 -0.64888668
-4.0018916 -3.3971019 -0.64582694
-4.0044065 -3.3571806 -0.64288962
-4.0180497 -3.3268504 -0.64178813
-4.041461 -3.3046463 -0.64227766
-4.0655227 -3.2829037 -0.64288962
-4.0925736 -3.2634649 -0.64399111
-4.1101818 -3.2364502 -0.64362395
-4.1252618 -3.2075148 -0.64288962
-4.136992 -3.1760986 -0.64166576
-4.1405835 -3.1386645 -0.63921797
-4.1534066 -3.1084421 -0.63823885
-4.1827788 -3.0905657 -0.63982987
-4.1976542 -3.061918 -0.63921797
-4.2123356 -3.0332046 -0.63860601
-4.2138791 -2.9952269 -0.63603586
-4.2069912 -2.9516449 -0.63224179
-4.2168632 -2.9201262 -0.63101786
-4.2723947 -2.9199557 -0.63664776
-4.2745972 -2.883142 -0.6343224
-4.2839451 -2.8513606 -0.63309848
-4.2698355 -2.8043187 -0.62844771
-4.2794657 -2.7732096 -0.62734622
-4.2905478 -2.7431571 -0.62648946
-4.2947063 -2.7088375 -0.62465364
-4.3087187 -2.6808619 -0.62428647
-4.3183198 -2.6502209 -0.62330735
-4.3217635 -2.6159661 -0.62147152
-4.3198371 -2.5787168 -0.61890137
-4.3244591 -2.5456176 -0.61731029
-4.3322716 -2.5145516 -0.61620879
-4.352788 -2.4908793 -0.61694312
-4.3844142 -2.4733887 -0.61926854
-4.380425 -2.4358294 -0.61657596
-4.3857141 -2.4036593 -0.61522973
-4.4064932 -2.3800051 -0.61608642
-4.4481745 -2.3673761 -0.6198805
-4.4564638 -2.336812 -0.61902374
-4.4548454 -2.3012254 -0.61682075
-4.4556131 -2.2670972 -0.61498493
-4.439271 -2.2245991 -0.61082369
-4.4350367 -2.1885352 -0.60837591
-4.4492741 -2.1617148 -0.60849828
-4.4669313 -2.1365149 -0.60911024
-4.4835486 -2.1107569 -0.60959983
-4.4874101 -2.0790348 -0.60837591
-4.479311 -2.0419939 -0.60556096
-4.4682107 -2.0039124 -0.60237885
-4.4822383 -1.9772594 -0.60262364
-4.5188704 -1.9603833 -0.60592812
-4.529901 -1.9322298 -0.60580575
-4.5068903 -1.8898162 -0.60115498
-4.5110602 -1.8591019 -0.60017586
-4.5444608 -1.8403271 -0.60311317
-4.5418344 -1.8069057 -0.60127735
-4.5694757 -1.7855045 -0.60348034
-4.5701523 -1.7535228 -0.60213405
-4.5733953 -1.7226495 -0.60115498
-4.5829482 -1.6942111 -0.60103256
-4.5979228 -1.6677506 -0.60164452
-4.5977831 -1.6358479 -0.60029823
-4.5974259 -1.6040099 -0.59895194
-4.6043639 -1.5748068 -0.59858477
-4.5810037 -1.5354874 -0.59430116
-4.5950541 -1.5088979 -0.59491313
-4.621233 -1.4861432 -0.59711611
-4.6264782 -1.456568 -0.59662658
-4.619204 -1.4231858 -0.59454596
-4.616446 -1.3913798 -0.5930773
-4.6172805 -1.3607835 -0.59209818
-4.6198211 -1.3307787 -0.59136385
-4.6336317 -1.3040199 -0.59209818
-4.6587725 -1.280297 -0.59430116
-4.7000914 -1.2606848 -0.59858477
-4.7307825 -1.2378502 -0.60152215
-4.7267485 -1.2058561 -0.60005343
-4.7485061 -1.1804212 -0.60188931
-4.7122512 -1.1407566 -0.59638178
-4.7259245 -1.1134142 -0.59723848
-4.7307324 -1.0839523 -0.59699374
-4.7712011 -1.0624532 -0.60127735
-4.7921815 -1.0363035 -0.60311317
-4.8110776 -1.0095288 -0.60470426
-4.8327422 -0.98315442 -0.60666245
-4.8445268 -0.95463377 -0.60739678
-4.8532176 -0.92544788 -0.60776395
-4.8568525 -0.89529198 -0.60751921
-4.8485746 -0.86303979 -0.60580575
-4.8606262 -0.83444834 -0.60666245
-4.8901348 -0.8086552 -0.6097222
-4.9018655 -0.77972579 -0.61057889
-4.8987088 -0.74843502 -0.60959983
-4.9218669 -0.72109562 -0.61192518
-4.9291477 -0.69129544 -0.61229235
-4.9234595 -0.65972018 -0.61106849
-4.9392285 -0.63100666 -0.61253715
-4.9361105 -0.59985048 -0.61168039
-4.9515295 -0.57091534 -0.61314911
-4.9993382 -0.54536372 -0.61865658
-5.0065398 -0.51508415 -0.61914617
-5.0056543 -0.48397309 -0.61865658
-5.0164371 -0.45396507 -0.6196357
-5.0240731 -0.4235929 -0.62024766
-5.0433984 -0.39407128 -0.62232828
-5.0061245 -0.36027047 -0.61743271
-5.0280476 -0.33084902 -0.6198805
-5.0388999 -0.30052263 -0.62098199
-5.036685 -0.26938704 -0.6204924
-5.0491481 -0.23899308 -0.62183869
-5.0554776 -0.20821156 -0.62245065
-5.0943513 -0.17850669 -0.62710142
-5.125113 -0.14810361 -0.63077313
-5.1368394 -0.11690158 -0.63211936
-5.1245594 -0.085166551 -0.63052833
-5.1239929 -0.053710885 -0.63040596
-5.1192636 -0.022248318 -0.629794
-5.108387 0.0091432463 -0.62844771
-5.1241136 0.040614169 -0.63040596
-5.1247606 0.072068378 -0.63052833
-5.1410904 0.10385352 -0.63260895
-5.1740894 0.13628684 -0.63677019
-5.1999383 0.16890313 -0.64007467
-5.1829362 0.2001925 -0.63811642
-5.1954908 0.23261276 -0.63982987
-5.1790981 0.26372951 -0.63799405
-5.1932364 0.2964085 -0.6399523
-5.2032056 0.32902017 -0.64142096
-5.2099996 0.36155909 -0.64252245
-5.2254968 0.39486718 -0.64472544
-5.2437487 0.42862174 -0.64729559
-5.2459631 0.46122357 -0.64790756
-5.2578559 0.49479902 -0.64974338
-5.2734842 0.52893412 -0.65206879
-5.2879033 0.56317443 -0.65427178
-5.2705407 0.59405285 -0.65255833
-5.2451153 0.62380153 -0.64986581
-5.2402039 0.65584987 -0.64974338
-5.27249 0.69277638 -0.65427178
-5.2710896 0.72552091 -0.65463895
-5.2852035 0.76053679 -0.65696436
-5.3196964 0.79884911 -0.66185993
-5.3274412 0.83346999 -0.66345096
-5.3379006 0.86869425 -0.66540921
-5.35987 0.90606391 -0.66883612
-5.3561649 0.93927735 -0.66908085
-5.3278418 0.96804267 -0.6662659
-5.3500876 1.0060358 -0.66981518
-5.3545303 1.0409281 -0.67116147
-5.3431773 1.0727862 -0.67054951
-5.3326073 1.1047457 -0.67005998
-5.3402867 1.1405553 -0.6718958
-5.3496661 1.1769271 -0.67397642
-5.3404078 1.2092915 -0.67373163
-5.3444862 1.2447387 -0.67520034
-5.3319221 1.276353 -0.67458838
-5.3644686 1.3189996 -0.67972869
-5.374558 1.3565061 -0.6820541
-5.3632507 1.3887118 -0.68168694
-5.3718953 1.4261788 -0.68388993
-5.3496361 1.4554648 -0.68217647
-5.3310442 1.4855975 -0.68095261
-5.3475971 1.5256331 -0.68425709
-5.3524261 1.5625893 -0.68609297
-5.3417864 1.5951178 -0.68597054
-5.3281012 1.6267049 -0.68548101
-5.3312836 1.6635063 -0.68719447
-5.3067923 1.6916648 -0.68535858
-5.2849879 1.7205077 -0.68388993
-5.2941098 1.7594775 -0.68646014
-5.3001323 1.7976674 -0.68866313
-5.2739954 1.8249612 -0.68670487
-5.2907753 1.8671976 -0.69037658
-5.2978959 1.9063474 -0.69282436
-5.3065977 1.9463384 -0.69551688
-5.295485 1.9792099 -0.69563931
-5.2841687 2.0120182 -0.69576168
-5.2763505 2.0461979 -0.69637364
-5.2821579 2.0858257 -0.69882143
-5.2913604 2.1270823 -0.70175874
-5.2717791 2.1568787 -0.70090204
-5.2731051 2.1952889 -0.70286024
-5.2366891 2.2179251 -0.69980049
-5.2612643 2.2665086 -0.70494086
-5.2154408 2.2848084 -0.70065725
-5.2067633 2.3191898 -0.70139158
-5.2141333 2.3609202 -0.70432889
-5.2193832 2.4019983 -0.70702147
-5.2036476 2.433558 -0.70689911
-5.2011676 2.471405 -0.7086125
-5.2019935 2.511039 -0.71081555
-5.1936169 2.5464063 -0.71179461
-5.1770062 2.5777831 -0.71167225
-5.1557775 2.606813 -0.71093792
-5.158227 2.6479182 -0.71350807
-5.1515636 2.6845644 -0.71485436
-5.1262217 2.7114825 -0.7136305
-5.1051159 2.7405379 -0.71301854
-5.0934329 2.7746596 -0.71375287
-5.0893412 2.8130624 -0.71558869
-5.0806413 2.849092 -0.71681261
-5.0639267 2.8807034 -0.71693498
-5.0573306 2.9181697 -0.71852607
-5.0376167 2.9481432 -0.71828127
-5.0271139 2.983557 -0.71938276
-5.0138144 3.0174177 -0.72011709
-5.0070658 3.0553632 -0.72183055
-4.9814725 3.0818505 -0.72085142
-4.9422898 3.0997016 -0.7179141
-4.9357405 3.1379564 -0.71974993
-4.9514313 3.1907632 -0.72489029
-4.9409003 3.2270551 -0.72623652
-4.9160409 3.254024 -0.72550219
-4.9141145 3.2962911 -0.72819477
-4.9028254 3.3325188 -0.72954106
-4.8773808 3.3591616 -0.72880673
-4.8517947 3.3856173 -0.7280724
-4.7968931 3.3912592 -0.72293204
-4.8195648 3.4518366 -0.72954106
-4.7814245 3.4691038 -0.72697085
-4.7600489 3.4983768 -0.72697085
-4.7257562 3.5180349 -0.72501266
-4.7048731 3.5475628 -0.72513503
-4.6822286 3.5757623 -0.72501266
-4.6594148 3.6038175 -0.72489029
-4.6426835 3.6366234 -0.72574699
-4.6591587 3.6958835 -0.73186642
-4.6394882 3.7268882 -0.73235601
-4.6157632 3.7546589 -0.73223358
-4.5834455 3.7753379 -0.73076493
-4.5647674 3.8072045 -0.73149925
-4.5473866 3.8402648 -0.73247838
-4.5350523 3.8777699 -0.7343142
-4.5336833 3.9250131 -0.73798591
-4.5333967 3.9736927 -0.74190235
-4.5178366 4.0093398 -0.74337101
-4.4746947 4.020402 -0.74031126
-4.4389296 4.0377645 -0.73847544
-4.4250212 4.0750103 -0.74031126
-4.4042897 4.1061459 -0.74104559
-4.4049945 4.157618 -0.74545163
-4.3923168 4.1969109 -0.74765462
-4.3379493 4.1961799 -0.74275905
-4.3333926 4.2435513 -0.74643075
-4.2988153 4.2616754 -0.7449621
-4.2655807 4.280941 -0.74373817
-4.25246 4.3204737 -0.74606359
-4.2355556 4.3564472 -0.74777704
-4.205308 4.3787751 -0.74716508
-4.1701646 4.3958554 -0.74569643
-4.1492209 4.4278784 -0.74679792
-4.127367 4.4590812 -0.74777704
-4.0389895 4.4176641 -0.73663962
-4.0271058 4.4593053 -0.73945457
-4.0142021 4.500226 -0.74214715
-3.9924183 4.5314746 -0.74324864
-4.00037 4.5970659 -0.74998003
-3.9707942 4.6200199 -0.74973524
-3.9365911 4.6374874 -0.74863374
-3.9061494 4.6592727 -0.74826658
-3.9053352 4.7167897 -0.75365168
-3.8851149 4.751421 -0.75536513
-3.8546407 4.7736259 -0.75512034
-3.7906284 4.7537313 -0.74826658
-3.7251651 4.7308931 -0.74104559
-3.6972852 4.7552285 -0.74129039
-3.6595771 4.7668033 -0.73957694
-3.6344562 4.7947049 -0.74043369
-3.6186447 4.8351912 -0.74324864
-3.618396 4.8972168 -0.74936807
-3.5865247 4.9169207 -0.74900091
-3.5162733 4.8832603 -0.74055606
-3.4666953 4.8772383 -0.73639482
-3.428154 4.8862305 -0.734559
-3.4105382 4.9251246 -0.73725158
-3.3970532 4.9705415 -0.74092323
-3.361496 4.9838862 -0.73982173
-3.3325019 5.006897 -0.7401889
-3.2984486 5.0222731 -0.73945457
-3.3382707 5.1515293 -0.7554875
-3.3065987 5.1719155 -0.7554875
-3.2499185 5.1526518 -0.74973524
-3.2381637 5.2045188 -0.75438601
-3.1968248 5.2090631 -0.75218302
-3.1545246 5.2115989 -0.74973524
-3.1255395 5.23597 -0.75046957
-3.0983875 5.2636027 -0.75169349
-3.084465 5.3142753 -0.75622183
-3.0429268 5.3175955 -0.75401884
-2.9751339 5.2739267 -0.74520683
-2.9403062 5.2877455 -0.74459487
-2.9087598 5.3074279 -0.74483967
-2.8907592 5.3522472 -0.74863374
-2.8392143 5.3348379 -0.74373817
-2.8050444 5.3495216 -0.74337101
-2.7644248 5.3516417 -0.74129039
-2.7288353 5.3631959 -0.74055606
-2.7136602 5.4153318 -0.74545163
-2.6896033 5.4505711 -0.74802178
-2.6556749 5.4660788 -0.74789941
-2.6100962 5.457201 -0.7444725
-2.5960062 5.51442 -0.7501024
-2.5629559 5.5320463 -0.7503472
-2.5256705 5.5404429 -0.74936807
-2.4766021 5.5223289 -0.74483967
-2.4522839 5.5592146 -0.74777704
-2.431555 5.6051149 -0.75193822
-2.3842683 5.5898027 -0.74789941
-2.3430176 5.5878515 -0.74569643
-2.3083091 5.6012053 -0.745574
-2.2742698 5.6161833 -0.74569643
-2.2353647 5.6189656 -0.74422771
-2.1975946 5.6242561 -0.74312621
-2.1651764 5.6431942 -0.74386054
-2.1354067 5.6693764 -0.745574
-2.1043649 5.6926122 -0.74692029
-2.0700729 5.7072835 -0.74716508
-2.0403368 5.734839 -0.74912328
-2.0002069 5.7331939 -0.74728745
-1.953751 5.7124906 -0.74300385
-1.9085712 5.6942577 -0.7390874
-1.8732864 5.7049184 -0.73896503
-1.8339932 5.7030773 -0.73725158
-1.8025413 5.7255836 -0.73872024
-1.7711741 5.7488666 -0.74031126
-1.7424525 5.7814822 -0.74312621
-1.7131166 5.8130093 -0.74581879
-1.6815366 5.8377171 -0.74765462
-1.6397715 5.8269067 -0.7449621
-1.5958359 5.8071909 -0.74116802
-1.571999 5.8609691 -0.74679792
-1.5365095 5.8724251 -0.74704266
-1.5021652 5.888474 -0.74789941
-1.4664845 5.8995066 -0.74814421
-1.428624 5.9016414 -0.74728745
-1.3903375 5.9016018 -0.74618596
-1.3567591 5.9216309 -0.74765462
-1.3126348 5.8949685 -0.74324864
-1.2758101 5.900002 -0.74288148
-1.2371391 5.8960629 -0.74141276
-1.1965866 5.8821464 -0.73872024
-1.1646922 5.9108005 -0.74141276
-1.1349072 5.9519582 -0.74569643
-1.097466 5.9539294 -0.74508446
-1.0603911 5.9576197 -0.7447173
-1.0246552 5.968905 -0.74532926
-0.98704016 5.9692049 -0.74459487
-0.95023942 5.9741683 -0.7444725
-0.9129653 5.9759622 -0.74398297
-0.87800616 5.9932356 -0.74545163
-0.84121585 5.9985104 -0.74545163
-0.80254924 5.9897871 -0.74373817
-0.76150692 5.9611259 -0.73957694
-0.72790778 5.9903169 -0.74263668
-0.69556981 6.033123 -0.74740982
-0.65735477 6.0264249 -0.74606359
-0.61731923 6.0007267 -0.74239188
-0.58086973 6.0083528 -0.74288148
-0.54908806 6.0681453 -0.7498576
-0.51217765 6.075356 -0.7503472
-0.47612652 6.0942154 -0.75230539
-0.43986326 6.1128616 -0.75426364
-0.40013319 6.0817738 -0.7501024
-0.36304474 6.0880771 -0.75059193
-0.32568219 6.0901904 -0.75059193
-0.28821358 6.0900912 -0.7503472
-0.24859646 6.0372047 -0.74361581
-0.20825098 5.9443884 -0.73198885
-0.17019884 5.8909903 -0.72525746
-0.13490546 5.9296284 -0.72990823
-0.10133139 6.1000357 -0.75083673
-0.063921086 6.1025271 -0.75108153
-0.026556524 6.1216612 -0.75340688
0.011025853 6.1326265 -0.75475317
0.048670564 6.134428 -0.75499797
0.086323798 6.1350069 -0.75512034
0.12376494 6.1244388 -0.75389647
0.16160326 6.1334858 -0.75512034
0.19923459 6.1323781 -0.75512034
0.23728028 6.1419497 -0.75646663
0.27567312 6.1562414 -0.75842488
0.312381 6.1336193 -0.75585467
0.34910464 6.1157336 -0.75389647
0.38518184 6.0906944 -0.75108153
0.42392156 6.1080179 -0.75352931
0.46288827 6.1250954 -0.75597709
0.49989614 6.1152153 -0.75512034
0.53393018 6.0724864 -0.75022477
0.56829613 6.0384645 -0.74643075
0.6102916 6.08424 -0.75255018
0.6436165 6.0428786 -0.74789941
0.68257326 6.0555816 -0.74998003
0.72499329 6.0956287 -0.7554875
0.75621665 6.0418258 -0.74936807
0.79249829 6.031168 -0.74863374
0.8290838 6.023242 -0.74826658
0.86800587 6.031795 -0.74998003
0.9038204 6.0185037 -0.74900091
0.944722 6.0383382 -0.75218302
0.98414671 6.047122 -0.75401884
1.0147792 6.0028038 -0.7492457
1.0562224 6.0228591 -0.75255018
1.0848171 5.9703698 -0.74679792
1.1236317 5.9753056 -0.74826658
1.1661469 5.9984999 -0.75206065
1.1968732 5.9610667 -0.74826658
1.2334272 5.9536109 -0.74826658
1.2686906 5.9401069 -0.74753225
1.3053278 5.9331803 -0.74765462
1.3353508 5.8969879 -0.74410534
1.3676809 5.872251 -0.74202472
1.411775 5.897531 -0.74630833
1.4540974 5.913815 -0.74949044
1.492057 5.9115176 -0.7503472
1.5345218 5.926271 -0.75340688
1.5695823 5.9119477 -0.75279498
1.6029612 5.8916712 -0.75144869
1.6409469 5.8884172 -0.75230539
1.6824932 5.8973255 -0.75475317
1.715865 5.8773637 -0.75352931
1.7496235 5.859117 -0.75255018
1.7788749 5.8264394 -0.74973524
1.8092698 5.7983608 -0.74753225
1.8436078 5.7833681 -0.74704266
1.8864337 5.7945962 -0.74998003
1.9260229 5.795156 -0.75157106
1.9612262 5.782289 -0.75144869
1.9853082 5.7373199 -0.74716508
2.0224564 5.7306457 -0.74789941
2.049515 5.6957159 -0.7449621
2.0946786 5.7109861 -0.74863374
2.1140432 5.6561913 -0.74312621
2.1359937 5.6097231 -0.73872024
2.1696563 5.5946608 -0.73847544
2.2123287 5.6024742 -0.74129039
2.2559185 5.611815 -0.74435014
2.286551 5.5886817 -0.74312621
2.3139327 5.5580544 -0.74092323
2.3356051 5.5145073 -0.73700678
2.3792152 5.5228601 -0.74006653
2.419431 5.5227022 -0.74202472
2.4556952 5.5131927 -0.74275905
2.4956183 5.5115824 -0.74459487
2.5331247 5.5042801 -0.74569643
2.5668504 5.4886336 -0.74569643
2.5987759 5.4691944 -0.74520683
2.628402 5.4451017 -0.74410534
2.6538978 5.4128318 -0.74190235
2.7060843 5.4346476 -0.74716508
2.7407231 5.420598 -0.74753225
2.7671325 5.3904357 -0.74569643
2.8029077 5.3786359 -0.74643075
2.832145 5.3543181 -0.74545163
2.8532085 5.3149791 -0.74239188
2.8843424 5.2947574 -0.74202472
2.9201374 5.2830396 -0.74288148
2.921428 5.2096214 -0.73504853
2.9651175 5.2123013 -0.73798591
2.9955554 5.191431 -0.73761874
3.0258491 5.1703835 -0.73725158
3.0463722 5.1329436 -0.734559
3.0829282 5.1226583 -0.73578286
3.1210234 5.1146584 -0.73737395
3.1366813 5.0700922 -0.7337023
3.1672044 5.0499096 -0.73357987
3.2013257 5.0354061 -0.7343142
3.2300115 5.012331 -0.73382467
3.257992 4.9882631 -0.73321271
3.2863467 4.9648685 -0.73272318
3.3173018 4.9454346 -0.73284554
3.3470259 4.9241662 -0.73272318
3.3760509 4.9019017 -0.73247838
3.3947051 4.8648167 -0.7300306
3.4090211 4.8220153 -0.72672611
3.448947 4.8155303 -0.7289291
3.4871728 4.8063269 -0.73076493
3.5118959 4.7784419 -0.7297858
3.5322592 4.7448621 -0.72794998
3.5583189 4.7191367 -0.72733808
3.5625093 4.664876 -0.72232008
3.5777061 4.6256585 -0.71962756
3.6182621 4.6192451 -0.72207534
3.6644254 4.6195049 -0.72562462
3.6914577 4.595386 -0.72537982
3.7195849 4.572649 -0.72537982
3.7482035 4.5505061 -0.72550219
3.7620683 4.5106544 -0.72280967
3.7935166 4.4920354 -0.723544
3.8197176 4.4671655 -0.72329921
3.8314645 4.4256368 -0.72036189
3.8395746 4.3804007 -0.71681261
3.8644035 4.3545318 -0.71644545
3.8963566 4.3366442 -0.71742451
3.9175494 4.3067818 -0.71644545
3.9237311 4.2607617 -0.71277374
3.9206975 4.2053924 -0.70751101
3.9913905 4.2288909 -0.71558869
4.03372 4.2215414 -0.71852607
4.0761085 4.2138309 -0.72146338
4.1081371 4.1951227 -0.72256488
4.1233191 4.159265 -0.72072905
4.1227484 4.1079679 -0.71620065
4.1273632 4.0624051 -0.71265137
4.1479421 4.0328526 -0.71191704
4.1733251 4.0080128 -0.71203941
4.1956792 3.9802811 -0.71167225
4.2265406 3.9605694 -0.71277374
4.2449355 3.929168 -0.71179461
4.2631044 3.8976903 -0.71081555
4.2920961 3.8761151 -0.71167225
4.3254275 3.8582947 -0.71326333
4.36168 3.8428347 -0.71534395
4.3851776 3.8159995 -0.71534395
4.3987241 3.7806115 -0.71375287
4.4172988 3.7496967 -0.71301854
4.4318566 3.7155087 -0.71167225
4.4423394 3.6781185 -0.70971406
4.461751 3.6482787 -0.70922446
4.4747863 3.6133516 -0.7077558
4.4821286 3.5740707 -0.70543039
4.5203505 3.5593951 -0.7080006
4.5421052 3.5315917 -0.7080006
4.5652637 3.504864 -0.70824534
4.5882649 3.4779851 -0.70849013
4.5936265 3.4378736 -0.70604235
4.6186256 3.4125717 -0.70665431
4.6474967 3.3900166 -0.70787817
4.6746535 3.3660755 -0.7088573
4.6491075 3.3045561 -0.70188111
4.6806712 3.2839475 -0.70359457
4.7121568 3.2630756 -0.70530802
4.7378259 3.2380207 -0.70616472
4.7353883 3.1939056 -0.70286024
4.7425032 3.1565416 -0.70102441
4.7642708 3.1290171 -0.70139158
4.772552 3.0927093 -0.69980049
4.7772231 3.0542796 -0.69771993
4.7908373 3.0217326 -0.69698554
4.7991753 2.9859886 -0.69551688
4.8097935 2.9518132 -0.69441539
4.8210225 2.9181345 -0.69343626
4.8269062 2.8813767 -0.69172281
4.8444948 2.8517051 -0.69172281
4.856751 2.8189373 -0.69098848
4.8679261 2.7856333 -0.69013178
4.8659091 2.7449846 -0.6874392
4.8765888 2.7117002 -0.68658251
4.894876 2.6826808 -0.6868273
4.8955259 2.6441071 -0.68462425
4.8757358 2.5949028 -0.67960632
4.886292 2.5621719 -0.67887199
4.897512 2.5298645 -0.67826003
4.9049816 2.4957161 -0.67715853
4.9184279 2.4646835 -0.67691374
4.9396887 2.4375324 -0.6777705
4.9661574 2.4128149 -0.67936152
4.9647522 2.3745902 -0.67715853
4.945106 2.3280201 -0.67250776
4.9376841 2.2876215 -0.66957045
4.9597554 2.2609861 -0.67067194
4.9635739 2.2260442 -0.66932565
4.9762311 2.1951458 -0.66920328
5.0032644 2.170495 -0.6710391
5.0210524 2.1417015 -0.67165107
5.0533204 2.1189113 -0.67422122
5.0698972 2.0893772 -0.67471075
5.0697427 2.053015 -0.6729973
5.0453563 2.0071957 -0.66810173
5.0631237 1.9783671 -0.66883612
5.0705347 1.9454856 -0.66822416
5.0805187 1.9136372 -0.66797936
5.0856485 1.8800191 -0.66712266
5.0952225 1.848102 -0.66687787
5.1279731 1.8244542 -0.66969281
5.1137691 1.7841291 -0.66638833
5.1218028 1.7517545 -0.66602117
5.1268086 1.7184026 -0.66528684
5.1598873 1.6943429 -0.66822416
5.1588483 1.6590049 -0.6667555
5.1509433 1.6216577 -0.66443008
5.1418271 1.5841779 -0.6619823
5.1666546 1.55718 -0.66394055
5.1818247 1.5271319 -0.66467488
5.1577172 1.4856945 -0.66039127
5.1266103 1.4427291 -0.65525091
5.1458931 1.4141381 -0.6565972
5.1535144 1.3822799 -0.65647483
5.1532574 1.3483717 -0.65537328
5.1652808 1.3177078 -0.65586287
5.1886797 1.2898195 -0.65782106
5.2071071 1.2605263 -0.65916735
5.2012191 1.2253667 -0.65745389
5.2405648 1.2007428 -0.66149276
5.24299 1.1674863 -0.6608808
5.2549052 1.1363426 -0.66149276
5.2549791 1.1026514 -0.66063601
5.2626185 1.0705844 -0.66075844
5.2768788 1.0398082 -0.6617375
5.2704854 1.0049942 -0.66014647
5.2716722 0.97173673 -0.65953451
5.3058724 0.94441456 -0.66308379
5.3145022 0.91234416 -0.66345096
5.2974787 0.87599474 -0.66063601
5.3056941 0.84394115 -0.66100317
5.2999806 0.80972183 -0.65965694
5.2842269 0.77416617 -0.65708673
1.5765775 0.22127853 -0.19482338
1.554297 0.2084384 -0.19188605
1.5496396 0.19814315 -0.19115171
1.5390033 0.18719485 -0.18968305
1.5164601 0.17502101 -0.1867457
1.5066525 0.16452952 -0.18539943
1.462219 0.15061164 -0.17976953
1.1282241 0.10927429 -0.13827965
1.050786 0.095286869 -0.12861092
0.8772909 0.074170671 -0.10707045
0.83023489 0.065077603 -0.10119577
0.82962871 0.059910968 -0.10107339
0.83394206 0.055079799 -0.10156295
0.83228284 0.04984371 -0.10131817
0.85437655 0.045901075 -0.10401072
0.86257315 0.041032869 -0.10498983
0.86578357 0.035861824 -0.10535701
0.87392235 0.030826462 -0.10633612
0.87806332 0.02557808 -0.10682567
0.87621927 0.020144837 -0.1065809
0.87533402 0.014751633 -0.10645851
0.87540799 0.0093804067 -0.10645851
0.87544906 0.0040088277 -0.10645851
0.82669181 0.0017844546 -0.11650743
0.83955622 -0.0033294063 -0.11834814
0.84446937 -0.008527034 -0.1190561
0.82856423 -0.013463196 -0.11679062
0.83044541 -0.018589718 -0.1170738
0.82536799 -0.023547521 -0.11636584
0.82520795 -0.02861144 -0.11636584
0.82897341 -0.03383274 -0.11693221
0.82281697 -0.038644493 -0.11608265
0.81959873 -0.043537226 -0.11565788
0.8025161 -0.047582529 -0.11325081
0.80220902 -0.05250578 -0.11325081
5.2315793 -0.37116426 -0.74843413
5.3022418 -0.40888128 -0.75891197
5.3144307 -0.44263825 -0.76103586
5.3303485 -0.47691256 -0.76372612
5.3214092 -0.50904506 -0.76287657
5.3024282 -0.54008394 -0.76061106
5.3059039 -0.57335252 -0.76160222
5.3131046 -0.60713315 -0.76315975
5.3014169 -0.63877589 -0.76202703
5.3052549 -0.67228734 -0.76315975
5.3491139 -0.71121466 -0.77009779
5.4299512 -0.75588745 -0.78241628
5.4438238 -0.79189616 -0.78510654
5.446692 -0.82647109 -0.78623933
5.4816089 -0.86620623 -0.79204458
5.4986582 -0.90351349 -0.7953012
5.4852037 -0.93590456 -0.79416847
5.4774084 -0.96919876 -0.79388529
5.5142021 -1.0106367 -0.80011535
5.5040069 -1.0437149 -0.79954898
5.5072141 -1.07937 -0.80096489
5.5004873 -1.1131414 -0.80096489
5.5129347 -1.1509147 -0.80379677
5.5473847 -1.1936694 -0.8098852
5.557353 -1.2315383 -0.8124339
5.5632038 -1.2686944 -0.81441617
5.5784464 -1.3082277 -0.81781441
5.5029459 -1.3262041 -0.80790293
0.98397142 -0.24406856 -0.14326839
0.98149586 -0.2498579 -0.1431268
0.97323847 -0.25412905 -0.14213565
0.96687877 -0.25881907 -0.1414277
0.9614532 -0.26370192 -0.14086132
0.95981699 -0.26959631 -0.14086132
0.94482297 -0.27165952 -0.13887903
0.94218838 -0.27717295 -0.13873744
0.94900316 -0.28551018 -0.14001177
0.93587703 -0.28784299 -0.13831265
0.93125951 -0.29269138 -0.13788788
0.93227428 -0.29930595 -0.13831265
0.91912985 -0.30132741 -0.13661355
0.92195845 -0.30852911 -0.13732152
0.92285901 -0.31513819 -0.13774629
0.92090797 -0.32079482 -0.13774629
0.93105173 -0.33073938 -0.13958699
0.94017655 -0.34048384 -0.14128609
0.9380697 -0.34624624 -0.14128609
0.95446312 -0.35895336 -0.14411795
0.96056432 -0.36798519 -0.14539227
0.87342352 -0.34082261 -0.13236578
5.3169088 -2.1089473 -0.8163985
5.3268175 -2.1507945 -0.8199383
5.3419061 -2.1950996 -0.82432765
5.32377 -2.2259269 -0.82361966
5.3009019 -2.2546773 -0.82220376
5.3214946 -2.3020923 -0.82758427
5.2909575 -2.327528 -0.82503563
5.3009768 -2.3708587 -0.82885861
5.2908354 -2.4053881 -0.82956654
5.2499151 -2.4257681 -0.82546037
5.1453204 -2.4158726 -0.81130117
1.1372712 -0.54306734 -0.17852488
1.1606441 -0.5629831 -0.18277267
1.1616089 -0.57227933 -0.18348062
1.1403652 -0.57054615 -0.18064877
1.1465536 -0.58245969 -0.18220629
1.1323979 -0.58404392 -0.18050718
1.1165117 -0.58455914 -0.17852488
1.112904 -0.59139889 -0.17852488
1.1066396 -0.59680808 -0.17810011
1.1020882 -0.60311222 -0.17795852
1.0966353 -0.60890293 -0.17767534
1.0954669 -0.61707658 -0.17810011
1.0916599 -0.62378663 -0.17810011
1.0938089 -0.63394487 -0.17909126
1.0984352 -0.64565653 -0.18050718
1.0944529 -0.65238428 -0.18050718
1.0878869 -0.65755248 -0.18008241
1.04415 -0.63992387 -0.17342757
5.0253606 -3.1195982 -0.84429216
5.0220442 -3.1603906 -0.84698242
5.0042272 -3.1922102 -0.8472656
4.9837146 -3.2223182 -0.84712404
4.9530845 -3.2457845 -0.84528333
4.9330754 -3.2761152 -0.84528333
4.9095955 -3.3041117 -0.84471697
4.9137669 -3.3509035 -0.84896469
4.8996296 -3.3854918 -0.85009748
4.869843 -3.4092476 -0.84853995
4.8714428 -3.4550972 -0.85250455
4.8597989 -3.4918535 -0.85420364
4.8326788 -3.5175295 -0.85321248
4.8118019 -3.5477037 -0.8533541
4.7812171 -3.5706468 -0.85179657
4.7276354 -3.5760322 -0.84613287
4.7158208 -3.6127985 -0.84797359
4.7240696 -3.6653292 -0.85349566
4.693706 -3.6881313 -0.85207975
4.6709881 -3.716862 -0.85207975
4.6504064 -3.7473159 -0.85250455
4.6158199 -3.7663929 -0.85038066
4.5804119 -3.7845571 -0.84811515
4.5586224 -3.8138609 -0.84839833
4.5464664 -3.851357 -0.85052222
4.5302639 -3.8856249 -0.85193819
4.5153065 -3.9211371 -0.85363728
4.4636526 -3.9245865 -0.84839833
4.4313536 -3.9446619 -0.84684086
4.4158912 -3.9797294 -0.84853995
4.3921204 -4.0074172 -0.84868151
4.3732662 -4.0396643 -0.8498143
4.3404431 -4.0589852 -0.84825677
4.3097043 -4.0800972 -0.84712404
4.2745819 -4.0968757 -0.84514171
4.2550478 -4.128541 -0.8462745
4.2458801 -4.1705251 -0.84953111
4.2181039 -4.1944051 -0.84910631
4.1971722 -4.2251234 -0.85009748
4.1677012 -4.2472649 -0.84938949
4.1401844 -4.2713356 -0.84910631
4.12006 -4.3030939 -0.85038066
4.0956202 -4.3304505 -0.8508054
4.0642409 -4.3504362 -0.8498143
4.0361276 -4.373837 -0.84953111
4.0072136 -4.3963251 -0.84910631
3.9801626 -4.4208302 -0.84910631
3.9549358 -4.4473877 -0.84953111
3.9216926 -4.4648781 -0.84825677
3.8825445 -4.4753985 -0.84570807
3.8492134 -4.4923725 -0.84443378
3.8254135 -4.5204396 -0.84528333
3.801414 -4.5483837 -0.84613287
3.7715435 -4.5693331 -0.84570807
3.7446866 -4.5939236 -0.84599125
3.7195325 -4.6206689 -0.84669924
3.6837177 -4.6341066 -0.84500015
3.6564364 -4.6581793 -0.84528333
3.6114094 -4.6594033 -0.84146035
3.5887692 -4.6893358 -0.84287626
3.5503786 -4.6986318 -0.84061074
3.5149689 -4.7116008 -0.83905327
3.4936259 -4.7434406 -0.84089398
3.457468 -4.7551804 -0.83919483
3.4247618 -4.7714806 -0.83834529
3.4062953 -4.8077507 -0.84103554
3.3835399 -4.838295 -0.84273463
3.3532267 -4.85815 -0.84259307
3.3222399 -4.8769975 -0.84230989
3.285624 -4.8874331 -0.84061074
3.2517421 -4.9017272 -0.83961964
3.2254002 -4.9273844 -0.84061074
3.1902711 -4.939599 -0.83933645
3.1481972 -4.9407158 -0.8362214
3.1136072 -4.9532351 -0.83508867
3.0857646 -4.9764528 -0.83579665
3.0577548 -4.9995155 -0.83650458
3.0234408 -5.0122504 -0.83551347
2.9951601 -5.0349607 -0.8362214
2.9566953 -5.0404372 -0.8340975
2.9227378 -5.0533428 -0.83324796
2.8995235 -5.0849395 -0.83551347
2.8706942 -5.1069493 -0.8362214
2.8330662 -5.1132116 -0.83438069
2.7968934 -5.1218114 -0.83296478
2.7752671 -5.1571808 -0.83593822
2.725945 -5.1408806 -0.8305577
2.6893067 -5.1478591 -0.82900017
2.6558571 -5.1607428 -0.82843381
2.6330948 -5.1946001 -0.83126569
2.6078053 -5.2239432 -0.83338958
2.5691507 -5.226521 -0.83126569
2.5297003 -5.2270393 -0.82885861
2.5026906 -5.2531867 -0.8305577
2.4704106 -5.2684436 -0.8305577
2.4318144 -5.270021 -0.82843381
2.3994324 -5.284843 -0.82843381
2.3661525 -5.2976589 -0.82815063
2.3395758 -5.3256717 -0.83027452
2.3127444 -5.3535571 -0.83239841
2.2724972 -5.3503361 -0.82970816
2.2350471 -5.3532176 -0.82800907
2.1976478 -5.3558416 -0.82630992
2.15956 -5.3563724 -0.82432765
2.1273823 -5.3713627 -0.82461083
2.0965381 -5.3898506 -0.82546037
2.0644872 -5.4053874 -0.82588518
2.0229385 -5.3957076 -0.82248694
1.9836383 -5.3912969 -0.8199383
1.9461498 -5.391263 -0.81809759
1.91105 -5.3975039 -0.81724805
1.8798441 -5.4147391 -0.81809759
1.8469036 -5.4271088 -0.81823915
1.8088696 -5.424253 -0.81611532
1.7752455 -5.434309 -0.8159737
1.739454 -5.4375567 -0.81484097
1.6998426 -5.4282899 -0.81186754
1.6665032 -5.4386177 -0.81186754
1.6325325 -5.4468446 -0.81158435
1.5985236 -5.4548588 -0.81130117
1.5644777 -5.4626613 -0.81101799
1.53093 -5.472158 -0.81101799
1.4988904 -5.4871778 -0.81186754
1.4600916 -5.4771419 -0.80903566
1.4279523 -5.4917459 -0.8098852
1.3942287 -5.5004044 -0.8098852
1.3587905 -5.5021286 -0.8088941
1.3212998 -5.4949627 -0.80662858
1.2855277 -5.4942918 -0.8053543
1.2520109 -5.5030417 -0.80549586
1.2177937 -5.508687 -0.80521268
1.1831387 -5.5121841 -0.80464631
1.1462656 -5.5048032 -0.80252242
1.1161906 -5.530169 -0.80521268
1.0788169 -5.5194268 -0.80266404
1.0430896 -5.5162158 -0.80124807
1.006196 -5.5059576 -0.798841
0.97101641 -5.5042291 -0.79770827
0.93689263 -5.508132 -0.79742509
0.90227711 -5.5088921 -0.79671717
0.86830413 -5.5133476 -0.79657555
0.832533 -5.5058475 -0.79473484
0.79731309 -5.5010552 -0.79331893
0.76313591 -5.502902 -0.79289412
0.72740531 -5.4927611 -0.79077023
0.69542533 -5.5108705 -0.79275256
0.66360456 -5.5317421 -0.79515964
0.62942594 -5.5337429 -0.79487646
0.59334069 -5.5178161 -0.79204458
0.55947286 -5.5213528 -0.79204458
0.52671027 -5.5365071 -0.79374367
0.49193865 -5.5307608 -0.79246938
0.45766622 -5.5297289 -0.79190302
0.42297074 -5.522563 -0.79048705
0.38824114 -5.5132046 -0.78878796
0.3545962 -5.5184464 -0.78921276
0.32078654 -5.5215068 -0.78935432
0.28618065 -5.509531 -0.78737205
0.25218785 -5.5072274 -0.78680569
0.21823406 -5.504715 -0.78623933
0.18445368 -5.5059505 -0.78623933
0.15088381 -5.514895 -0.78737205
0.11710556 -5.5186858 -0.7877968
0.083121009 -5.5113821 -0.78666407
0.049382947 -5.5206971 -0.78793842
0.015449776 -5.5010977 -0.78510654
-0.018263277 -5.4882207 -0.78326589
-0.051901001 -5.4840455 -0.78269947
-0.085365564 -5.471746 -0.78100038
-0.11893795 -5.4711189 -0.78100038
-0.1521762 -5.4584117 -0.77930129
-0.18502817 -5.4385777 -0.77661103
-0.21740481 -5.4126115 -0.77307123
-0.25029212 -5.4042535 -0.77208006
-0.28422353 -5.4174452 -0.77420396
-0.31745899 -5.4155989 -0.77420396
-0.35042697 -5.4095974 -0.77363759
-0.38347319 -5.4053707 -0.77335441
-0.41731668 -5.411799 -0.77462876
-0.45084319 -5.4130826 -0.77519512
-0.4832558 -5.4013405 -0.77392077
-0.51572967 -5.3913755 -0.77292961
-0.54900122 -5.390079 -0.77321279
-0.58217001 -5.3875933 -0.77335441
-0.61532897 -5.384903 -0.77349597
-0.64658397 -5.3662839 -0.77137208
-0.67974734 -5.3641801 -0.77165526
-0.71069324 -5.3451886 -0.76953143
-0.74156803 -5.3270001 -0.7675491
-0.77281606 -5.3125534 -0.76613319
-0.80272758 -5.2900939 -0.76358455
-0.83609825 -5.290936 -0.7644341
-0.871755 -5.305243 -0.76726592
-0.90445733 -5.3007698 -0.76740754
-0.93696523 -5.2951202 -0.76740754
-0.96783268 -5.280508 -0.76613319
-0.98602235 -5.1995788 -0.75523061
-1.0196203 -5.2021742 -0.75650489
-1.0491662 -5.1841769 -0.7548058
-1.0718573 -5.1340337 -0.74843413
-1.1012576 -5.1176825 -0.74701822
-1.1360635 -5.1262932 -0.74928367
-1.1652966 -5.1095738 -0.74786776
-1.1968522 -5.1032915 -0.74800938
-1.2316202 -5.1102877 -0.75013328
-1.260576 -5.0930247 -0.74871731
-1.283276 -5.0516124 -0.7437616
-1.3174914 -5.056097 -0.74560231
-1.3444042 -5.0326152 -0.7433368
-1.3695112 -5.0032649 -0.7402218
-1.3983153 -4.9880948 -0.73923063
-1.4220721 -4.9556322 -0.73569083
-1.4524524 -4.9468131 -0.73569083
-1.4836318 -4.9406524 -0.73611563
-1.5168233 -4.9409199 -0.73753154
-1.547704 -4.9334092 -0.73781472
-1.5740198 -4.9115639 -0.73597401
-1.5995106 -4.8877006 -0.73385012
-1.6338603 -4.8909397 -0.73583245
-1.667352 -4.8911295 -0.73738992
-1.6931065 -4.8686509 -0.73554921
-1.7120328 -4.8273811 -0.73087668
-1.7348909 -4.7981653 -0.72804487
-1.7595086 -4.7744255 -0.72606254
-1.7839004 -4.7505646 -0.72408026
-1.8108943 -4.7339816 -0.72323072
-1.8341596 -4.7080216 -0.72096521
-1.8681214 -4.7095623 -0.72294754
-1.8829036 -4.6631284 -0.71756703
-1.9088475 -4.6450777 -0.71657586
-1.940749 -4.6414976 -0.71785021
-1.9602829 -4.6085491 -0.71459359
-2.0069919 -4.6391387 -0.72124839
-2.0318327 -4.6185808 -0.7199741
-2.0520523 -4.5879531 -0.71714222
-2.0838513 -4.5833859 -0.71841657
-2.1131804 -4.5732098 -0.71884131
-2.1344712 -4.5458193 -0.71657586
-2.1550798 -4.5174475 -0.71416879
-2.1771469 -4.4925575 -0.71232808
-2.2029235 -4.4755611 -0.71176171
-2.2259185 -4.453105 -0.7103458
-2.2505131 -4.4340663 -0.70949626
-2.2704241 -4.4060936 -0.70723075
-2.3006279 -4.3982201 -0.70822191
-2.3192179 -4.3682818 -0.70567328
-2.3431606 -4.3487401 -0.70482367
-2.372174 -4.338624 -0.70553166
-2.3963499 -4.3196583 -0.70482367
-2.41116 -4.2841673 -0.70142549
-2.4300413 -4.2563958 -0.6993016
-2.4620638 -4.2516861 -0.70100069
-2.4876041 -4.2356453 -0.70085913
-2.5079761 -4.2109456 -0.6993016
-2.5291617 -4.1878505 -0.69802725
-2.5532598 -4.1697206 -0.69760251
-2.5787966 -4.1539755 -0.69760251
-2.6042364 -4.1380739 -0.69760251
-2.6301103 -4.1228514 -0.69774407
-2.6542835 -4.1049728 -0.69746089
-2.6642313 -4.0654244 -0.69349629
-2.6803651 -4.0358052 -0.69123083
-2.7017622 -4.0143547 -0.69038129
-2.7235548 -3.9936118 -0.6896733
-2.7451944 -3.972753 -0.68896538
-2.7621398 -3.9452908 -0.68712467
-2.8011835 -3.9492638 -0.69080603
-2.8270955 -3.9344134 -0.69123083
-2.8430288 -3.905787 -0.68924856
-2.866941 -3.8882689 -0.68924856
-2.8871913 -3.8658452 -0.68839896
-2.9048862 -3.8401611 -0.68698305
-2.9145501 -3.8041894 -0.68372643
-2.9463315 -3.7971849 -0.6857087
-2.9542868 -3.7595742 -0.6821689
-2.9785323 -3.7429256 -0.68245208
-3.0051684 -3.7292044 -0.68330169
-3.0386317 -3.7237349 -0.6857087
-3.0330524 -3.670676 -0.67933708
-3.0561533 -3.6527557 -0.67947865
-3.0727508 -3.627136 -0.67820436
-3.1078365 -3.6232431 -0.68103617
-3.1416917 -3.6175604 -0.68358487
-3.138994 -3.5699625 -0.67820436
-3.1588655 -3.5484161 -0.67777956
-3.1785905 -3.5267608 -0.67735475
-3.2001705 -3.5071909 -0.67735475
-3.2061827 -3.4707625 -0.67409813
-3.2199819 -3.4430702 -0.67254066
-3.2478523 -3.4304373 -0.67395657
-3.2667851 -3.4083002 -0.67353177
-3.277987 -3.3782439 -0.6715495
-3.285475 -3.3446472 -0.66885924
-3.2996542 -3.3181067 -0.6675849
-3.3213563 -3.2991934 -0.66786808
-3.3365917 -3.2738979 -0.66687697
-3.3559062 -3.2526743 -0.66673535
-3.3850956 -3.2409225 -0.66857606
-3.399884 -3.2153289 -0.6675849
-3.4137623 -3.1890001 -0.66645217
-3.4216266 -3.1572514 -0.66418672
-3.4204514 -3.117523 -0.66022211
-3.4424584 -3.0991263 -0.66078848
-3.4702854 -3.0858405 -0.66248757
-3.4690747 -3.0468485 -0.65866458
-3.4824708 -3.0209637 -0.65767342
-3.4971833 -2.9963181 -0.65696549
-3.532881 -2.9895132 -0.66022211
-3.5344489 -2.9538114 -0.65710706
-3.5517433 -2.9314387 -0.65696549
-3.5558531 -2.8983307 -0.6544168
-3.5689435 -2.8727329 -0.65356725
-3.5896027 -2.8532445 -0.65413362
-3.59692 -2.8232183 -0.65229291
-3.580534 -2.7750144 -0.64620447
-3.6179314 -2.7686369 -0.64988583
-3.6277437 -2.7410138 -0.64861155
-3.6333866 -2.7104144 -0.64662921
-3.6842201 -2.7133164 -0.65271771
-3.671978 -2.669699 -0.64762038
-3.6971354 -2.6534681 -0.64917791
-3.7181933 -2.6341672 -0.65002745
-3.6896715 -2.580096 -0.64223987
-3.7005455 -2.5540335 -0.64139032
-3.7308724 -2.5413127 -0.64393896
-3.7390022 -2.5134013 -0.64266467
-3.7469299 -2.485486 -0.64139032
-3.753828 -2.4570258 -0.63997442
-3.7596869 -2.4280376 -0.63841689
-3.7836971 -2.4107757 -0.63997442
-3.8017702 -2.3896217 -0.64054078
-3.8264561 -2.3725104 -0.64223987
-3.8519194 -2.3557029 -0.64408058
-3.8468065 -2.3202615 -0.64082396
-3.8592691 -2.2956016 -0.64054078
-3.8399837 -2.2523408 -0.63501865
-3.8503041 -2.226754 -0.63445228
-3.8673341 -2.2050488 -0.63501865
-3.8885574 -2.1856444 -0.63629299
-3.9044926 -2.163183 -0.6367178
-3.9037919 -2.131592 -0.63445228
-3.9150541 -2.1066604 -0.6341691
-3.9042943 -2.0700746 -0.63034612
-3.9063945 -2.0405779 -0.62864703
-3.9188416 -2.0165703 -0.62864703
-3.9143658 -1.9839811 -0.62595677
-3.9078667 -1.9506385 -0.62298334
-3.914432 -1.9240029 -0.62213373
-3.9297278 -1.9016736 -0.62270015
-3.9350669 -1.8745444 -0.62170899
-3.9447021 -1.8495232 -0.62142581
-3.9478872 -1.8215504 -0.62015146
-3.9671018 -1.8009764 -0.62142581
-3.9970582 -1.7850807 -0.62439924
-4.0052171 -1.7593268 -0.62397444
-3.9441483 -1.7036964 -0.61278868
-4.0119271 -1.7038506 -0.62170899
-4.0168257 -1.6769128 -0.62085944
-4.0059762 -1.643589 -0.61760283
-4.0251665 -1.6226805 -0.61901873
-4.0433302 -1.6012336 -0.62029308
-4.0318608 -1.5681378 -0.61703646
-4.0377078 -1.5419561 -0.61647004
-4.0572886 -1.5209758 -0.61802757
-4.0609708 -1.4940007 -0.61717802
-4.0654063 -1.4673738 -0.61647004
-4.1284547 -1.4615703 -0.62468243
-4.1195769 -1.4300405 -0.62199217
-4.102972 -1.3961227 -0.61816919
-4.0983148 -1.3665352 -0.61618686
-4.1160321 -1.3444377 -0.61760283
-4.1128898 -1.3155363 -0.61590368
-4.1350541 -1.2947142 -0.61802757
-4.1504922 -1.2716386 -0.61916029
-4.1629577 -1.2475694 -0.61986828
-4.180984 -1.2250659 -0.62142581
-4.2026968 -1.2034786 -0.6235497
-4.200469 -1.1750005 -0.62213373
-4.2171483 -1.1518145 -0.6235497
-4.2126589 -1.1228557 -0.62185055
-4.2137208 -1.0954908 -0.62100101
-4.2184443 -1.0691286 -0.62071782
-4.2239637 -1.0429872 -0.62057626
-4.2755198 -1.0279324 -0.62723106
-4.2875299 -1.0030328 -0.62808067
-4.2887774 -0.97560751 -0.62737268
-4.3043485 -0.9514116 -0.62878859
-4.3168802 -0.92643774 -0.62977976
-4.3195763 -0.89932668 -0.62935495
-4.2949324 -0.86673045 -0.62496561
-4.3254294 -0.84530109 -0.62864703
-4.3188629 -0.81653631 -0.62694788
-4.2897091 -0.78378856 -0.62199217
-4.2973623 -0.75796884 -0.62241691
-4.3273053 -0.73590529 -0.62609833
-4.3297853 -0.7090193 -0.62581515
-4.3301435 -0.68182248 -0.62524879
-4.3420758 -0.65642524 -0.62638152
-4.3793306 -0.63460207 -0.63119566
-4.4037328 -0.61057693 -0.6341691
-4.348516 -0.57574028 -0.62567359
-4.3166103 -0.54458165 -0.62057626
-4.3179045 -0.51784915 -0.62029308
-4.3613272 -0.49593675 -0.62609833
-4.3780675 -0.47065011 -0.62808067
-4.370039 -0.44267893 -0.62652314
-4.3844991 -0.41698289 -0.62822223
-4.4185276 -0.39288238 -0.63275319
-4.4741282 -0.37017864 -0.64039916
-4.4565749 -0.34120476 -0.63756734
-4.44871 -0.31315681 -0.63615137
-4.4298024 -0.28451872 -0.63317794
-4.457159 -0.25882834 -0.63685936
-4.4902983 -0.23312169 -0.64139032
-4.4916439 -0.20556535 -0.64139032
-4.4888644 -0.17784396 -0.64082396
-4.457222 -0.14919995 -0.63615137
-4.4818029 -0.12250062 -0.63954961
-4.5002847 -0.095378548 -0.64209831
-4.5106835 -0.067913949 -0.64351422
-4.5634789 -0.040710934 -0.65101862
-4.5933404 -0.012796006 -0.65526634
-4.5784841 0.015340741 -0.65314251
-4.5941415 0.043581568 -0.65540797
-4.5947776 0.071785197 -0.65554953
-4.5982094 0.10006247 -0.65611595
-4.5945401 0.12819225 -0.65569115
-4.5986137 0.15654913 -0.65639913
-4.5955882 0.18468352 -0.65611595
-4.6022797 0.21324351 -0.65724868
-4.6305423 0.24303102 -0.66149646
-4.624022 0.27114984 -0.66078848
-4.6400528 0.30066699 -0.66333711
-4.6618199 0.33081064 -0.66673535
-4.6705594 0.36024475 -0.66829288
-4.6672745 0.38881394 -0.66815126
-4.663815 0.41735637 -0.6680097
-4.667079 0.44653004 -0.66885924
-4.6770539 0.47646078 -0.67069995
-4.6819158 0.50599957 -0.67183268
-4.7111797 0.5384227 -0.67650521
-4.703856 0.56684661 -0.67593884
-4.6885047 0.59420627 -0.67423975
-4.647481 0.61800969 -0.66885924
-4.6641912 0.64937836 -0.67183268
-4.6689358 0.67926651 -0.67310703
-4.6411901 0.70434028 -0.66970879
-4.6661158 0.73743683 -0.67395657
-4.6634564 0.76637441 -0.67423975
-4.6908689 0.80046523 -0.67891228
-4.6975665 0.83130127 -0.68061143
-4.7001672 0.86153615 -0.68174416
-4.695765 0.89054394 -0.68188572
-4.70187 0.92162323 -0.68358487
-4.7417297 0.95967948 -0.69023967
-4.7134638 0.98410571 -0.68698305
-4.6937876 1.0100945 -0.68500078
-4.698133 1.0412308 -0.68655831
-4.694551 1.0706984 -0.68698305
-4.6821103 1.098128 -0.6861335
-4.6800957 1.1279953 -0.68684149
-4.6999936 1.1633469 -0.69080603
-4.716754 1.198254 -0.69434589
-4.7169762 1.2291689 -0.69547862
-4.7122149 1.2588546 -0.69590336
-4.6595249 1.2754666 -0.68924856
-4.6096692 1.2922809 -0.68301845
-4.6397157 1.3314583 -0.68868214
-4.6675534 1.3704951 -0.69406265
-4.6742263 1.4036622 -0.69632816
-4.7194691 1.4488692 -0.70439893
-4.7019892 1.4751343 -0.70312458
-4.6843643 1.5012394 -0.70185024
-4.6760058 1.5302618 -0.70199186
-4.651505 1.5539078 -0.69972634
-4.6456308 1.5836967 -0.70029277
-4.6264753 1.6089216 -0.6988768
-4.6445074 1.6472019 -0.70312458
-4.6361747 1.676342 -0.70340776
-4.6062946 1.6975715 -0.70043433
-4.6356435 1.7407624 -0.70652282
-4.6415181 1.7755375 -0.70907146
-4.6250019 1.8018285 -0.70822191
-4.5954547 1.8228754 -0.7053901
-4.6080503 1.8606719 -0.70907146
-4.6038723 1.8919207 -0.71020418
-4.5812168 1.9155526 -0.70850509
-4.634057 1.9711291 -0.71855813
-4.6127892 1.9955965 -0.71714222
-4.5932083 2.0206745 -0.7160095
-4.6024122 2.0585172 -0.71940774
-4.6185331 2.0998256 -0.72393864
-4.6127515 2.1314459 -0.72507143
-4.6049633 2.1622329 -0.72592098
-4.591609 2.1904478 -0.72592098
-4.5763006 2.2177169 -0.72563779
-4.5697126 2.2492511 -0.72677052
-4.5558257 2.2772479 -0.72677052
-4.5488291 2.3087425 -0.72790325
-4.5486579 2.3438635 -0.7301687
-4.547349 2.3786101 -0.73229259
-4.5326681 2.4064674 -0.73229259
-4.5099735 2.4300089 -0.7310183
-4.5132194 2.4676063 -0.73399174
-4.5239649 2.5096557 -0.73823947
-4.4860492 2.5247464 -0.73455811
-4.458437 2.5453551 -0.73257577
-4.4521589 2.578119 -0.7341333
-4.4430857 2.6093981 -0.73526603
-4.4312434 2.6391437 -0.73597401
-4.4234409 2.6714001 -0.73738992
-4.4145651 2.7031429 -0.73866427
-4.3936906 2.7275693 -0.73795629
-4.3710065 2.750787 -0.73696518
-4.3648958 2.7844748 -0.73880589
-4.3610301 2.8198035 -0.74107134
-4.3618631 2.858444 -0.7441864
-4.3623853 2.8972006 -0.7473014
-4.3625951 2.9360707 -0.75041646
-4.3526769 2.9683602 -0.75183237
-4.3514857 3.0068274 -0.7548058
-4.3280878 3.0300653 -0.75395626
-4.3005319 3.050266 -0.75239873
-4.3138938 3.0996983 -0.75806242
-4.3076 3.1354289 -0.76032788
-4.2779217 3.1541653 -0.75848722
-4.2687993 3.1880538 -0.76032788
-4.2286286 3.1986618 -0.75664651
-4.2364287 3.2456162 -0.76160222
-4.2383351 3.288538 -0.76556683
-4.2211909 3.3169284 -0.76613319
-4.2100554 3.3501623 -0.76783228
-4.1686063 3.3591635 -0.7640093
-4.169394 3.4021995 -0.7679739
-4.1606512 3.4378057 -0.77023935
-4.1470718 3.4696217 -0.77165526
-4.132503 3.5007601 -0.77292961
-4.0974188 3.5144515 -0.77038097
-4.085495 3.5479639 -0.77222168
-4.1179237 3.620676 -0.7825579
-4.0431275 3.5991483 -0.77250487
-4.0908327 3.6868401 -0.78595614
-4.0366859 3.6831841 -0.77986765
-4.0234642 3.7166145 -0.78170836
-4.0020299 3.7425842 -0.78199154
-3.9782717 3.7663891 -0.78184992
-3.9608047 3.7962077 -0.78298271
-3.9338844 3.816993 -0.78227472
-3.9082708 3.8389781 -0.78184992
-3.9085107 3.8866162 -0.78666407
-3.9515712 3.9779394 -0.80025697
-3.9402635 4.0155339 -0.80294722
-3.9045255 4.0282636 -0.80068171
-3.8626177 4.0342717 -0.79714191
