# .PCD v0.7 - Point Cloud Data file format
VERSION 0.7
FIELDS x y z
SIZE 4 4 4
TYPE F F F
COUNT 1 1 1
WIDTH 1441
HEIGHT 1
VIEWPOINT 0 0 0 1 0 0 0
POINTS 1441
DATA ascii
1.1618884 -2.9565811 -0.044188026
1.1419255 -2.9589903 -0.044118214
1.1233938 -2.9650061 -0.044104252
1.1030889 -2.9662201 -0.044020481
1.0831543 -2.968236 -0.043950669
1.0612148 -2.9644706 -0.043797083
1.0463167 -2.980361 -0.043936707
1.0341916 -3.0046892 -0.044201989
1.0166944 -3.0138209 -0.044243876
0.99692792 -3.0162046 -0.044188026
0.97717041 -3.0184596 -0.044132177
0.95742285 -3.0205858 -0.044076327
0.93857473 -3.0254488 -0.044062365
0.91883188 -3.0273232 -0.044006519
0.89426571 -3.012774 -0.043713313
0.87492704 -3.0153234 -0.043671425
0.85668164 -3.0215969 -0.043685388
0.83865881 -3.028724 -0.043713313
0.8205809 -3.0357435 -0.043741237
0.8021934 -3.0416882 -0.0437552
0.78675157 -3.0591424 -0.043936707
0.7657789 -3.0551829 -0.043811046
0.74654412 -3.0578814 -0.043783125
0.727305 -3.0604589 -0.0437552
0.70851266 -3.0648639 -0.0437552
0.68947452 -3.0681779 -0.043741237
0.67020923 -3.0703969 -0.043713313
0.651357 -3.0744517 -0.043713313
0.6322791 -3.0774109 -0.04369935
0.61182338 -3.0733871 -0.043587651
0.59389955 -3.0819924 -0.043657463
0.57662553 -3.0944257 -0.043783125
0.55674225 -3.0929849 -0.043713313
0.53980595 -3.1081648 -0.043880858
0.52369404 -3.1291699 -0.044132177
0.50241798 -3.1194909 -0.043950669
0.48219761 -3.115598 -0.043852933
0.46307155 -3.1184981 -0.043852933
0.44435027 -3.1242504 -0.04389482
0.42422935 -3.119983 -0.043797083
0.40559176 -3.1264932 -0.043852933
0.38615537 -3.1269383 -0.043825008
0.36742711 -3.1332214 -0.043880858
0.34896716 -3.1423736 -0.043978594
0.33040869 -3.151417 -0.044076327
0.31194857 -3.1623406 -0.044201989
0.29235497 -3.162204 -0.044174064
0.27303243 -3.1649344 -0.044188026
0.25376713 -3.1685433 -0.044215951
0.23417325 -3.1680465 -0.044188026
0.21486512 -3.1714189 -0.044215951
0.19540159 -3.1726775 -0.044215951
0.17587546 -3.1728184 -0.044201989
0.15719041 -3.1898172 -0.044425383
0.13774416 -3.1937187 -0.04446727
0.11829282 -3.1985004 -0.04452312
0.098818727 -3.2041633 -0.044592928
0.079328835 -3.2117064 -0.044690665
0.059676144 -3.2151318 -0.044732552
0.040058512 -3.224436 -0.04485821
0.020266773 -3.2236211 -0.044844247
0.00048711407 -3.2296841 -0.044928022
-0.019299598 -3.224627 -0.04485821
-0.039072987 -3.223448 -0.044844247
-0.058887605 -3.225147 -0.044872172
-0.078920193 -3.2347212 -0.045011796
-0.099286616 -3.2511663 -0.045249153
-0.11989452 -3.268482 -0.045500472
-0.14071864 -3.2856667 -0.045751791
-0.16077849 -3.2827439 -0.045723867
-0.18069758 -3.2777021 -0.045668017
-0.20111193 -3.2815218 -0.045737829
-0.22218618 -3.2941928 -0.045933299
-0.24342343 -3.3067281 -0.046128768
-0.26410651 -3.3101559 -0.04619858
-0.28424087 -3.3064806 -0.046170656
-0.30525824 -3.31264 -0.046282355
-0.32567641 -3.3116994 -0.046296317
-0.34630257 -3.3126223 -0.046338201
-0.3671726 -3.3154042 -0.046408013
-0.38820598 -3.3190477 -0.046491787
-0.40978712 -3.3265269 -0.046631407
-0.43211666 -3.3388245 -0.046840839
-0.45407453 -3.3470092 -0.046994425
-0.47544622 -3.3500998 -0.047078196
-0.49657965 -3.3510756 -0.047134046
-0.51865911 -3.3578477 -0.047273669
-0.54036403 -3.3615127 -0.047371402
-0.56262791 -3.3679957 -0.047511026
-0.58533335 -3.3763027 -0.047678571
-0.60763103 -3.3815048 -0.047804229
-0.63019758 -3.3875427 -0.047943853
-0.6534279 -3.3963766 -0.04812536
-0.67601025 -3.4011297 -0.048251022
-0.69907749 -3.4076922 -0.048404604
-0.72245771 -3.4150777 -0.048572149
-0.74318564 -3.4096031 -0.048558187
-0.76584458 -3.4127841 -0.048669886
-0.79127026 -3.427506 -0.04894913
-0.81528854 -3.4352334 -0.049130637
-0.84108984 -3.449595 -0.049409881
-0.86369759 -3.4501889 -0.049493656
-0.88510007 -3.4457929 -0.049507618
-0.90724552 -3.4441648 -0.049563464
-0.93096834 -3.4481864 -0.049703088
-0.95344144 -3.4472277 -0.0497729
-0.97648293 -3.4480469 -0.049870633
-1.0084795 -3.4794445 -0.050415158
-1.0329373 -3.4837358 -0.050568741
-1.0615481 -3.5012541 -0.050917797
-1.0883402 -3.5118661 -0.051169116
-1.112887 -3.5146544 -0.05130874
-1.1359705 -3.5125163 -0.051378548
-1.1587557 -3.5092781 -0.051434398
-1.1805859 -3.5030496 -0.05144836
-1.2066107 -3.5089772 -0.05164383
-1.2357316 -3.5232086 -0.051964961
-1.2637252 -3.5334482 -0.052230243
-1.2905204 -3.5397184 -0.052439675
-1.3233613 -3.5617263 -0.052886464
-1.3508556 -3.568501 -0.053109858
-1.375964 -3.5685418 -0.05323552
-1.4000274 -3.5656159 -0.053319294
-1.4263337 -3.5680997 -0.053486839
-1.4572458 -3.5815084 -0.053821933
-1.4902886 -3.5992901 -0.054226834
-1.5189453 -3.6057429 -0.054464191
-1.5469493 -3.6101408 -0.054673623
-1.5750643 -3.6143303 -0.054883055
-1.6061246 -3.6247094 -0.055190224
-1.6283351 -3.6147861 -0.055190224
-1.656729 -3.6183636 -0.055399656
-1.6919781 -3.6362326 -0.055832483
-1.7369121 -3.673691 -0.056572482
-1.7758739 -3.6972134 -0.057103042
-1.7976491 -3.6844501 -0.057075121
-1.8202227 -3.6733508 -0.057075121
-1.8449751 -3.6665788 -0.057144929
-1.8710779 -3.6623123 -0.057256628
-1.915154 -3.6924794 -0.057912849
-1.9498869 -3.7036624 -0.058275867
-1.9801159 -3.7057383 -0.058499262
-2.014257 -3.7146139 -0.058834355
-2.0596685 -3.7433579 -0.059490576
-2.0957592 -3.7542219 -0.059867553
-2.1286106 -3.7586925 -0.060146797
-2.1665769 -3.7715709 -0.060565665
-2.1992428 -3.7746208 -0.060830947
-2.2264318 -3.7679422 -0.060942642
-2.2572193 -3.7670753 -0.061152074
-2.293272 -3.7745173 -0.06150113
-2.3289762 -3.7808065 -0.061836224
-2.3595467 -3.7783184 -0.062031694
-2.4115686 -3.8093894 -0.062785648
-2.4494786 -3.8172412 -0.063162632
-2.4793973 -3.8121979 -0.063330173
-2.5165 -3.8177836 -0.063679233
-2.5587635 -3.8305397 -0.064153947
-2.5995958 -3.8404355 -0.064586774
-2.6378169 -3.8458507 -0.064949788
-2.6784849 -3.8542252 -0.065368652
-2.7228081 -3.8671496 -0.065871291
-2.7621639 -3.8723483 -0.066248268
-2.7905579 -3.8618104 -0.066359967
-2.8218789 -3.8551035 -0.066541478
-2.858583 -3.8553863 -0.066848643
-2.8935947 -3.8529644 -0.067113928
-2.9298947 -3.8518491 -0.067407131
-2.9992435 -3.8932052 -0.068454295
-5.1611876 -6.6149287 -0.11698683
-4.8749747 -6.1696877 -0.10962877
-3.1241238 -3.9044805 -0.069655046
-3.1700552 -3.9124279 -0.070143722
-3.2269838 -3.9330983 -0.070869751
-3.2804501 -3.948602 -0.071512014
-3.3342268 -3.9635956 -0.072154276
-3.401278 -3.9933007 -0.073075779
-3.4622872 -4.0147581 -0.073857658
-3.521713 -4.0333562 -0.074597657
-3.562952 -4.0303993 -0.074946709
-3.6129563 -4.0367732 -0.075477272
-3.6725721 -4.0530572 -0.076203309
-3.738606 -4.0753913 -0.077055
-3.7941632 -4.0853434 -0.0776833
-3.836283 -4.0801973 -0.078032352
-3.947423 -4.1471105 -0.079777628
-3.9838965 -4.1343312 -0.080001019
-4.0406103 -4.1420164 -0.080629319
-4.1151333 -4.166945 -0.081606671
-4.156177 -4.1571727 -0.081913836
-4.2207289 -4.1702437 -0.08268176
-4.3092108 -4.2057233 -0.083910428
-4.3961248 -4.2381902 -0.085097216
-4.4625978 -4.2497501 -0.085879095
-4.5373883 -4.268188 -0.08681456
-4.6030483 -4.277019 -0.087568521
-4.7286582 -4.3399663 -0.089453414
-4.812242 -4.3625803 -0.090528503
-4.8918099 -4.3803272 -0.091519818
-4.9665318 -4.3926234 -0.092413396
-5.0242662 -4.3890367 -0.092985846
-5.1040978 -4.4038477 -0.093963198
-5.2132192 -4.4424863 -0.095471114
-5.3145885 -4.4728665 -0.096825451
-5.4534354 -4.532846 -0.09884996
-5.4811454 -4.499299 -0.09884996
-5.6274939 -4.5619173 -0.10098618
-5.7310987 -4.5879135 -0.10234051
-5.8289557 -4.6078472 -0.10358314
-5.9398828 -4.6365948 -0.10504917
-6.0608816 -4.6714764 -0.10668275
-6.156271 -4.6850629 -0.10785557
-6.2216754 -4.674829 -0.10849783
-6.3964028 -4.7449841 -0.11103895
-6.5504389 -4.7972164 -0.11320309
-6.5838022 -4.7598624 -0.1132729
-8.1951246 -5.8484969 -0.14041537
-8.1752691 -5.7589469 -0.13946594
-8.2350807 -5.7258 -0.13988481
-8.4036207 -5.7668133 -0.14214669
-9.5788908 -6.4871898 -0.1613726
-9.6218405 -6.4305153 -0.16142845
-9.5484266 -6.2970414 -0.15954356
-9.5919142 -6.2416072 -0.15962733
-9.6821995 -6.2161264 -0.16049299
-9.7210035 -6.157136 -0.16050695
-9.7586002 -6.097373 -0.16050695
-9.7549706 -6.0121989 -0.15983677
-9.8318348 -5.9766412 -0.16049299
-9.8691788 -5.9167156 -0.16050695
-10.062814 -5.9491682 -0.16306204
-10.146639 -5.9150081 -0.16382995
-10.288507 -5.913424 -0.16553333
-10.555137 -5.9808078 -0.16923332
-10.726946 -5.9915042 -0.17139745
-9.4084196 -5.1795959 -0.14979796
-27.387787 -14.859006 -0.43491966
-27.425537 -14.662393 -0.43408191
-27.535334 -14.504555 -0.43440306
-28.037397 -14.549952 -0.44090942
-28.175114 -14.402675 -0.44167736
-28.492952 -13.909697 -0.44257092
-28.55253 -13.722477 -0.44217998
-28.597326 -13.528638 -0.44157961
-28.750504 -13.385832 -0.44266868
-28.903486 -13.027902 -0.44252905
-29.022186 -12.867736 -0.44312942
-29.14459 -12.7086 -0.44379959
-29.394175 -12.390387 -0.44525167
-29.492741 -12.219362 -0.44560072
-29.60791 -12.054758 -0.44621506
-14.341922 -5.433012 -0.21398211
-14.370302 -5.3431668 -0.21391229
-14.5982 -5.3261747 -0.21681643
-23.068419 -7.4664173 -0.33839908
-23.189098 -7.3485937 -0.3395021
-23.212744 -7.1996536 -0.33919495
-22.807732 -6.9209204 -0.33264667
-22.378059 -6.195045 -0.32405993
-22.439781 -6.0641408 -0.32440898
-21.172274 -5.5824518 -0.305574
-21.17417 -5.4442196 -0.30511326
-21.180988 -5.3076329 -0.30473629
-21.190815 -5.1721158 -0.30441514
-21.20756 -5.0385275 -0.30420572
-19.61599 -4.5334444 -0.28095868
-19.558561 -4.3939309 -0.27974397
-19.70336 -4.2996325 -0.2814334
-21.184649 -4.3512197 -0.30181819
-22.632643 -4.3598671 -0.32167241
-22.632427 -4.21597 -0.32129544
-22.548635 -4.0573664 -0.31974563
-22.341301 -3.7376251 -0.31612942
-21.561228 -3.4712665 -0.30477816
-21.555441 -3.3347766 -0.30440119
-21.428125 -3.1805792 -0.30232081
-21.465057 -3.0515721 -0.30257213
-21.343678 -2.9008219 -0.30060348
-21.369997 -2.770962 -0.30072913
-21.40049 -2.6415009 -0.3009246
-21.397427 -2.5079288 -0.30065933
-21.441233 -2.3797879 -0.30106422
-21.452448 -2.2478695 -0.30102235
-19.621956 -1.9344386 -0.27515042
-19.636442 -1.8142802 -0.27519229
-19.646208 -1.6936731 -0.27517834
-21.23702 -1.6995878 -0.29732236
-21.460449 -1.5850066 -0.30031025
-21.504686 -1.4556612 -0.30079895
-21.532175 -1.32485 -0.30106422
-21.545891 -1.1930376 -0.301148
-21.592752 -1.0627779 -0.30170649
-21.546923 -0.92803043 -0.30098045
-21.535221 -0.79517651 -0.3007431
-21.597664 -0.66480756 -0.30155289
-20.52776 1.1328567 -0.28690657
-19.458523 1.1936394 -0.27205083
-19.159369 1.6481035 -0.26835084
-19.060282 1.7574602 -0.2671082
-18.666027 1.8366773 -0.26173276
-18.732969 1.9593936 -0.26283577
-18.323067 2.0302482 -0.25725091
-18.244719 2.1349671 -0.25632939
-18.018902 2.2206984 -0.2533415
-18.04262 2.336098 -0.25387207
-18.008129 2.4440718 -0.25359282
-17.844297 2.533437 -0.25149849
-17.798742 2.6384809 -0.25107962
-17.742693 2.7415342 -0.25052112
-17.679138 2.8428876 -0.24986491
-17.390148 2.9059868 -0.24602531
-17.448837 3.0259638 -0.24711436
-17.46537 3.1393394 -0.24761699
-17.394661 3.2369328 -0.24689096
-17.328323 3.3347218 -0.24623474
-17.268307 3.4331839 -0.24567625
-17.286097 3.5471158 -0.24623474
-17.254225 3.6510444 -0.24609512
-17.184603 3.7466214 -0.24542494
-17.051044 3.8272464 -0.24384721
-17.079851 3.9439468 -0.24460116
-16.980419 4.030889 -0.24352609
-16.918451 4.1259999 -0.24299552
-16.790972 4.2042298 -0.24152949
-16.666077 4.2817979 -0.24010535
-16.607582 4.3755717 -0.23964459
-16.518642 4.4607072 -0.23875101
-16.457232 4.5526481 -0.23826234
-16.366453 4.635829 -0.2373548
-16.242624 4.708601 -0.23597254
-16.151115 4.7896957 -0.235065
-16.081234 4.8765197 -0.23447859
-15.989885 4.9561534 -0.233585
-15.93153 5.0454173 -0.23318011
-15.845093 5.1252275 -0.2323703
-15.711755 5.1888022 -0.23087634
-15.60761 5.2608361 -0.22981521
-15.542888 5.3454466 -0.22934051
-15.520174 5.4443564 -0.22949409
-15.479886 5.5371261 -0.22939636
-15.427771 5.6254964 -0.22913107
-15.381716 5.7158742 -0.22896352
-15.31456 5.7981091 -0.22848882
-15.270299 5.88873 -0.22836316
-15.233879 5.982316 -0.22836316
-15.170889 6.0652828 -0.22797221
-15.094489 6.142426 -0.2273858
-15.03342 6.2253642 -0.22703674
-14.990332 6.3155494 -0.22696693
-14.941188 6.4030766 -0.22681335
-14.870454 6.4810505 -0.22633864
-14.807553 6.5620437 -0.22598958
-14.754247 6.647027 -0.22579411
-14.694093 6.7286897 -0.22550091
-14.642557 6.8140836 -0.22534733
-14.58872 6.8982434 -0.22516581
-14.529895 6.979835 -0.22491449
-14.49578 7.0732422 -0.22505412
-14.467338 7.1696019 -0.22529148
-14.412355 7.2528424 -0.22512393
-14.355116 7.3347692 -0.22492845
-14.273449 7.4038353 -0.22435601
-14.19767 7.4754367 -0.22388129
-14.132133 7.5520434 -0.22357412
-14.055643 7.622407 -0.22309941
-12.939859 7.120388 -0.20606555
-12.828701 7.1621194 -0.20499046
-12.749712 7.2209883 -0.20443198
-12.706032 7.2995815 -0.20444593
-13.527524 7.8823357 -0.21845001
-13.397127 7.916863 -0.2171236
-13.488957 8.08321 -0.2194134
-13.247695 8.0495157 -0.21628587
-13.040561 8.0336246 -0.21370286
-12.940986 8.0822372 -0.21287909
-12.860737 8.1422338 -0.21237646
-12.799595 8.2139721 -0.21219495
-12.753145 8.2950802 -0.21226476
-12.692824 8.3671227 -0.21211118
-12.653718 8.4531784 -0.21232061
-12.581739 8.5172081 -0.21198551
-12.516048 8.5851974 -0.21176212
-12.472167 8.6681108 -0.2119157
-12.402394 8.7329617 -0.21163645
-10.336267 7.5664587 -0.17869967
-10.19246 7.5576739 -0.17701025
-10.133904 7.611064 -0.17680082
-9.9549074 7.572607 -0.17448309
-9.8821173 7.6134076 -0.17402235
-9.8218145 7.6634436 -0.17378499
-12.322763 9.7371063 -0.21913415
-12.271374 9.8194056 -0.21928774
-9.695405 7.8561521 -0.1740782
-12.078062 9.9102678 -0.21798925
-12.040869 10.004 -0.21842209
-12.003743 10.098291 -0.21886887
-11.959824 10.187317 -0.21920396
-9.1818123 7.9186811 -0.16913559
-9.0833426 7.9314642 -0.16821408
-9.0000458 7.9565835 -0.16757181
-8.925724 7.9889832 -0.16709711
-8.8498621 8.0194283 -0.16659446
-8.7695446 8.0451889 -0.16600806
-8.6951046 8.0757103 -0.16553333
-8.5980406 8.0843878 -0.16462579
-8.4794712 8.0714979 -0.1632994
-8.3909063 8.0859079 -0.16254543
-8.3261051 8.1225777 -0.16225223
-8.2739744 8.1714048 -0.16221035
-8.1784258 8.1767721 -0.16131675
-8.1013966 8.1997709 -0.1607862
-8.0209007 8.2185545 -0.16018583
-7.9252143 8.2208233 -0.15927829
-7.7656765 8.1548862 -0.15707226
-7.6497254 8.1324615 -0.15573189
-7.547276 8.1228418 -0.1546568
-7.5818038 8.2610836 -0.15640207
-7.5235853 8.2993011 -0.15624849
-7.4758549 8.3490324 -0.15631829
-7.402626 8.3700294 -0.15585755
-7.2629833 8.3143835 -0.15398662
-7.1843972 8.3269939 -0.1534002
-7.0229211 8.2415371 -0.15102664
-6.9258642 8.2293911 -0.15002136
-6.8809915 8.2786541 -0.15014702
-6.8357744 8.3276739 -0.15027267
-6.7744737 8.3570328 -0.15004928
-6.7118211 8.3843918 -0.14979796
-6.6782308 8.4481659 -0.15020287
-6.6976357 8.5804176 -0.15182248
-6.6637831 8.6459026 -0.15225531
-6.6215067 8.7009506 -0.15250662
-6.7680011 9.0076199 -0.15715604
-6.7697921 9.1260738 -0.15849639
-6.7432065 9.2077761 -0.15919451
-6.7832403 9.3826828 -0.16149826
-6.8225389 9.56005 -0.16382995
-6.7965727 9.6483278 -0.16462579
-6.7886152 9.7637377 -0.16588239
-6.7693119 9.8645687 -0.16688767
-6.7103381 9.9084024 -0.16692956
-6.6505265 9.9510527 -0.16695748
-6.5948472 10.000019 -0.16709711
-6.5377274 10.047002 -0.16720881
-6.6288295 10.325051 -0.1711601
-6.5878229 10.401009 -0.17174651
-6.6732888 10.68037 -0.17568384
-6.7361584 10.929667 -0.17910458
-6.7494717 11.10323 -0.18126872
-6.7588487 11.273932 -0.183377
-6.8396573 11.569111 -0.18749584
-6.77106 11.61518 -0.18756565
-6.8028002 11.83596 -0.19045582
-6.7916636 11.986224 -0.19220111
-6.7423682 12.07132 -0.19289921
-6.5784826 11.949537 -0.19030225
-5.8861194 10.848881 -0.17217934
-5.7779555 10.807196 -0.17095067
-5.7082734 10.836252 -0.17085293
-5.6541109 10.895036 -0.17122991
-5.5434632 10.844052 -0.16988954
-5.4651299 10.854642 -0.16952652
-5.4135261 10.918429 -0.17000124
-5.4016991 11.064658 -0.17176047
-5.2704697 10.966015 -0.16972199
-5.1710153 10.930358 -0.16867483
-5.0827489 10.916557 -0.16797672
-5.0077572 10.930266 -0.16771144
-4.9290915 10.935264 -0.1673205
-4.8602805 10.961646 -0.16726466
-4.7841368 10.971098 -0.16695748
-4.697422 10.955215 -0.16627334
-4.6141901 10.946055 -0.16570088
-4.542347 10.963076 -0.16553333
-4.4719768 10.983333 -0.16542163
-4.4022722 11.004994 -0.16533786
-4.3295445 11.01877 -0.1651424
-4.2550144 11.027404 -0.16487712
-4.1692066 11.005616 -0.16416505
-4.086267 10.989753 -0.1635507
-4.013618 11.000529 -0.16334127
-3.9379575 11.002356 -0.16300619
-3.865407 11.012158 -0.16279675
-3.7987411 11.038505 -0.16283864
-3.7223108 11.036025 -0.16246165
-3.6447992 11.029224 -0.16202883
-3.5773644 11.052332 -0.1620428
-3.5061586 11.06359 -0.16188921
-3.4343572 11.07248 -0.1617077
-3.3608367 11.075164 -0.16144241
-3.2913954 11.090784 -0.1613726
-3.21576 11.084843 -0.16099563
-3.1591368 11.14477 -0.16158204
-3.0850918 11.143707 -0.16128884
-3.0083103 11.131538 -0.16084205
-2.9534626 11.201032 -0.16158204
-2.8602784 11.124039 -0.16021375
-2.7858927 11.117131 -0.15986469
-2.7173901 11.133045 -0.15985073
-2.6492589 11.150481 -0.15986469
-2.5803406 11.164578 -0.15983677
-2.48768 11.072886 -0.15830092
-2.425873 11.116273 -0.15870583
-2.3688064 11.183772 -0.15945978
-2.30195 11.206911 -0.15958545
-2.2337279 11.223766 -0.15962733
-2.1619809 11.222532 -0.1594179
-2.0938127 11.239519 -0.15947375
-2.0251629 11.254124 -0.15950167
-1.9569259 11.271263 -0.15957148
-1.9005982 11.359982 -0.16066054
-1.838964 11.421777 -0.1613726
-1.8030881 11.654191 -0.16450013
-1.7952551 12.094291 -0.17055972
-2.5936511 18.243759 -0.25713921
-2.484623 18.28113 -0.25744638
-2.3717625 18.291071 -0.25737655
-2.2608333 18.316196 -0.25753015
-2.1516633 18.357531 -0.2579211
-2.0335789 18.321692 -0.25723693
-1.9233088 18.354708 -0.25753015
-1.8045688 18.30447 -0.25666448
-1.6901052 18.292297 -0.25634336
-1.5756872 18.277418 -0.25599432
-1.4570491 18.206005 -0.25486338
-1.3462691 18.227568 -0.25504488
-1.2321733 18.202564 -0.25458413
-1.1203384 18.207785 -0.25455621
-1.0090387 18.222303 -0.25466791
-0.89676744 18.219164 -0.25454223
-0.78470176 18.21833 -0.25445846
-0.67290145 18.222801 -0.25445846
-0.56122953 18.231585 -0.25452828
-0.44917974 18.227688 -0.25443053
-0.33738375 18.233099 -0.25447243
-0.22536533 18.223829 -0.25431883
-0.11350446 18.218868 -0.25423506
-0.0017139337 18.225222 -0.25431883
0.11016845 18.233889 -0.25444451
0.222279 18.251865 -0.25470978
0.33433947 18.254158 -0.25476563
0.44648531 18.257761 -0.2548494
0.55856556 18.256676 -0.25487733
0.67024541 18.243912 -0.25475168
0.78268957 18.251444 -0.25491923
0.89510447 18.255287 -0.25504488
1.0070448 18.248453 -0.25503093
1.1199759 18.257898 -0.2552543
1.2305014 18.228735 -0.25494716
1.3422542 18.219843 -0.25493318
1.4591973 18.276051 -0.25584072
1.5744808 18.303614 -0.25635731
1.6879536 18.306553 -0.25653884
1.8030887 18.324709 -0.25694373
1.9199662 18.356064 -0.2575441
2.0323405 18.341949 -0.25751618
2.1503091 18.375811 -0.25817239
2.2677908 18.400972 -0.25871694
2.3848915 18.419436 -0.25917768
2.5130632 18.516418 -0.26075542
2.6392813 18.589746 -0.262012
2.7553492 18.587049 -0.26220748
2.8746898 18.604382 -0.26269615
2.9918063 18.605148 -0.26296145
3.1182704 18.660408 -0.26400861
3.2342477 18.64979 -0.26413426
3.3560498 18.670927 -0.26472068
3.4853675 18.729609 -0.26585162
3.6004136 18.708851 -0.26586556
3.7295704 18.75898 -0.26689878
3.8486233 18.755331 -0.267178
3.9830904 18.82332 -0.26849046
4.1264176 18.926504 -0.27031949
4.3285375 19.28425 -0.27580664
4.449707 19.269995 -0.27598816
4.5516944 19.174227 -0.27501079
4.6142941 18.920567 -0.27177158
4.7861633 19.114988 -0.27498287
4.8983841 19.065891 -0.27470362
5.0106926 19.018072 -0.2744523
5.1502318 19.071917 -0.27568099
5.2786217 19.081396 -0.27628136
5.4612799 19.280502 -0.27964625
5.5780878 19.241829 -0.27957642
5.6841078 19.166975 -0.27899003
5.8425226 19.266657 -0.28095868
5.9561896 19.21612 -0.28074926
6.0676455 19.159193 -0.28045604
6.1955533 19.153948 -0.28093076
6.330523 19.168743 -0.28171265
6.4534512 19.145647 -0.28195
6.5854387 19.148237 -0.28257829
6.7325964 19.192387 -0.2838349
6.8512416 19.153542 -0.28387678
6.9768581 19.133686 -0.28421187
7.102488 19.113012 -0.28454697
7.2355618 19.111153 -0.28517526
7.3825517 19.143829 -0.28633413
7.5210762 19.152151 -0.28714395
7.6514421 19.138138 -0.28763261
7.7709889 19.096388 -0.28771639
7.9473143 19.191538 -0.28988051
8.0622044 19.135962 -0.28978279
5.5467849 12.943159 -0.19645956
5.5653729 12.769555 -0.19433732
5.5151954 12.445379 -0.18991131
5.5939193 12.416775 -0.18999508
5.6404433 12.31767 -0.18900377
5.6547437 12.15138 -0.18697925
5.673202 11.998039 -0.18515021
5.7042818 11.874676 -0.18378191
5.7770362 11.839452 -0.18378191
5.8517933 11.808261 -0.18385172
5.9187431 11.761415 -0.18368417
5.9971681 11.737342 -0.18387964
6.0709157 11.703874 -0.18393549
6.0429215 11.477067 -0.18094759
5.5312004 10.350658 -0.16370429
5.5564723 10.246207 -0.16258731
5.4818487 9.9622536 -0.15860809
5.5394607 9.9223185 -0.15851036
5.5509605 9.8011379 -0.15711415
5.6035233 9.7538881 -0.15690471
5.6456466 9.6890841 -0.15641603
5.6642947 9.5853949 -0.15529905
5.6649227 9.4535398 -0.15372133
5.699976 9.3810043 -0.153107
5.7469401 9.3288269 -0.15282775
5.8220816 9.3222237 -0.15330246
5.8748932 9.2795668 -0.15319078
5.9392815 9.255125 -0.15338624
6.0183115 9.2528734 -0.15395869
6.0859795 9.2324686 -0.15423794
6.1891718 9.2647924 -0.15541075
6.2660828 9.2564507 -0.1559134
6.3363357 9.2376165 -0.15624849
6.4573817 9.2913456 -0.15782622
6.5367227 9.283433 -0.15837073
6.6138854 9.2716398 -0.15885942
6.723362 9.3038216 -0.16011602
6.8198948 9.3164492 -0.16105148
6.9305329 9.346714 -0.16230807
6.9691377 9.2792282 -0.16187525
7.1082754 9.3445215 -0.1637741
7.1862268 9.3276615 -0.16424882
7.2716203 9.3196545 -0.16489108
7.3801222 9.3399773 -0.16604994
7.4722776 9.3382378 -0.16683182
7.5596514 9.3295021 -0.167502
7.6814494 9.3617859 -0.16892615
7.8007307 9.3890781 -0.17028049
7.8935976 9.3831205 -0.1710484
8.0067844 9.399971 -0.17224915
8.1048002 9.3976107 -0.17311481
8.2445202 9.4418497 -0.17486008
8.3870716 9.4869719 -0.17664723
8.4671316 9.4599171 -0.17710799
8.576046 9.464097 -0.17816912
8.6738377 9.4547691 -0.17899288
8.7983742 9.4731674 -0.18036118
9.0275745 9.6011152 -0.18385172
9.1028614 9.5629234 -0.18418682
9.2300577 9.5781689 -0.18556906
9.3256617 9.5592871 -0.18630907
9.443162 9.5616455 -0.18748188
9.5603323 9.562212 -0.18864074
10.837291 10.707172 -0.21255796
10.927115 10.664219 -0.21303268
10.928995 10.535902 -0.211804
10.884094 10.364525 -0.20969571
10.822939 10.180398 -0.20730819
10.765067 10.002181 -0.20501839
10.829184 9.9386435 -0.20507424
10.841808 9.8283596 -0.2041667
10.831141 9.6982851 -0.20284028
10.891194 9.6323061 -0.20285425
10.910933 9.5310926 -0.20212822
10.97148 9.4659233 -0.2021701
11.193156 9.4200668 -0.20411085
11.295347 9.388279 -0.20492065
11.433891 9.3854065 -0.20638669
11.569717 9.3786669 -0.20779686
11.735551 9.3943558 -0.2097376
11.982804 9.4722252 -0.21311645
12.148685 9.4828091 -0.21502927
12.510809 9.5207224 -0.21935755
12.636942 9.4948311 -0.22054432
12.781695 9.4814501 -0.22205225
13.019531 9.534586 -0.22516581
13.058341 9.4404612 -0.22483072
13.429376 9.5837755 -0.23020616
13.492016 9.5040731 -0.23027597
13.847271 9.6277361 -0.23533028
13.990179 9.6002951 -0.23675442
14.108433 9.5546408 -0.23775969
14.348026 9.5890102 -0.24080345
14.631137 9.6488695 -0.24455929
25.114002 16.123167 -0.4165594
25.221752 15.974654 -0.41671297
25.190401 15.739062 -0.41459072
25.170732 15.512854 -0.41269186
25.236393 15.340458 -0.41221714
25.18511 15.098434 -0.40985754
25.25404 14.929879 -0.40948057
25.258785 14.724287 -0.40808433
25.294041 14.537633 -0.40720472
25.352318 14.364907 -0.40671605
25.345701 14.15642 -0.40520814
25.371647 13.967362 -0.40424475
25.318886 13.736561 -0.40205267
25.355078 13.555491 -0.40129873
25.38381 13.371234 -0.40044704
25.394375 13.178385 -0.39933005
25.426682 12.997744 -0.39857611
25.460407 12.818552 -0.39786401
25.519768 12.652761 -0.39757082
25.578951 12.487164 -0.39729157
25.655991 12.330413 -0.39730555
25.980635 12.290772 -0.40115911
26.268579 12.230305 -0.40444022
22.948755 10.513819 -0.35230544
22.982752 10.359251 -0.35184467
23.005663 10.200205 -0.35123035
23.047653 10.05006 -0.35092318
23.005959 9.8643217 -0.34935942
23.036568 9.7105465 -0.34891263
23.060612 9.5544701 -0.34838206
23.079908 9.3969574 -0.34779564
23.074001 9.2299128 -0.34684622
23.125547 9.0863314 -0.3467764
23.125826 8.923028 -0.34595263
23.136192 8.7643147 -0.34529641
23.289816 8.6594744 -0.34679037
23.288031 8.4965315 -0.34598055
23.319016 8.3460655 -0.34567338
23.346199 8.1945467 -0.34532434
23.348766 8.0348759 -0.34462622
23.362572 7.8796358 -0.34410962
23.383896 7.7273526 -0.34371868
23.391867 7.5711021 -0.34314623
23.412146 7.4192743 -0.34276927
23.427624 7.2662988 -0.34233645
23.437321 7.1119604 -0.3418338
23.451761 6.9594846 -0.34141493
23.452728 6.8034773 -0.34081456
23.466133 6.6515388 -0.34040964
23.474705 6.4986243 -0.33994889
23.488075 6.3474216 -0.33957192
23.498541 6.1957893 -0.33916703
23.524494 6.0485001 -0.33899948
23.515577 5.8926201 -0.33834326
23.526037 5.7420564 -0.33798024
23.532614 5.5908928 -0.33757532
23.548939 5.4423413 -0.33732402
23.564329 5.2938008 -0.3370727
23.581715 5.1459155 -0.33686325
23.603064 4.9990525 -0.33672363
23.617622 4.850914 -0.33650023
23.402754 4.6573148 -0.33302367
23.402414 4.5081453 -0.33261874
23.429636 4.3644662 -0.33261874
23.429405 4.2158418 -0.33224177
23.423306 4.0665293 -0.33179498
23.433023 3.9202554 -0.33158556
23.452688 3.7757638 -0.33152971
23.460592 3.6294968 -0.33132029
23.488356 3.4863575 -0.33140403
24.446787 3.4754372 -0.34462622
24.803534 3.3710151 -0.34935942
28.704882 3.7219701 -0.40400738
31.243835 3.8563793 -0.43941548
31.271875 3.66518 -0.43948528
31.304708 3.4744437 -0.43963888
3.8863223 0.40740719 -0.054394379
3.9305422 0.38767326 -0.054980792
3.9189076 0.36226088 -0.054785322
3.9150796 0.33769286 -0.054701548
3.9170775 0.31366405 -0.054701548
3.920923 0.28977066 -0.054729473
3.9256198 0.26590946 -0.05477136
3.9301715 0.24200146 -0.054813247
3.9415662 0.21843454 -0.054952867
3.9508221 0.19463859 -0.055064566
3.9459481 0.17013505 -0.054980792
3.9359262 0.14551423 -0.054827206
3.9287496 0.12111507 -0.05471551
3.921422 0.096809477 -0.054603811
3.9129446 0.072579876 -0.054478154
3.9023182 0.048433263 -0.054324567
45.905632 0.28565568 -0.64084786
31.837238 -0.058473196 -1.0613096
30.879843 -0.24621582 -1.0294131
30.884745 -0.43578488 -1.0296464
30.785561 -0.62334156 -1.0264467
30.083199 -1.7184455 -1.0044492
41.914333 -4.4656682 -1.4052712
42.997486 -4.8480549 -1.442567
42.958557 -5.378314 -1.4433669
3.5778348 -0.74196333 -0.12144769
3.603514 -0.77037448 -0.12248091
3.5801733 -0.78839022 -0.12184764
3.5733192 -0.80990142 -0.12178098
3.579963 -0.83453238 -0.12218094
3.4989607 -0.83833259 -0.11958123
3.3947568 -0.8354432 -0.1161816
3.3992569 -0.85870343 -0.11651491
3.3929565 -0.87929416 -0.11648157
3.3836336 -0.8990705 -0.11634826
3.3983052 -0.92532557 -0.11704817
3.4031541 -0.94911116 -0.1174148
3.4212935 -0.97683012 -0.11824805
13.245143 -3.86779 -0.45974329
13.167533 -3.9329722 -0.45787683
13.100138 -4.0005593 -0.456377
13.055309 -4.0746126 -0.45567706
13.0034 -4.1461415 -0.45474383
12.970112 -4.2233758 -0.45447722
12.944902 -4.3031945 -0.45451054
12.907843 -4.3790102 -0.45414391
12.906232 -4.4669538 -0.45504382
12.87858 -4.546061 -0.45504382
12.868311 -4.6314268 -0.45567706
12.875307 -4.7233763 -0.4569436
12.868551 -4.8106875 -0.4577435
12.861208 -4.8980927 -0.45854342
12.859797 -4.9881186 -0.45957664
12.854048 -5.0768423 -0.46047655
12.925588 -5.1969981 -0.46417612
12.954506 -5.3011899 -0.46637589
12.931884 -5.3848033 -0.46674252
13.035725 -5.5221305 -0.47170863
21.391079 -9.216342 -0.77634132
17.628412 -7.7239084 -0.64142305
17.383488 -7.7440872 -0.63422382
17.313793 -7.8407102 -0.63342392
17.140974 -7.8895531 -0.62885773
16.782619 -7.8497729 -0.617459
16.604149 -7.8908315 -0.61265957
16.525717 -7.9782262 -0.61155969
16.286209 -7.9861951 -0.6044938
16.09107 -8.0133581 -0.59906107
15.870351 -8.0253515 -0.5926618
15.702557 -8.0618725 -0.58822894
15.56239 -8.1109562 -0.58482933
15.421333 -8.1581583 -0.5813964
15.305822 -8.2176456 -0.57893002
15.16647 -8.2631149 -0.57556373
15.035009 -8.3115368 -0.57249737
14.771899 -8.2848387 -0.56439829
14.685169 -8.3550596 -0.56303179
14.479539 -8.3560944 -0.5570991
14.28567 -8.3614845 -0.55159968
14.204874 -8.4316397 -0.55046648
14.065527 -8.4660721 -0.54706687
13.986014 -8.5355568 -0.5460003
13.920629 -8.6133251 -0.5455004
13.85905 -8.6932678 -0.54516709
13.822316 -8.788866 -0.54583371
13.803413 -8.8962517 -0.54723352
13.758608 -8.987339 -0.54763347
13.806544 -9.1399984 -0.55176634
13.829053 -9.2774343 -0.55493265
13.871056 -9.4295349 -0.55893224
13.889484 -9.5671921 -0.56203187
13.915758 -9.7117195 -0.56549817
13.990561 -9.8921223 -0.57099754
15.348275 -10.993897 -0.62919104
15.270013 -11.080235 -0.62875777
15.04631 -11.059485 -0.62232512
14.870743 -11.071626 -0.61785901
3.2339005 -2.4393365 -0.13467954
3.2149007 -2.4561002 -0.1345129
3.1839588 -2.4635508 -0.1338463
3.1892393 -2.4990649 -0.13471287
3.1307807 -2.4844241 -0.13287975
3.0921025 -2.4848099 -0.13187985
3.0659435 -2.4949059 -0.13141324
3.0359204 -2.5015979 -0.13077998
3.0036283 -2.5060954 -0.13004673
2.9859037 -2.5225434 -0.12994674
2.96961 -2.5401676 -0.1299134
2.9433897 -2.5491824 -0.12944679
2.9066484 -2.548748 -0.12851356
2.8782473 -2.5552571 -0.12794696
2.8409548 -2.553498 -0.12698041
2.8104467 -2.5574312 -0.12631381
2.7733817 -2.5549932 -0.12534726
2.7525353 -2.5671914 -0.12511395
2.7352779 -2.5826602 -0.12504728
2.7114308 -2.5917997 -0.12468066
2.68542 -2.5986595 -0.12421405
2.6622839 -2.6080952 -0.12388075
2.6448114 -2.6229742 -0.12381409
2.6046824 -2.6150811 -0.12268088
2.5682566 -2.610357 -0.12171432
2.5521915 -2.6260662 -0.12171432
2.5367224 -2.6423976 -0.12174765
2.503953 -2.6405106 -0.12094774
2.4617357 -2.6281116 -0.11968122
2.4326646 -2.6292307 -0.11904795
2.4158118 -2.6433704 -0.11901463
2.3995469 -2.6581435 -0.11901463
2.3811958 -2.6705792 -0.11891463
2.3621218 -2.6821401 -0.11878132
2.3384032 -2.6882896 -0.11841469
2.3101385 -2.6889439 -0.11781476
2.2767799 -2.6832571 -0.11694819
2.2461469 -2.6803265 -0.11621494
2.2175484 -2.6794314 -0.11558168
2.1941071 -2.6844766 -0.11521505
2.1738267 -2.6932232 -0.11501507
2.1597531 -2.7096367 -0.11514839
2.1443229 -2.7244081 -0.11521505
2.1128428 -2.7185776 -0.11441514
2.0863845 -2.718806 -0.11388186
2.0636256 -2.7235918 -0.11354857
2.0456774 -2.7346025 -0.11348191
2.0330172 -2.7527299 -0.11371522
2.024334 -2.7764568 -0.11418183
1.9868197 -2.7604384 -0.11301529
1.9611596 -2.7603579 -0.11251535
1.9378712 -2.7633393 -0.11214872
1.9151896 -2.7669611 -0.11181543
1.8947923 -2.7737095 -0.11161545
1.87159 -2.7761688 -0.11124882
1.8484294 -2.7784483 -0.1108822
1.82586 -2.7813838 -0.11054891
1.8120203 -2.7975671 -0.11074888
1.7991275 -2.8153694 -0.11101551
1.7850177 -2.8314278 -0.11121549
1.748076 -2.8109283 -0.1099823
1.7260908 -2.813935 -0.10968233
1.7067221 -2.8210533 -0.10954902
1.6888683 -2.8306141 -0.10951568
1.6643704 -2.8288651 -0.10904907
1.6394562 -2.8260581 -0.10854913
1.6196029 -2.8317273 -0.10838248
1.6051437 -2.8468344 -0.10858245
1.5871599 -2.8557565 -0.10854913
1.5619222 -2.851418 -0.10801585
1.5481963 -2.8679831 -0.10828249
1.5305696 -2.8774288 -0.10828249
1.5114927 -2.8841107 -0.1081825
1.4969785 -2.8995464 -0.1084158
1.4782526 -2.9068956 -0.10834914
1.4518813 -2.8989339 -0.10771588
1.433182 -2.9059954 -0.10764923
1.4096465 -2.903048 -0.10721594
1.3896511 -2.9071345 -0.10704929
1.3671048 -2.9056597 -0.10668267
1.3479898 -2.9112728 -0.10658268
1.3321739 -2.9240363 -0.10674933
1.3109356 -2.9248598 -0.10648269
1.2848973 -2.9145598 -0.1058161
1.2626146 -2.912303 -0.10544947
1.2435449 -2.9172375 -0.10534948
1.226781 -2.9275777 -0.10544947
1.2145066 -2.948911 -0.10594942
1.1922632 -2.9461174 -0.10558279
1.1704695 -2.9440911 -0.10524949
1.1545652 -2.9568028 -0.10544947
1.1410549 -2.9759622 -0.10588276
1.117137 -2.9679425 -0.10534948
1.0902419 -2.9513052 -0.10451625
1.074157 -2.9635766 -0.10471622
1.0582976 -2.9767029 -0.10494953
1.0416591 -2.987859 -0.10511617
1.0275106 -3.0064881 -0.10554946
1.0099967 -3.015579 -0.10564945
0.98898011 -3.0141227 -0.10538282
0.96710175 -3.0096681 -0.10501619
0.94531542 -3.005059 -0.10464956
0.92597616 -3.0079374 -0.10454957
0.90750235 -3.0135624 -0.10454957
0.89012438 -3.0229089 -0.10468289
0.87543213 -3.0417593 -0.10514951
0.85593963 -3.0441873 -0.10504951
0.8348614 -3.0407085 -0.10474955
0.81359929 -3.0361204 -0.10441625
0.79217207 -3.0304196 -0.10404963
0.77430391 -3.0381286 -0.10414962
0.75781751 -3.0515518 -0.10444959
0.7388441 -3.0551727 -0.10441625
0.71916735 -3.0557575 -0.10428294
0.70018083 -3.0591385 -0.1042496
0.6827004 -3.0692303 -0.10444959
0.6636439 -3.0723846 -0.10441625
0.64375353 -3.0715082 -0.1042496
0.62369967 -3.069524 -0.10404963
0.60524011 -3.0752544 -0.10411628
0.58710802 -3.0828371 -0.1042496
0.56944907 -3.0932617 -0.10448291
0.55168432 -3.1035855 -0.10471622
0.53127807 -3.0990319 -0.10444959
0.51192671 -3.1002612 -0.10438292
0.49320817 -3.1053183 -0.10444959
0.47354132 -3.1043341 -0.10431626
0.45520887 -3.1121259 -0.10448291
0.43652096 -3.1178293 -0.1045829
0.41804567 -3.1254022 -0.10474955
0.39810091 -3.1219602 -0.10454957
0.37929907 -3.1273203 -0.10464956
0.36010307 -3.1295888 -0.10464956
0.34132689 -3.1357138 -0.10478288
0.32238689 -3.1407318 -0.10488287
0.3042635 -3.1545882 -0.10528282
0.28517175 -3.1593821 -0.10538282
0.26620048 -3.1660519 -0.10554946
0.24661328 -3.1656327 -0.1054828
0.22797352 -3.1780519 -0.10584943
0.20807549 -3.1734073 -0.10564945
0.18972994 -3.1935802 -0.10628271
0.16986418 -3.1896939 -0.10611606
0.15052551 -3.195668 -0.10628271
0.13136655 -3.2075162 -0.10664934
0.1117181 -3.2092602 -0.10668267
0.091908962 -3.2058892 -0.10654934
0.07223627 -3.206393 -0.10654934
0.052743249 -3.2177684 -0.10691597
0.033102896 -3.2280252 -0.10724927
0.013273895 -3.2231703 -0.10708262
-0.0064960951 -3.2191935 -0.10694931
-0.026240626 -3.2180936 -0.10691597
-0.0459719 -3.2168725 -0.10688265
-0.065729603 -3.2175291 -0.10691597
-0.085576124 -3.2210619 -0.10704929
-0.10592307 -3.2384565 -0.10764923
-0.12694989 -3.2677066 -0.10864911
-0.14780289 -3.2848382 -0.10924905
-0.16810805 -3.2868638 -0.10934903
-0.18770292 -3.2757921 -0.10901574
-0.20798856 -3.2775714 -0.10911573
-0.22920294 -3.2921863 -0.109649
-0.25037843 -3.3036735 -0.11008229
-0.27194783 -3.3180127 -0.11061556
-0.29308969 -3.325242 -0.11091553
-0.31386212 -3.3273616 -0.11104885
-0.33437231 -3.3263676 -0.11108217
-0.35467035 -3.3232591 -0.11104885
-0.37483087 -3.3190343 -0.11098219
-0.39507097 -3.3156796 -0.11094886
-0.41789103 -3.3330269 -0.11161545
-0.44041786 -3.3462548 -0.11214872
-0.46257749 -3.3553708 -0.11254868
-0.4825874 -3.3485124 -0.11241536
-0.50386667 -3.35043 -0.11258201
-0.52518755 -3.3522124 -0.11274866
-0.54622817 -3.3518863 -0.11284865
-0.56761771 -3.353399 -0.11301529
-0.58956432 -3.3577282 -0.11328193
-0.61301494 -3.3697808 -0.1138152
-0.63367999 -3.3659561 -0.1138152
-0.6554656 -3.3678908 -0.11401518
-0.68202114 -3.3932023 -0.11501507
-0.70566738 -3.4026549 -0.11548168
-0.72799379 -3.4051027 -0.11571499
-0.74951774 -3.4034998 -0.11581498
-0.77149087 -3.4037108 -0.11598163
-0.79530853 -3.4115667 -0.11641491
-0.82111317 -3.4270341 -0.11711483
-0.84379613 -3.4287252 -0.11734814
-0.86799848 -3.4360809 -0.11778143
-0.89081937 -3.437463 -0.11801474
-0.91292036 -3.4357963 -0.11814805
-0.93949527 -3.450382 -0.11884797
-0.97218615 -3.4859509 -0.12028115
-0.98944402 -3.4655037 -0.1197812
-1.0129303 -3.4670424 -0.12004784
-1.0364724 -3.4684231 -0.12031448
-1.0609453 -3.472513 -0.12068111
-1.0858048 -3.4773865 -0.12108106
-1.110764 -3.4820855 -0.12148102
-1.144485 -3.5132184 -0.1228142
-1.1751618 -3.5336342 -0.12378076
-1.1977848 -3.5291963 -0.12388075
-1.2259539 -3.5406704 -0.12454734
-1.2483213 -3.5349662 -0.124614
-1.2730336 -3.5357037 -0.12491397
-1.3036528 -3.5522223 -0.12578054
-1.3369719 -3.5750504 -0.12688041
-1.3620838 -3.5751858 -0.12718038
-1.3861635 -3.5723517 -0.12738036
-1.4102595 -3.5693567 -0.12758033
-1.4384717 -3.5764008 -0.12814695
-1.46758 -3.5850823 -0.1287802
-1.4983854 -3.5972311 -0.12954678
-1.5274458 -3.6045349 -0.13014671
-1.5483478 -3.5923412 -0.13004673
-1.5751735 -3.5937583 -0.13044669
-1.6073617 -3.6068499 -0.13127993
-1.6385325 -3.6169491 -0.13201317
-1.6636199 -3.6131825 -0.13224648
-1.6929566 -3.6182973 -0.13281308
-1.7305686 -3.6403389 -0.13401295
-1.7719903 -3.6692545 -0.13547945
-1.799311 -3.6681838 -0.13584608
-1.8280218 -3.6695998 -0.13631269
-1.8617781 -3.6806118 -0.13714594
-1.8929994 -3.6860123 -0.13777919
-1.9201998 -3.6831908 -0.1381125
-1.949773 -3.6845911 -0.13861243
-1.9761264 -3.6796029 -0.13887908
-2.0235295 -3.7130466 -0.14061221
-2.0593288 -3.7241776 -0.14151211
-2.093385 -3.7315214 -0.1422787
-2.1266203 -3.7368491 -0.14297862
-2.1530058 -3.7297895 -0.14321193
-2.1864519 -3.7346232 -0.14391185
-2.2251396 -3.7477803 -0.14494507
-2.2511859 -3.7391944 -0.14514504
-2.2907465 -3.7526114 -0.14621159
-2.3494864 -3.7962801 -0.148478
-2.3870738 -3.8046529 -0.1493779
-2.4151998 -3.7975254 -0.14967787
-2.4449522 -3.7927158 -0.15007782
-2.4758296 -3.7893572 -0.15054443
-2.5415125 -3.8382659 -0.15311082
-2.5828323 -3.8491595 -0.15417737
-2.6165152 -3.8481171 -0.1547773
-2.6451797 -3.8393979 -0.15507726
-2.6664002 -3.8198166 -0.15494396
-2.7186365 -3.8441882 -0.15661043
-2.777673 -3.8769989 -0.15864354
-2.7902575 -3.8445127 -0.15801027
-2.8120189 -3.8249035 -0.15791029
-2.873632 -3.8588848 -0.16004339
-2.9068832 -3.8539479 -0.16057666
-2.9474609 -3.8582792 -0.16150989
-3.0016537 -3.8796489 -0.16317637
-3.0389612 -3.8784676 -0.16390961
-3.0794723 -3.8808887 -0.16480951
-3.1501718 -3.9203582 -0.16730924
-3.1893039 -3.9195626 -0.16810915
-3.2228258 -3.9114912 -0.1686091
-3.2902968 -3.9438336 -0.1708755
-3.3440971 -3.9586947 -0.17240867
-3.3982031 -3.973043 -0.17394184
-3.4702725 -4.0072761 -0.1763749
-3.5224652 -4.0174732 -0.17777474
-3.5682788 -4.0197048 -0.17884128
-3.6075716 -4.0140901 -0.17957453
-3.6496196 -4.0111012 -0.18044111
-3.7046299 -4.0217152 -0.18194094
-3.820565 -4.0968637 -0.1864071
-3.8634675 -4.0922413 -0.18727368
-3.9285514 -4.1103687 -0.18920679
-3.9856634 -4.1192298 -0.19073996
-4.0577154 -4.142539 -0.19297305
-4.1273875 -4.1622787 -0.19507281
-4.184001 -4.1679134 -0.19653931
-4.2322903 -4.164597 -0.19760586
-4.3079257 -4.1873178 -0.19993894
-4.3948107 -4.2196498 -0.20277195
-4.4706507 -4.2400651 -0.20507169
-4.5439882 -4.2569737 -0.20723812
-4.6169653 -4.2724614 -0.20937121
-4.697679 -4.2939558 -0.2118376
-4.7706685 -4.3072505 -0.21393737
-4.8566756 -4.3311191 -0.21660374
-4.9191556 -4.3329506 -0.21820356
-5.0187836 -4.3663244 -0.22143653
-5.1076341 -4.3888655 -0.22416957
-5.1809468 -4.3968959 -0.22620267
-5.4031348 -4.5287547 -0.23470172
-5.5378284 -4.5841112 -0.23933454
-5.6269765 -4.6000242 -0.24196757
-5.7141933 -4.6131291 -0.24450062
-5.8181911 -4.6384211 -0.24773361
-5.9219255 -4.6619897 -0.25093323
-6.033267 -4.6899791 -0.25443286
-6.1285233 -4.7039938 -0.25723255
-6.2831173 -4.7616906 -0.26249862
-6.3818321 -4.775147 -0.26539829
-6.4278922 -4.7483706 -0.26609823
-8.6007404 -6.2725449 -0.35458836
-11.725183 -8.4417744 -0.48140752
-11.689594 -8.3077173 -0.47784126
-9.4789152 -6.6492896 -0.3857182
-9.5318613 -6.5995378 -0.38621816
-9.5630989 -6.5347242 -0.38585153
-9.5831289 -6.4625101 -0.38505161
-9.0643196 -6.032021 -0.36268744
-9.0568848 -5.9472122 -0.36092097
-9.0579786 -5.868701 -0.35952112
-9.0643454 -5.7941699 -0.3583546
-8.9653158 -5.6536694 -0.35305518
-8.9743786 -5.5827136 -0.35205531
-9.0042057 -5.524929 -0.35188866
-9.0208359 -5.4592261 -0.35122207
-8.9889421 -5.364841 -0.34868902
-9.0070477 -5.3009663 -0.34812242
-9.0126085 -5.2300477 -0.34708917
-9.0332527 -5.1681957 -0.34665591
-9.0795918 -5.1210198 -0.34722251
-9.1492767 -5.0865827 -0.34868902
-9.1829453 -5.0317888 -0.34878901
-9.1899023 -4.9625249 -0.3478891
-9.2069454 -4.8990006 -0.34738916
-9.3634081 -4.9087834 -0.3521553
-9.4048948 -4.8572006 -0.35258856
-12.409721 -6.3131356 -0.46390948
-12.266836 -6.1459808 -0.45714357
-12.309693 -6.0732508 -0.45734355
-12.373695 -6.0107079 -0.45834345
-12.441 -5.9493327 -0.45947665
-12.512535 -5.8894858 -0.46077651
-12.540276 -5.8088179 -0.46047655
-12.538396 -5.7147665 -0.45911002
-12.519421 -5.6135964 -0.45714357
-12.547228 -5.5338497 -0.45691028
-12.617622 -5.4726663 -0.45824346
-12.712559 -5.4214139 -0.46047655
-12.740975 -5.3413768 -0.46030989
-12.727307 -5.2440596 -0.45864341
-12.708294 -5.145236 -0.45681027
-12.690406 -5.0475831 -0.45504382
-12.537749 -4.8979683 -0.44847786
-12.436929 -4.7708259 -0.44381174
-12.54921 -4.7257767 -0.44677806
-12.752337 -4.71314 -0.45297736
-12.808263 -4.6446867 -0.45394394
-12.890193 -4.585104 -0.45584372
-12.954888 -4.518764 -0.45714357
-13.123276 -4.4873781 -0.46210968
-13.217845 -4.4293203 -0.46447608
-13.267563 -4.3556166 -0.465276
-13.468157 -4.3301153 -0.47137532
-13.535465 -4.2602997 -0.47280851
-13.523146 -4.1653972 -0.4714753
-13.536965 -4.0788817 -0.47107536
-13.547359 -3.9915059 -0.47057542
-13.541822 -3.8997304 -0.46954221
-13.565495 -3.8165662 -0.46954221
-13.60986 -3.739084 -0.47027543
-13.633512 -3.6557639 -0.47030878
-13.646017 -3.5695119 -0.46997547
-13.654105 -3.4822557 -0.46950886
-13.654846 -3.3933475 -0.46880895
-13.674438 -3.3092637 -0.4687756
-13.735345 -3.2349217 -0.47017545
-13.794878 -3.1597328 -0.47154197
-13.902781 -3.0947955 -0.47457495
-13.984029 -3.0229495 -0.47670805
-14.031659 -2.9432447 -0.47770795
-14.050433 -2.8572919 -0.47774127
-14.063779 -2.7702534 -0.47760797
-14.056949 -2.6794152 -0.47680804
-14.068211 -2.5922072 -0.47664139
-14.061219 -2.5018098 -0.47587481
-14.049709 -2.4109194 -0.47497493
-14.010005 -2.3157001 -0.47314179
-13.998288 -2.2256112 -0.47227523
-13.990932 -2.1365082 -0.47157529
-14.021579 -2.0532286 -0.47217524
-14.060636 -1.9709022 -0.47307512
-14.11407 -1.8901645 -0.47447497
-14.160101 -1.8079585 -0.47564152
-14.248315 -1.7304419 -0.47824124
-14.108741 -1.6257013 -0.47320846
-14.077715 -1.5346584 -0.47184193
-14.055053 -1.444978 -0.4707754
-14.036794 -1.3561144 -0.46987548
-14.009018 -1.2667189 -0.46867561
-13.990632 -1.178555 -0.46780905
-13.995607 -1.0925322 -0.46774238
-13.974135 -1.0046282 -0.46680915
-13.95311 -0.91709453 -0.46590927
-13.995388 -0.83366317 -0.46714246
-13.948342 -0.74499911 -0.46540931
-13.900739 -0.6569438 -0.46367618
-13.914495 -0.57204914 -0.46400946
-13.917741 -0.48666063 -0.46400946
-13.907478 -0.40087882 -0.4635762
-13.896688 -0.31524134 -0.4631429
-13.886369 -0.22976796 -0.46274295
-13.853538 -0.14420319 -0.46160975
-13.845166 -0.059157908 -0.46130979
-13.821282 0.025751982 -0.46050987
-13.790882 0.11031887 -0.45950997
-13.733981 0.19414757 -0.45764351
-13.680571 0.27736303 -0.45591038
-13.646642 0.3604573 -0.45484382
-13.617202 0.44330797 -0.45394394
-13.589258 0.5258882 -0.45311069
-13.559816 0.60809749 -0.45224413
-13.575792 0.69230461 -0.45291072
-13.504435 0.77177358 -0.45067763
-13.489471 0.85398966 -0.45034432
-13.431134 0.93307495 -0.44857785
-13.380308 1.0120792 -0.44707802
-13.330016 1.0905765 -0.44561154
-13.290219 1.169458 -0.44451165
-13.236028 1.246581 -0.44294515
-13.173434 1.3222851 -0.44111204
-13.112399 1.3974797 -0.43934557
-13.066832 1.4737669 -0.43811238
-13.029755 1.5506101 -0.43717915
-12.937683 1.620226 -0.43441278
-12.880924 1.6934589 -0.43284628
-12.834647 1.7675561 -0.43164641
-12.764205 1.837732 -0.42964664
-12.739841 1.9140874 -0.42921335
-12.728843 1.9923761 -0.42924669
-12.728216 2.0723681 -0.42964664
-12.731029 2.1530938 -0.43017992
-12.716594 2.2309966 -0.43014657
-12.702663 2.3089821 -0.43014657
-12.681382 2.3855877 -0.42991328
-12.671411 2.464308 -0.43007994
-12.627635 2.5363059 -0.42911336
-12.579539 2.6070483 -0.4280135
-12.532029 2.6775053 -0.42694694
-12.489009 2.7485511 -0.42604706
-12.458263 2.8220401 -0.42558044
-12.429032 2.8957088 -0.42518046
-12.404226 2.9702883 -0.42494717
-12.376062 3.0439568 -0.42461386
-12.364904 3.1217947 -0.4248805
-12.350354 3.1988583 -0.42504716
-12.305379 3.26791 -0.4241806
-12.308241 3.3496504 -0.42498049
-12.256648 3.416523 -0.42391396
-12.153761 3.4683559 -0.42108092
-12.115941 3.5381029 -0.42051432
-12.045163 3.5977926 -0.41881451
-11.985581 3.6602504 -0.41751465
-11.938091 3.7259829 -0.41664809
-11.851206 3.7788241 -0.414415
-11.807838 3.8449731 -0.41371509
-11.76221 3.9101019 -0.41294852
-11.722853 3.9770632 -0.41241524
-11.686895 4.0449963 -0.41201529
-11.643949 4.1103096 -0.41138202
-11.617569 4.1813397 -0.41134867
-11.600139 4.2556424 -0.41164866
-11.571937 4.3260398 -0.41158199
-11.523692 4.388782 -0.41081542
-11.470455 4.4492888 -0.40988219
-11.41691 4.5093074 -0.40894896
-11.368626 4.571074 -0.4082157
-11.332964 4.6377168 -0.40794906
-11.304295 4.7071676 -0.40794906
-11.266916 4.7729321 -0.4076491
-11.21906 4.8340664 -0.40698251
-11.173625 4.8959956 -0.40641591
-11.144287 4.9648705 -0.40644923
-11.10815 5.0306835 -0.40624925
-11.054376 5.0883007 -0.40541601
-10.994881 5.1429076 -0.4043828
-10.958604 5.2081294 -0.40421614
-10.91114 5.2678857 -0.40364954
-10.890278 5.340456 -0.40408283
-10.823308 5.3902478 -0.4028163
-10.76684 5.4448318 -0.40194973
-10.703887 5.4957309 -0.40084985
-10.612354 5.5312819 -0.39868343
-10.572914 5.5934901 -0.39848346
-10.533992 5.6558952 -0.3983168
-10.478904 5.7094269 -0.39755023
-10.428804 5.7653971 -0.39698362
-10.386258 5.8253675 -0.39671698
-10.324258 5.8741612 -0.39571708
-10.263782 5.9234123 -0.39478385
-10.227243 5.9862781 -0.39478385
-10.173989 6.039227 -0.39415061
-10.111909 6.0865936 -0.39318404
-10.043658 6.1297822 -0.39198416
-10.003308 6.1897159 -0.39188418
-9.9651403 6.2509785 -0.39188418
-9.8979216 6.2937737 -0.39075097
-9.8213129 6.3300247 -0.38925114
-9.7789402 6.3879824 -0.38911784
-9.732893 6.4434509 -0.3888512
-9.6931744 6.5030499 -0.3888512
-9.6696205 6.5736403 -0.38951778
-9.6299267 6.6334157 -0.3895511
-9.5956001 6.6969543 -0.38981774
-9.5551443 6.7562828 -0.38985109
-9.5078211 6.8107114 -0.38961777
-9.4124622 6.8301835 -0.38741803
-9.3502426 6.8730111 -0.38658479
-9.2654057 6.898622 -0.38481832
-9.2229013 6.9553437 -0.38481832
-9.1609879 6.9972444 -0.38401839
-9.0996981 7.0392599 -0.38325182
-9.0020466 7.0524354 -0.38095206
-8.9860086 7.1292777 -0.38211861
-8.8961248 7.1473513 -0.38015217
-8.8497753 7.1999102 -0.38005218
-8.7830601 7.2356482 -0.37908563
-8.7147045 7.2695589 -0.37805238
-8.6500816 7.3061275 -0.37718582
-8.5860996 7.3428283 -0.37635258
-8.5106602 7.3692055 -0.3750194
-8.3953857 7.3600183 -0.37191975
-8.3291378 7.3928175 -0.37098652
-8.2992315 7.4578123 -0.37168643
-8.2355709 7.4924545 -0.37088653
-8.134305 7.4920669 -0.36838681
-8.0786781 7.5329771 -0.36795354
-7.9901495 7.5426154 -0.36602041
-7.9256535 7.5742383 -0.36518717
-7.8610711 7.6053543 -0.36435392
-7.7599888 7.6002998 -0.36182088
-7.6848178 7.6196251 -0.3604877
-7.6308656 7.659555 -0.36015439
-7.565496 7.6877127 -0.35928783
-7.457571 7.6716447 -0.35638815
-7.3882055 7.6941919 -0.35532159
-7.3229713 7.7205272 -0.35445502
-7.2522264 7.740519 -0.35332182
-7.1088715 7.6814508 -0.34862235
-7.0427227 7.7042723 -0.34768912
-6.995317 7.7473402 -0.34768912
-6.9283557 7.768487 -0.34672257
-6.8653631 7.7936039 -0.34595597
-6.8023233 7.8182416 -0.34518939
-6.7359834 7.8386092 -0.34425616
-6.6799989 7.8706493 -0.34385622
-6.6232324 7.9015322 -0.34342292
-6.533833 7.8927536 -0.34128982
-6.4935055 7.9427543 -0.34172311
-6.4647388 8.0073309 -0.34278965
-6.4192243 8.0515366 -0.34298965
-6.3622804 8.0813494 -0.34258968
-6.311348 8.1186571 -0.34252304
-6.2711511 8.1699142 -0.34305629
-6.2160735 8.2018681 -0.34278965
-6.2374907 8.3358765 -0.34678921
-6.2206721 8.4206142 -0.34872234
-6.1777215 8.4707375 -0.34922227
-6.1402297 8.5287609 -0.35005552
-6.0860457 8.5638323 -0.34995553
-6.0224781 8.5854683 -0.34932226
-5.9907374 8.6526623 -0.35055548
-5.9578342 8.7189636 -0.35175532
-5.9064584 8.7586708 -0.35188866
-5.8498368 8.7905874 -0.351722
-5.7924967 8.8213034 -0.35152203
-5.7290215 8.8424206 -0.35095543
-5.6789646 8.8841429 -0.35122207
