# .PCD v0.7 - Point Cloud Data file format
VERSION 0.7
FIELDS x y z
SIZE 4 4 4
TYPE F F F
COUNT 1 1 1
WIDTH 1521
HEIGHT 1
VIEWPOINT 0 0 0 1 0 0 0
POINTS 1521
DATA ascii
0.98840338 -0.19665343 0.11132617
0.9920463 -0.20371071 0.11188178
0.97910899 -0.20733131 0.11054831
1.0059806 -0.21945937 0.11377085
1.0046151 -0.22562782 0.11377085
1.0090225 -0.23312627 0.11443758
1.0075729 -0.23931313 0.11443758
1.0002918 -0.24408127 0.11377085
1.0142021 -0.25406829 0.1155488
1.0020347 -0.25757194 0.11432646
0.98313469 -0.2591671 0.11232626
24.889935 -6.8718729 2.8858211
24.719152 -6.9882402 2.8709307
24.847645 -7.1894979 2.8909328
25.252853 -7.4749517 2.9433823
24.679552 -7.4702682 2.8818207
28.282784 -8.7506237 3.3089738
24.613501 -7.7812486 2.8850431
28.176382 -9.2893372 3.3159745
25.785728 -8.6770067 3.0407252
23.877472 -8.1983624 2.8214815
29.466646 -10.319792 3.4896581
20.894299 -7.4620409 2.4794478
20.843084 -7.7334394 2.4844482
20.553539 -7.769824 2.4555566
20.130039 -7.893405 2.4163306
24.17375 -9.6504288 2.9090457
21.33354 -8.668808 2.573457
19.712246 -8.1513329 2.3837717
19.660027 -8.2713614 2.3835495
22.976969 -10.000353 2.8005905
22.984245 -10.171713 2.8090358
22.934088 -10.318258 2.8105915
22.185266 -10.145516 2.726361
24.302706 -11.29458 2.9951651
20.439714 -9.6523323 2.526119
25.125513 -12.05405 3.1146214
22.655027 -11.04041 2.816592
22.58864 -11.180093 2.8168144
21.460262 -10.786083 2.6842458
25.341747 -12.932185 3.1798501
26.638994 -14.218133 3.3749802
23.513695 -12.736134 2.9887202
22.889893 -12.580536 2.9191577
22.830498 -12.730912 2.9214914
19.951065 -11.286394 2.5616782
22.743467 -13.23697 2.9410489
19.796425 -11.685057 2.5690122
22.755939 -13.811135 2.9750521
22.691929 -13.963523 2.9778302
25.03537 -15.832286 3.3107517
20.958179 -13.616899 2.7932565
20.874233 -13.745238 2.7932565
20.856459 -13.917744 2.8022573
21.141565 -14.486073 2.8642635
26.090937 -18.113403 3.5501087
20.86385 -14.675242 2.8508177
20.779884 -14.807596 2.8517067
20.652374 -14.908646 2.8467062
22.118416 -16.174259 3.0625052
20.40398 -15.11364 2.8378165
20.874487 -15.661397 2.9166019
20.776413 -15.787984 2.9163797
21.181534 -16.509726 3.0014992
17.983681 -14.19556 2.5604558
19.999212 -15.986579 2.8614855
17.859108 -14.456444 2.5677898
18.139774 -14.868775 2.6212394
18.054317 -14.984876 2.6221285
21.404026 -17.987869 3.1248446
21.030609 -17.895386 3.0862854
18.266344 -15.737581 2.6945801
18.181419 -15.859818 2.696358
18.052477 -15.943448 2.6916909
21.850487 -19.5375 3.2760816
21.624836 -19.575834 3.2601912
21.201721 -19.430845 3.2142978
20.900688 -19.392265 3.1866283
20.826942 -19.563007 3.193629
21.048367 -20.513193 3.2849715
25.97057 -25.622591 4.0779381
24.996571 -25.27446 3.9733725
24.860466 -25.447266 3.9764838
24.567211 -25.457735 3.9544816
24.514772 -25.717337 3.9713721
24.375587 -25.887531 3.9744837
24.54421 -26.716017 4.0551581
24.097315 -26.554811 4.0081534
23.981102 -27.087374 4.0438237
19.386116 -23.890278 3.4387643
19.213062 -23.976208 3.4340973
18.566765 -23.761469 3.3704243
19.329439 -25.052816 3.5367739
19.207876 -25.213636 3.5427747
19.088402 -25.705158 3.5786669
17.65992 -24.088993 3.3384211
17.494881 -24.173552 3.3351986
17.539774 -25.199474 3.4316525
17.237385 -25.09201 3.4025385
17.038483 -25.131498 3.3936489
16.529158 -24.705296 3.3223085
16.5366 -25.047594 3.354645
16.305027 -25.029512 3.3387544
16.103092 -25.395573 3.3609788
15.990708 -25.563833 3.3702021
15.982806 -25.903355 3.401983
15.689231 -25.78021 3.3730912
15.665263 -26.100096 3.4023163
17.491211 -29.551598 3.8383591
18.703672 -33.933334 4.3310742
17.637403 -32.468586 4.1301656
17.798061 -33.249092 4.2155075
17.28771 -32.777515 4.1421666
17.08342 -33.376438 4.1910605
16.618195 -33.474079 4.1773925
17.326435 -35.445015 4.4100819
15.561429 -32.335827 4.0111537
16.868893 -35.610062 4.4045258
7.7445788 -16.612276 2.0480721
7.6586642 -16.69471 2.0524058
7.5736642 -16.780338 2.057184
7.4814491 -16.851017 2.0601845
7.3834801 -16.909355 2.0617402
14.689962 -34.21154 4.1617241
14.470105 -34.278141 4.158946
14.094453 -37.14854 4.4413075
13.929028 -37.402889 4.4614205
13.711887 -37.52219 4.4655318
13.18862 -38.260548 4.5237598
12.573814 -37.983639 4.4724216
12.281658 -37.878567 4.451086
12.045401 -37.941845 4.4497528
7.3771839 -23.742414 2.7785883
7.2273169 -23.77392 2.7770326
7.0830069 -23.823534 2.7776995
10.864198 -38.252373 4.4449744
13.828524 -51.065094 5.9141188
5.4093804 -22.717377 2.6097939
11.864674 -51.216114 5.8770041
11.501065 -51.069809 5.8520017
11.512628 -54.216808 6.1960354
2.8622882 -14.346142 1.6343647
10.151783 -54.339409 6.1797004
8.291934 -47.614246 5.4027352
8.2983351 -51.372852 5.8173313
9.5754776 -61.680229 6.9780011
1.4520878 -10.646525 1.2000998
1.386863 -10.656221 1.2002109
1.3186393 -10.641846 1.1976552
1.2540146 -10.655659 1.1983219
1.18927 -10.669079 1.1989887
1.1204523 -10.644547 1.1954328
1.0521766 -10.621553 1.1920991
0.98477709 -10.604061 1.1894321
0.91909206 -10.602973 1.1886543
0.85784709 -10.655962 1.1939881
0.79488033 -10.69373 1.1976552
0.73256463 -10.746989 1.2031001
0.67085636 -10.819723 1.2107675
0.61516201 -11.015141 1.2322141
0.024534684 -40.198536 4.4934235
-0.51880437 -21.659826 2.4212198
-0.65202528 -21.66716 2.4224422
-0.78434896 -21.645868 2.4205532
-0.92930305 -21.927601 2.4526675
-1.0490514 -21.616745 2.4185529
-1.1790123 -21.561277 2.4131079
-1.3127352 -21.577446 2.4157748
-1.43767 -21.457928 2.4033291
-1.5687264 -21.440773 2.4024403
-1.6977409 -21.399042 2.3988843
-1.8276566 -21.372379 2.3971064
-1.9387116 -21.142046 2.3725483
-1.964545 -20.06847 2.2533145
-2.0506172 -19.700188 2.2133105
-2.1621985 -19.60327 2.2038653
-2.2968137 -19.713026 2.2177553
-2.4770341 -20.181902 2.2722051
-2.6134024 -20.263903 2.2832062
-2.7408853 -20.27112 2.2858732
-2.8675809 -20.270649 2.2877624
-2.7473798 -18.597063 2.1006329
-2.8602276 -18.571999 2.0997438
-3.2538929 -20.299805 2.29743
-3.258054 -19.556973 2.215533
-3.3724053 -19.504299 2.2118659
-3.4869344 -19.45487 2.2086434
-3.3431849 -18.015293 2.0474052
-3.6289608 -18.907974 2.1514156
-3.9362478 -19.850437 2.2614264
-4.0595679 -19.8337 2.2623153
-4.1963749 -19.880373 2.2705383
-4.3037081 -19.787245 2.262871
-4.4230847 -19.751736 2.2618709
-4.5437498 -19.72229 2.2616487
-5.0869918 -21.477293 2.4665577
-4.7746229 -19.620626 2.256537
-5.3607664 -21.455675 2.471447
-5.6287861 -21.954739 2.5328975
-5.1359763 -19.53326 2.2569816
-5.2730584 -19.565672 2.2644267
-5.4062347 -19.580847 2.2699828
-5.6308975 -19.917406 2.3129871
-5.7698503 -19.940716 2.3197656
-5.9186082 -19.994514 2.3302109
-6.0492415 -19.984455 2.3333223
-6.1796808 -19.972595 2.3363225
-6.3048096 -19.942829 2.3373227
-6.4438524 -19.955784 2.3434343
-6.5652442 -19.913038 2.343101
-6.6869874 -19.871437 2.3429899
-8.3364811 -24.279774 2.8690417
-8.4787321 -24.209404 2.8668191
-8.6695652 -24.275787 2.8809316
-8.7853794 -24.131552 2.870153
-8.9115047 -24.01849 2.8631523
-9.043602 -23.923384 2.8583739
-9.1652269 -23.802523 2.8505955
-9.291152 -23.69495 2.8444836
-9.4301033 -23.621803 2.8425946
-9.5576582 -23.521145 2.8374829
-9.8639488 -23.854214 2.884932
-10.201271 -24.247599 2.9400487
-10.51368 -24.567375 2.9866087
-10.923983 -25.099272 3.0593936
-11.252321 -25.426191 3.1076207
-11.631558 -25.853329 3.1685154
-12.047447 -26.34454 3.2377446
-12.434194 -26.75499 3.2975283
-17.081739 -36.173401 4.4716434
-17.255661 -35.968449 4.4593091
-17.462103 -35.833305 4.4557533
-17.562624 -35.484997 4.4257503
-17.725134 -35.267345 4.4120822
-17.872538 -35.023369 4.3951917
-18.042759 -34.827454 4.3844128
-18.196911 -34.603497 4.3701892
-18.309221 -34.304443 4.3465204
-18.454996 -34.072609 4.3314075
-18.628775 -33.895149 4.3232956
-18.802521 -33.719448 4.3155169
-18.926863 -33.458126 4.2968488
-4.5578747 -7.9420576 1.0225269
-4.5655303 -7.8435087 1.0134149
-4.60852 -7.8067889 1.0123036
-4.6507206 -7.7689848 1.0110812
-19.618929 -32.32571 4.2267308
-19.764305 -32.119236 4.2155075
-19.832144 -31.790775 4.1882825
-19.957254 -31.558456 4.1737256
-20.107079 -31.367636 4.1647243
-20.298084 -31.242004 4.1645021
-20.457699 -31.068727 4.1580572
-20.568518 -30.823574 4.1420555
-20.699366 -30.61117 4.1304989
-20.85647 -30.439314 4.1244984
-20.977676 -30.216885 4.1117196
-21.112947 -30.01688 4.1020517
-21.241941 -29.809877 4.091495
-21.384899 -29.624184 4.0839391
-21.534592 -29.449091 4.0779381
-5.3898196 -7.2757249 1.0110812
-5.4790907 -7.3021383 1.0194154
-5.5219889 -7.2660074 1.0190821
-5.5882883 -7.2603416 1.0230825
-5.649838 -7.2478638 1.0261939
-5.7551608 -7.2902884 1.037195
-22.390789 -28.011316 4.0083756
-4.0478344 -4.9998107 0.71794134
-4.0796967 -4.9764166 0.71816361
-4.113328 -4.9551144 0.71871918
-4.1500483 -4.9373903 0.71983039
-4.1995859 -4.9345403 0.72316408
-2.6937687 -3.1257493 0.4600271
-2.6906862 -3.0836983 0.45624897
-26.293341 -29.772139 4.4399738
-26.880917 -30.06365 4.5079803
-27.350996 -30.214226 4.5556517
-29.070797 -31.72073 4.8096766
-29.382496 -31.668524 4.8290119
-27.524891 -29.303635 4.493979
-31.308378 -32.924561 5.0788145
-28.138121 -29.229282 4.5352054
-33.310894 -34.180557 5.3352842
-43.240467 -43.828377 6.8828807
-44.202438 -44.256966 6.9926691
-45.801548 -45.29874 7.2015786
-47.144218 -46.057907 7.3681507
-57.267284 -55.265224 8.8974123
-7.0498171 -6.6373987 1.0813104
-7.0525708 -6.5588217 1.0755321
-7.0553584 -6.4811335 1.0698649
-7.0861621 -6.4297061 1.0685314
-7.1365809 -6.3960552 1.0701982
-7.166019 -6.3435812 1.0687536
-7.2227621 -6.3151932 1.0714206
-7.2899556 -6.2954412 1.0756432
-7.3806167 -6.2950954 1.0833106
-7.4282236 -6.2573743 1.0846441
-7.4626589 -6.208499 1.0840884
-6.6137724 -5.4338498 0.95574248
-6.5350952 -5.3023634 0.93962979
-6.5093431 -5.2155547 0.93129563
-6.421988 -5.0811596 0.914294
-6.3731704 -4.9792447 0.90295953
-6.3674088 -4.9121194 0.89784789
-6.3144236 -4.80972 0.8861801
-6.2778969 -4.7213016 0.876957
-6.2421212 -4.6346989 0.8679561
-6.2191472 -4.5587039 0.86084425
-6.2115784 -4.4948201 0.85595489
-6.0069633 -4.2908154 0.82406288
-5.9803877 -4.2166476 0.81683993
-5.958024 -4.1463757 0.81028378
-5.9989171 -4.1204319 0.8123951
-6.0199742 -4.0807571 0.81183946
-6.0515075 -4.0481634 0.81272846
-6.0903316 -4.0202646 0.81461751
-3.9132438 -2.5485287 0.52081084
-3.9680996 -2.5497251 0.52603358
-3.9794734 -2.5226681 0.52547801
-3.9628608 -2.4781752 0.52125537
-6.3511815 -3.918184 0.83306378
-6.3912334 -3.8889568 0.8351751
-6.4303136 -3.8588741 0.83717531
-6.4718294 -3.8299763 0.83950883
-6.5243902 -3.8072259 0.84328699
-6.5648556 -3.7770352 0.84550947
-6.6086526 -3.7484524 0.84817636
-6.6835713 -3.7369361 0.85484368
-6.7176895 -3.7020929 0.85628825
-6.770843 -3.677408 0.86017758
-6.8379641 -3.659714 0.86584479
-6.8892989 -3.6329885 0.86951178
-6.9599628 -3.6158512 0.87562352
-7.0120964 -3.5884736 0.87940168
-7.0934396 -3.5753553 0.88684684
-7.1383877 -3.5432537 0.889736
-7.1885653 -3.5133531 0.89329189
-7.2359567 -3.4816773 0.89651448
-7.2904143 -3.452955 0.90062594
-7.3583012 -3.4299946 0.90640432
-7.4135332 -3.400528 0.91062695
-7.4786429 -3.3750098 0.91607195
-7.5446258 -3.3492234 0.92162806
-7.5959997 -3.3163898 0.92540616
-7.6682568 -3.2920704 0.93174016
-7.7249351 -3.2604175 0.936185
-7.7787576 -3.2270496 0.94029653
-7.8609886 -3.2047763 0.94785285
-7.8961873 -3.1627648 0.9497419
-7.9838791 -3.141186 0.95796496
-8.0196886 -3.0985873 0.95996511
-8.0329752 -3.0472057 0.95929843
-8.1595535 -3.0380929 0.97218853
-8.2331133 -3.008096 0.97874475
-8.3337402 -2.9870362 0.98852348
-8.3744125 -2.9437566 0.99119043
-8.4280205 -2.9046245 0.99541306
-8.5172396 -2.877033 1.0038583
-8.5592623 -2.8328388 1.0067475
-8.6691275 -2.8103073 1.0176375
-8.7809286 -2.7871346 1.0287497
-8.8965654 -2.7638743 1.0403063
-8.9361773 -2.7161717 1.0429733
-9.1339312 -2.6542959 1.0621974
-9.1615171 -2.6014595 1.0635309
-9.3343601 -2.5887649 1.0817549
-9.3980312 -2.5444307 1.087311
-9.4663124 -2.5006814 1.0934227
-9.5690536 -2.4651172 1.1035348
-9.6293011 -2.4177339 1.1087575
-9.7327662 -2.380331 1.1189808
-9.7674904 -2.325402 1.1213143
-9.9025955 -2.2934632 1.1352046
-9.957202 -2.2418296 1.1398717
-10.062029 -2.2006569 1.1503172
-10.121033 -2.1485786 1.1555399
-10.282952 -2.1171083 1.1725416
-10.349352 -2.0646706 1.1786532
-10.43208 -2.0147023 1.1866541
-28.333284 -5.292943 3.2215207
-27.906544 -5.0362048 3.1694045
-28.426456 -4.9501376 3.2249656
-28.584686 -4.797173 3.2395225
-30.092081 -4.8605347 3.4069834
-30.144909 -4.679461 3.4096503
-31.541334 -4.6982493 3.5643322
-31.52923 -4.4988699 3.5597763
-16.668839 -2.2738633 1.8797222
-16.671637 -2.170131 1.8784999
-16.597849 -2.057035 1.8687211
-16.4006 -1.8285233 1.8438298
-16.267269 -1.4104514 1.8243834
-16.261549 -1.2090988 1.8219388
-16.229002 -1.1065911 1.8174939
-16.21069 -1.0054519 1.8147159
-16.165947 -0.90313679 1.8090487
-16.125526 -0.80165565 1.803937
-16.052698 -0.69931918 1.7952695
-16.021929 -0.59950644 1.7913802
-15.976633 -0.4996621 1.7859352
-15.929724 -0.40037134 1.7803791
-15.887168 -0.30176964 1.7753786
-15.84897 -0.20376937 1.7709337
-15.789302 -0.10610809 1.7641553
-15.747915 -0.0091985734 1.7594882
-15.717863 0.087264754 1.7561545
-15.680262 0.18327793 1.752043
-15.671887 0.27936307 1.7512652
-15.815927 0.37901232 1.7676001
-15.983166 0.48115623 1.7866019
-16.1269 0.58453959 1.803048
-16.3067 0.69126052 1.8236055
-16.329945 0.79265153 1.826717
-17.085888 0.93443048 1.9119476
-17.116344 1.2524644 1.9176148
-18.306087 1.4524529 2.0519614
-18.354263 1.569659 2.0584064
-90.417938 8.8488121 10.156981
-90.235405 9.3902731 10.142756
-90.17807 9.9439888 10.142979
-18.790056 2.1893082 2.1138563
-18.730894 2.2989931 2.1087446
-92.273361 11.897912 10.40156
-94.298309 12.747699 10.638472
-67.629967 18.224928 7.8304181
-67.499626 18.634794 7.8284183
-67.365845 19.043478 7.8263068
-67.188538 19.439344 7.819417
-67.02607 19.838829 7.814528
-66.863129 20.237629 7.8098607
-66.686424 20.631651 7.8038602
-66.505508 21.023668 7.7976375
-66.3554 21.424931 7.7953038
-66.173607 21.815496 7.7895255
-66.002716 22.209076 7.7853026
-65.812561 22.595572 7.7790799
-65.642662 22.988453 7.7755241
-65.472298 23.38077 7.7721901
-65.289314 23.768124 7.7676344
-65.116158 24.158604 7.764523
-64.933228 24.545044 7.7605224
-64.752655 24.931934 7.7570777
-64.576248 25.320074 7.7544107
-63.293625 25.266335 7.6188416
-63.129116 25.650856 7.6178417
-62.924622 26.018738 7.6122856
-62.777527 26.410128 7.6139526
-62.643532 26.807337 7.6175084
-62.433216 27.171774 7.6120634
-62.266228 27.554747 7.6121745
-62.110481 27.94281 7.6139526
-61.912556 28.311815 7.6108413
-61.829597 28.733891 7.6221757
-62.565163 29.543861 7.7350755
-62.384499 29.928059 7.7352977
-62.088245 30.728827 7.7447433
-61.949142 31.134651 7.7510772
-61.775528 31.523666 7.7534108
-61.590649 31.907148 7.7546329
-61.461437 32.320076 7.7631893
-61.261971 32.696587 7.7631893
-61.081165 33.083225 7.7658563
-60.898792 33.469357 7.7686343
-60.699226 33.846268 7.7695231
-60.521549 34.235687 7.7735238
-60.349995 34.629147 7.7786355
-60.162144 35.013794 7.7819691
-59.993244 35.410069 7.7880807
-59.793606 35.788742 7.7905254
-59.617908 36.182281 7.7964149
-59.429482 36.56876 7.800971
-68.871239 42.963242 9.0749846
-68.163773 44.285381 9.0876532
-67.681313 45.162647 9.0965424
-5.227406 3.5354674 0.70427334
-4.9260507 3.3759313 0.6663807
-4.7484999 3.2972806 0.64504528
-4.5078888 3.1714153 0.61493123
-4.3499441 3.1003981 0.59592932
-4.2792673 3.0898039 0.58881754
-4.3436584 3.1770091 0.60037422
-4.2929378 3.1805327 0.59604049
-4.3538361 3.569411 0.62815475
-4.278512 3.5963562 0.62359875
-4.2147355 3.5871196 0.61748701
-4.1677995 3.5915079 0.61382002
-4.1419392 3.6137471 0.61326438
-4.1472492 3.6634336 0.61737591
-4.2212615 3.9658263 0.64626765
-4.1118655 3.9108443 0.63315523
-4.1500816 3.9959631 0.64282286
-4.0464821 3.9443622 0.63048828
-4.0285711 3.9753983 0.63148838
-2.1505516 2.1488149 0.33857071
-2.1575928 2.182461 0.34179327
-2.1406882 2.1921043 0.34123766
-2.1244369 2.2023377 0.34079316
-4.0933042 4.2949195 0.66204697
-0.81455177 1.6172205 0.20111276
-0.80991656 1.6328697 0.20244624
-0.79988217 1.6378086 0.20244624
-0.78809386 1.6391038 0.20200175
-0.75930095 1.6043911 0.19711238
-0.75448173 1.6198285 0.19844584
-27.534883 106.8568 12.337084
-25.225122 105.92535 12.173845
-17.279531 78.985168 9.0392036
-16.812317 79.173309 9.0487604
-14.930623 104.62648 11.815921
-12.308025 104.53303 11.767694
-11.660553 104.55424 11.761805
-9.2281904 114.54779 12.848245
-0.038887158 63.080933 7.0520082
0.34656686 62.788807 7.0194497
0.73205668 62.80537 7.0216722
1.1170207 62.77784 7.0192275
1.8896464 62.83688 7.027895
2.2735887 62.780407 7.0230055
3.0418558 62.707081 7.0184493
3.4220066 62.603878 7.0091152
3.7998595 62.479534 6.9976697
4.1830888 62.454048 6.9975586
4.5662212 62.427208 6.9975586
4.9792728 62.777451 7.0401182
5.7250514 62.44738 7.0104489
6.0983377 62.311184 6.9992256
6.8570867 62.182262 6.9936695
7.2383857 62.138035 6.9935584
7.6209741 62.104286 6.9948916
8.0025301 62.061283 6.9954472
8.3843784 62.019871 6.9964476
8.7665768 61.980053 6.9978919
9.147295 61.929028 6.9983363
9.5319519 61.903172 7.0018926
9.9133329 61.854313 7.0031147
10.296433 61.814861 7.0056705
10.680267 61.777943 7.0087819
11.062109 61.727879 7.0106711
11.443919 61.67643 7.012671
11.920843 62.1194 7.0712323
16.857712 28.560354 3.7069018
29.932951 42.006882 5.7661042
30.257029 41.915092 5.7788835
30.570547 41.806465 5.7896619
36.932545 46.789841 6.6638589
37.087399 46.397774 6.6403012
39.777996 49.14257 7.0680099
38.348217 46.786179 6.7627578
35.837505 43.179798 6.2730432
34.720104 41.314938 6.0329084
36.310589 42.673183 6.2637086
34.481777 40.023655 5.9056735
36.013489 40.277874 6.04002
30.18733 31.745607 4.8969078
34.247528 34.289555 5.4175143
34.453743 34.075275 5.4169588
29.96315 28.213322 4.6004343
30.313257 28.194092 4.6275477
31.138405 27.228727 4.6237698
31.228174 26.970894 4.6124353
31.647123 26.995483 4.6497722
32.501842 26.706827 4.702333
32.466778 26.345957 4.6737747
32.830231 26.308455 4.7027774
33.701107 26.333773 4.7808962
28.326117 20.500319 3.908366
35.67812 25.489246 4.9014635
35.1432 24.461306 4.7863412
35.506424 24.392088 4.8153439
31.153086 19.754057 4.1232762
34.493042 21.576395 4.5478735
37.155689 21.685425 4.80901
34.263794 19.716694 4.4188604
34.413826 19.244778 4.4074149
34.424839 17.354319 4.3092942
37.134258 18.152218 4.6203251
34.429497 16.569044 4.2709575
33.937752 16.076666 4.1976166
34.003334 15.853007 4.1936164
34.69894 15.66187 4.2554002
34.620899 15.371636 4.2341757
37.40493 16.333784 4.5624304
34.954865 15.009152 4.2521777
35.135109 14.831882 4.2629566
35.241058 14.622493 4.2648454
35.376129 14.424746 4.2704015
34.487942 13.816377 4.1528344
32.156307 11.084339 3.8018
31.454309 8.9333286 3.6547856
31.568863 8.756897 3.6617863
3.9617245 1.046146 0.45680457
3.9834671 1.0257856 0.45858252
3.9578784 0.99333555 0.45491549
3.9416959 0.96360004 0.45235968
3.9049966 0.92926586 0.44747031
3.8873889 0.89990461 0.44480339
3.7890985 0.85267138 0.43291333
0.77105039 0.16799395 0.08687932
0.77012241 0.16284683 0.08665707
0.77013373 0.15791792 0.086545952
0.77108824 0.15318948 0.086545952
0.77884406 0.14977486 0.087323807
0.78854048 0.14663582 0.088323906
0.79138136 0.1421477 0.088546149
0.79517591 0.13780077 0.088879511
0.79502636 0.13275455 0.088768393
0.79778808 0.12819085 0.088990636
0.79757762 0.12314083 0.088879511
0.79930121 0.1183911 0.088990636
0.80099642 0.11362486 0.089101762
0.80561721 0.10924535 0.089546248
0.81021434 0.10481341 0.089990735
0.81281477 0.1000846 0.090212978
0.81933546 0.095792674 0.090879709
0.81101871 0.08977209 0.08987961
0.8164959 0.085314572 0.090435222
0.81700402 0.080303036 0.090435222
0.82539773 0.076024167 0.091324195
0.92386746 0.079461001 0.10232528
0.97386754 0.077781282 0.10788138
1.0209066 0.075269617 0.11310412
1.0213492 0.069004036 0.11310412
1.0872186 0.066799022 0.12043817
1.1024919 0.060958851 0.122105
1.10086 0.054094166 0.12188276
1.0942211 0.047035333 0.1211049
1.0954823 0.040357634 0.12121603
1.0818028 0.033199608 0.11966032
1.0670838 0.026185984 0.11799349
1.0702053 0.019694736 0.11832685
1.0732871 0.013166164 0.11866022
1.0713601 0.0065669087 0.11843798
1.1031327 0.0022172432 0.10312737
1.0961567 -0.0045214663 0.10246861
1.1000904 -0.011288865 0.10284504
1.0930325 -0.017923137 0.10218628
1.1098222 -0.025013953 0.10378613
1.1146234 -0.031966824 0.10425667
1.1273407 -0.039258163 0.10548008
1.1250892 -0.046092797 0.10529187
1.1227963 -0.052901279 0.10510365
1.1075383 -0.058992624 0.10369202
1.1180874 -0.066438802 0.10472721
1.1345468 -0.074408613 0.10632706
1.1390338 -0.081725776 0.1067976
1.1444662 -0.089178309 0.10736225
1.1458815 -0.096366145 0.10755046
1.1313875 -0.10213967 0.10623295
1.1208299 -0.1081221 0.10529187
1.1241068 -0.11540475 0.1056683
1.1312951 -0.12316336 0.10642117
1.1730456 -0.13500436 0.11046782
1.188008 -0.14412047 0.11197355
1.1969767 -0.15266846 0.11291464
1.2147655 -0.16252154 0.11470269
1.2127596 -0.16983393 0.11460859
1.2028291 -0.17597355 0.11376161
1.163345 -0.17748813 0.11009139
1.1750157 -0.18665558 0.1113148
1.1709017 -0.19337468 0.11103247
1.1432004 -0.19600847 0.10849155
1.0194559 -0.18121581 0.096728005
1.0163665 -0.18710679 0.096539788
1.0122656 -0.19278024 0.096257463
1.0081332 -0.19841044 0.095975138
1.0049456 -0.20419562 0.095786922
0.99490464 -0.20851831 0.094939947
0.9955526 -0.21503977 0.095128164
0.99324268 -0.22092798 0.095034055
0.99672049 -0.2281298 0.095504597
0.98851866 -0.23264343 0.094845839
0.97255826 -0.23519142 0.093434215
0.98945403 -0.24571709 0.095222272
0.95512879 -0.24341758 0.09202259
0.90931237 -0.2376827 0.087693609
0.90014422 -0.24119464 0.086940743
24.931805 -6.8503327 2.4429424
24.780052 -6.9724412 2.432214
24.758806 -7.1306949 2.4343784
25.057421 -7.3835011 2.4681635
24.931574 -7.5129814 2.4602582
25.214203 -7.7672291 2.4928198
21.639082 -7.1045485 2.1517713
28.867731 -9.8719883 2.8828046
29.414799 -10.261095 2.9436927
20.966709 -7.4586096 2.1024585
21.002468 -7.7629743 2.1154454
20.887033 -8.012991 2.1135633
21.202482 -8.4339256 2.155818
20.988844 -8.4984751 2.139349
21.136967 -8.7097883 2.1598644
23.920147 -10.028797 2.4506593
23.734533 -10.122652 2.4379547
23.427202 -10.161918 2.4127336
22.852489 -10.079673 2.3598447
22.878328 -10.259217 2.3689733
22.821287 -10.402293 2.369632
22.178894 -10.274302 2.3094027
20.351761 -9.579978 2.1251385
25.561054 -12.224305 2.6771779
22.70599 -11.030568 2.3850658
22.63163 -11.166598 2.384407
22.59384 -11.320863 2.3877008
21.997768 -11.191577 2.3318946
23.155535 -11.960034 2.4624228
23.1355 -12.130089 2.4681635
25.639988 -13.846999 2.7534056
23.54389 -12.902194 2.5366743
23.432346 -13.217534 2.5419443
20.000675 -11.444125 2.1770864
26.498192 -15.37858 2.8949447
26.381882 -15.528255 2.892592
19.855028 -11.851153 2.1846151
19.847519 -12.012451 2.1918614
19.88714 -12.203783 2.2044718
22.707947 -14.127342 2.5268869
19.762312 -12.63373 2.2160473
20.590097 -13.341607 2.3180606
20.966366 -13.768814 2.3699143
20.794464 -13.839285 2.360033
20.802425 -14.02952 2.3706672
20.23675 -13.829413 2.3158021
26.257488 -18.181301 3.0178499
21.001141 -14.733093 2.4238384
20.920082 -14.868599 2.4249678
19.699785 -14.184014 2.2934983
20.704678 -15.101321 2.4212976
20.882067 -15.62686 2.4643049
20.781029 -15.751088 2.4637403
21.349709 -16.389355 2.5430737
21.155212 -16.447329 2.5318747
21.143066 -16.647036 2.542603
21.300512 -16.983755 2.5740352
20.345407 -16.427412 2.4707043
19.646141 -16.062927 2.3976762
19.162251 -15.864457 2.3504338
19.003511 -15.930569 2.3429053
18.736906 -15.903849 2.3220131
21.027901 -18.071623 2.619772
20.969944 -18.246706 2.6264536
20.835926 -18.355947 2.6237245
21.282936 -19.457148 2.7247026
21.24206 -19.660404 2.7348664
21.17551 -19.841427 2.7419245
21.179045 -20.090202 2.7582994
21.07979 -20.243223 2.7614989
21.085812 -20.499182 2.7787209
25.96978 -25.559158 3.4432197
20.538095 -20.715565 2.7563231
25.060257 -25.589008 3.384496
24.762949 -25.597754 3.3654861
24.500874 -25.639809 3.3511817
24.446297 -26.54414 3.4099994
24.157978 -26.885828 3.4155517
19.439093 -23.59823 2.8889217
18.962454 -23.902906 2.8829927
18.78228 -23.976484 2.8779109
18.644556 -24.10388 2.8794167
18.173532 -24.100344 2.8521254
18.833855 -25.297438 2.9801126
18.702452 -25.445415 2.9839711
18.567602 -25.589506 2.987453
18.292555 -25.538651 2.968349
17.286114 -24.770073 2.8541017
17.895046 -25.980898 2.9809597
17.106215 -25.164766 2.8751819
16.92098 -25.223782 2.8700058
16.392759 -24.763456 2.8061063
19.170074 -29.3487 3.3125031
16.695974 -25.906708 2.9122605
16.03726 -25.223145 2.8242693
18.963053 -30.232983 3.3723559
18.765667 -30.330141 3.3702857
18.608772 -30.493155 3.3756499
18.559933 -30.837069 3.4010592
19.846001 -33.436543 3.6743495
17.944628 -33.424564 3.5849466
17.610718 -33.291157 3.5589728
17.173122 -33.450733 3.5532322
16.962608 -33.545704 3.552197
19.726568 -41.51144 4.3433657
7.781126 -16.636425 1.7349656
7.6772351 -16.680239 1.7345891
7.5501018 -16.672615 1.7289426
7.5169315 -16.874138 1.7450351
7.4212422 -16.938183 1.7469172
14.738919 -34.210037 3.5200119
14.536111 -34.317249 3.5218
14.254478 -34.235764 3.50439
14.107104 -34.47646 3.5201061
15.285658 -38.020733 3.8724477
14.959196 -37.878613 3.8485441
14.47846 -37.330162 3.7837036
14.187841 -37.257339 3.7674227
13.861715 -37.083511 3.7411666
13.752881 -37.492195 3.7738221
12.965675 -36.028366 3.6183553
13.185395 -37.356789 3.7436132
13.653661 -39.453159 3.9452875
14.377755 -44.159359 4.3888197
14.421391 -46.212292 4.574966
7.2758918 -23.82789 2.3539159
7.1267004 -23.862547 2.3529749
13.500463 -50.843693 4.9715385
13.187489 -50.92268 4.9712563
12.947398 -51.290295 4.9993005
12.03748 -51.676029 5.014452
11.677515 -51.560551 4.9961948
10.667273 -49.936783 4.8257647
11.281554 -54.44566 5.2548046
2.8889778 -14.38542 1.3858237
9.8749323 -50.786274 4.8894763
10.22448 -54.362309 5.2277017
8.358139 -47.650921 4.5719547
1.7139003 -10.13534 0.97052372
1.7106998 -10.508255 1.0052496
1.5649222 -9.999217 0.95556045
1.493631 -9.9426689 0.94925523
1.4280571 -9.9201136 0.94624376
1.3626806 -9.896142 0.94313818
1.2975225 -9.8707571 0.93993849
1.2344588 -9.8587761 0.93805635
1.1726495 -9.8552895 0.93702114
1.1172874 -9.9078064 0.9413501
1.0604811 -9.9520941 0.9449262
1.0269277 -10.232807 0.97099423
0.96682721 -10.26766 0.97372335
0.90197599 -10.252572 0.9717471
0.83629161 -10.224177 0.9685474
0.7663365 -10.133815 0.95951301
0.69393617 -9.9913359 0.94558501
0.63173729 -9.9814959 0.94426745
0.57013953 -9.9792213 0.94370282
0.50889742 -9.9825315 0.94370282
0.44745791 -9.9814882 0.94332641
0.38581964 -9.9740973 0.94238532
0.34532079 -10.613099 1.0026146
0.28116482 -10.651842 1.0060966
0.21604277 -10.66531 1.0072259
0.073910736 -40.341152 3.8122182
-0.17403111 -40.43642 3.8212526
-1.0121861 -21.405607 2.0245368
-1.1497792 -21.516302 2.0356417
-1.2721242 -21.346853 2.0203018
-1.4064138 -21.389309 2.0251014
-1.5224878 -21.169762 2.0051506
-1.6109612 -20.630005 1.9548967
-1.8228738 -21.63261 2.0509813
-1.9862485 -21.960115 2.0831664
-2.0228856 -20.932787 1.9867994
-2.0510683 -19.945488 1.8941967
-2.3683252 -21.719917 2.0641563
-2.4853642 -21.564535 2.0507929
-2.3432934 -19.290623 1.8357555
-2.7633021 -21.638079 2.0608625
-2.4815001 -18.526276 1.765739
-2.5848994 -18.437742 1.7587749
-2.6932213 -18.389027 1.7556694
-2.8026965 -18.350504 1.7535989
-2.9085169 -18.290684 1.7495522
-3.3332865 -20.163284 1.9307108
-3.457617 -20.146378 1.9310873
-3.5818653 -20.128704 1.9314637
-6.4737802 -35.128273 3.3753674
-6.6996422 -35.142658 3.3806376
-6.8414426 -34.72678 3.344594
-3.6251273 -17.824059 1.7182143
-3.8260024 -18.237988 1.7603748
-4.7932696 -22.170704 2.1430192
-4.2249851 -18.97777 1.8366966
-4.3373494 -18.934021 1.8350027
-5.1199713 -21.736649 2.1097989
-5.4378014 -22.46731 2.1839564
-5.3985748 -21.721457 2.1145985
-5.5152674 -21.623291 2.1082933
-5.6417942 -21.565926 2.1060345
-5.9259057 -22.097275 2.1614645
-6.036849 -21.97122 2.1527123
-6.1804471 -21.965389 2.155818
-7.2549615 -25.190266 2.4768214
-7.4071383 -25.137638 2.4760685
-7.5486012 -25.049772 2.4719276
-7.7100749 -25.028671 2.4744687
-7.8608127 -24.972347 2.4736216
-7.9855509 -24.835501 2.4648695
-8.1182222 -24.726444 2.4589407
-8.2580833 -24.641241 2.4554586
-8.3939829 -24.545832 2.4510357
-8.5093479 -24.393284 2.4409661
-5.9840708 -16.821791 1.6865939
-8.7724094 -24.188753 2.4310846
-8.9027147 -24.085915 2.4261911
-9.0278788 -23.971209 2.4201682
-9.1523275 -23.856804 2.4142394
-9.2829599 -23.760323 2.4101927
-9.3984003 -23.627062 2.4024758
-9.5110626 -23.48959 2.3943825
-9.8503551 -23.904833 2.4428482
-10.134272 -24.171715 2.476445
-10.443311 -24.486364 2.5152175
-8.0074768 -18.46048 1.9009726
-11.208673 -25.412085 2.624289
-11.55992 -25.778868 2.669461
-12.009818 -26.347914 2.7359955
-12.400167 -26.767853 2.787473
-12.821553 -27.238022 2.8445966
-17.229635 -36.027023 3.7738221
-17.417305 -35.852566 3.76667
-17.572649 -35.614674 3.7529302
-17.686483 -35.297901 3.7309086
-17.863911 -35.112404 3.7228155
-18.014143 -34.87653 3.7094519
-8.2486324 -15.732607 1.67803
-18.287838 -34.365452 3.6786785
-18.44537 -34.154484 3.6681385
-18.585217 -33.91407 3.6544929
-18.746998 -33.716736 3.6455524
-18.891899 -33.491814 3.6336949
-4.5284133 -7.9144659 0.86079341
-4.5628977 -7.8624215 0.85815835
-4.6044893 -7.8231225 0.85693496
-4.6483226 -7.7878842 0.8561821
-19.588177 -32.364231 3.574877
-19.733278 -32.156879 3.5652781
-19.860273 -31.922766 3.5527618
-19.991512 -31.698414 3.5413747
-20.109486 -31.456041 3.5280111
-20.293457 -31.318691 3.5265055
-20.39999 -31.063766 3.5118246
-20.564837 -30.899885 3.5074956
-5.0182076 -7.4410348 0.84724182
-5.1008439 -7.4643531 0.85345292
-5.1663847 -7.4615612 0.85674673
-5.2143574 -7.4329805 0.8571232
-5.2644815 -7.4073377 0.85787606
-10.587222 -14.704388 1.7116266
-21.470203 -29.436592 3.4429374
-21.620245 -29.263462 3.4381378
-21.742727 -29.054529 3.4291975
-21.891729 -28.882488 3.4246802
-5.6766286 -7.394917 0.88008559
-5.6950092 -7.3253636 0.87594485
-5.7343068 -7.2832422 0.87509787
-4.0019236 -5.0193391 0.60566574
-4.0770521 -5.0496845 0.61234742
-4.0380106 -4.9390221 0.60190141
-22.762514 -27.494091 3.3729208
-23.251215 -27.736137 3.420069
-24.262356 -28.584206 3.5429745
-2.690851 -3.1313021 0.38912255
-2.6956363 -3.0982094 0.38705215
-2.6277251 -2.983005 0.37462986
-12.440438 -13.947822 1.7655507
-12.573161 -13.923687 1.7722324
-12.684556 -13.874934 1.7759026
-12.781625 -13.809994 1.7775966
-12.870886 -13.736392 1.7782553
-12.966576 -13.669438 1.7798551
-13.07641 -13.616906 1.7834313
-13.227725 -13.606368 1.7926539
-42.600765 -43.284977 5.7397447
-44.197838 -44.359932 5.9181743
-45.558674 -45.168034 6.0631952
-47.078285 -46.105259 6.2276964
-57.778587 -55.211681 7.5532122
-6.9610062 -6.5707583 0.90370679
-6.9378424 -6.4688573 0.89551938
-6.6368771 -6.112555 0.85175902
-6.5461178 -5.9551497 0.83538413
-6.3618546 -5.7165842 0.80733985
-6.3662825 -5.6503468 0.80348146
-6.3371978 -5.5553956 0.79548222
-6.2612772 -5.4212661 0.78174239
-6.2036262 -5.3051028 0.7704494
-6.1250134 -5.1731529 0.75670958
-6.0993004 -5.087647 0.74965149
-6.1073503 -5.031137 0.74682826
-6.0068159 -4.8867645 0.73082983
-6.0040898 -4.8236284 0.72687727
-5.9314013 -4.7056437 0.71454906
-5.9013834 -4.6231155 0.70749098
-5.8571911 -4.5307798 0.69883299
-5.813673 -4.440371 0.69036323
-5.7970901 -4.3716483 0.68518728
-5.7862725 -4.3080535 0.6807642
-5.7235541 -4.2070222 0.67031819
-5.7903557 -4.201642 0.67511767
-5.8184552 -4.1677732 0.67540002
-5.8691192 -4.1498103 0.67831737
-5.9369249 -4.1433463 0.68321103
-5.9753547 -4.1158757 0.68471676
-6.0128469 -4.0875292 0.68612838
-6.0394678 -4.0516677 0.68631661
-6.0716863 -4.0194798 0.68716353
-6.1145725 -3.9941261 0.68923396
-3.9757431 -2.5624316 0.44596395
-3.9493847 -2.5112805 0.44125855
-6.2587433 -3.9258645 0.69723314
-6.292027 -3.8931496 0.69826835
-6.3310933 -3.8638041 0.69996232
-6.3743005 -3.8366923 0.7021268
-6.444809 -3.8254559 0.70730275
-6.5033884 -3.806457 0.7111612
-6.5671496 -3.7898679 0.71558428
-6.6222968 -3.7677162 0.71906626
-6.6678672 -3.7396729 0.72151309
-6.7325101 -3.721808 0.72603029
-6.7945609 -3.7018607 0.73026514
-6.8250418 -3.6643386 0.73111212
-6.9186792 -3.6600986 0.7387349
-6.9772038 -3.6364422 0.74259335
-7.0356975 -3.6122043 0.7464518
-7.0968208 -3.5887327 0.75059259
-7.1498985 -3.560652 0.75388634
-7.1921711 -3.5267951 0.75605083
-7.2468486 -3.4986124 0.75953287
-7.2987518 -3.4686091 0.76273251
-7.3514605 -3.4385216 0.76602632
-7.4013605 -3.4066687 0.76903778
-7.4593072 -3.3780284 0.77289623
-7.5290027 -3.3540711 0.77797806
-7.6087136 -3.3337793 0.78409511
-7.682056 -3.3098774 0.7895534
-7.730639 -3.2747161 0.79247075
-7.801136 -3.2482667 0.7976467
-7.866991 -3.2191896 0.80235213
-7.9170775 -3.1831129 0.80545771
-8.0105371 -3.1637294 0.81298637
-8.0715675 -3.130718 0.81722122
-8.1380749 -3.0992017 0.82202077
-8.2128906 -3.0701237 0.8276673
-8.2614832 -3.0306435 0.83067876
-8.3501797 -3.0051782 0.83773685
-8.3994427 -2.9648204 0.84084243
-8.500268 -2.9418781 0.84912395
-8.5690699 -2.9069357 0.85420579
-8.6311483 -2.8690608 0.85862893
-8.7176952 -2.8385468 0.86549884
-8.799448 -2.8055656 0.87189817
-8.8877745 -2.7737634 0.87895632
-8.9598522 -2.7360396 0.88441455
-9.0251217 -2.6955407 0.8892141
-9.1437473 -2.6699693 0.89928371
-9.2212286 -2.6312964 0.90530664
-9.3484449 -2.6056712 0.91622317
-9.4209347 -2.5636833 0.92177558
-9.4951839 -2.5214143 0.92751616
-9.5837221 -2.4820738 0.93466842
-9.703022 -2.4495385 0.94483215
-9.7072353 -2.3873405 0.94379693
-9.804966 -2.3476679 0.95189023
-9.9549313 -2.3190815 0.96506542
-10.006842 -2.2665319 0.96873564
-10.088622 -2.2200644 0.9753232
-10.171179 -2.1728859 0.98200488
-10.203817 -2.1144757 0.98388708
-10.243929 -2.0573146 0.98652208
-10.325746 -2.0079114 0.99320382
-28.35623 -5.3333464 2.7263024
-28.463671 -4.9927101 2.7305374
-27.799759 -4.7006221 2.6640027
-28.277138 -4.6030536 2.7070103
-30.750057 -4.812098 2.9409635
-32.194744 -4.835978 3.0762913
-32.278008 -4.6461449 3.0814672
-16.670752 -2.2953925 1.5895681
-16.669718 -2.1911137 1.5881566
-16.489229 -2.064549 1.5697113
-16.31843 -1.8400718 1.551172
-16.332384 -1.7402256 1.5514543
-16.311069 -1.4348562 1.5466548
-16.325521 -1.3352333 1.5472194
-16.231155 -1.2273062 1.5375262
-16.219511 -1.1263804 1.5357382
-16.206245 -1.0255809 1.533856
-16.178438 -0.92419189 1.5306563
-16.1152 -0.82140946 1.5241629
-16.081148 -0.72077495 1.5204927
-16.026575 -0.61982006 1.5149403
-16.000225 -0.52050048 1.512117
-15.958333 -0.42113385 1.5078821
-15.901889 -0.32201895 1.5023297
-15.862752 -0.22386526 1.4984714
-15.808078 -0.12608507 1.4932013
-15.767736 -0.029011579 1.4893428
-15.745715 0.067643605 1.4872724
-15.701201 0.1637987 1.4831316
-15.690943 0.25998783 1.4822847
-15.910009 0.36128101 1.5031767
-16.06373 0.46340528 1.5179517
-16.156099 0.56530505 1.5269861
-16.615339 0.7856282 1.5712171
-17.326939 1.0325271 1.6396338
-16.811647 1.1053751 1.5914503
-17.800524 1.2801466 1.685841
-18.199276 1.4211259 1.7244254
-18.14954 1.5293399 1.720567
-90.363327 8.7331295 8.5804987
-90.217918 9.2781563 8.5719347
-90.138512 9.8292818 8.5699577
-18.709251 2.1562591 1.7791023
-18.83403 2.2878249 1.7922775
-92.37265 11.797162 8.8015585
-94.486145 12.656772 9.0101967
-96.180382 13.484972 9.1794977
-67.728226 18.163353 6.6272802
-67.59726 18.57357 6.6254921
-67.445602 18.977743 6.6219163
-67.296318 19.382132 6.6188107
-67.088272 19.768801 6.6101527
-66.928535 20.168871 6.6064825
-66.685539 20.542812 6.5948129
-66.540192 20.945921 6.5930247
-66.350716 21.334612 6.5870962
-66.164642 21.723627 6.5817318
-66.001785 22.119707 6.5789084
-65.839386 22.515572 6.5763679
-65.652046 22.902407 6.571568
-65.490585 23.297802 6.569592
-65.324875 23.691399 6.5674272
-65.150269 24.081423 6.5646043
-64.960289 24.465284 6.5604634
-64.798721 24.859491 6.5594282
-64.587479 25.234159 6.5535936
-63.401833 25.220423 6.4488511
-63.174835 25.580204 6.4416046
-62.982632 25.953321 6.4381227
-62.806591 26.332743 6.4365225
-62.636505 26.714497 6.43577
-62.478722 27.101494 6.4365225
-62.299408 27.479122 6.4352994
-62.16869 27.878384 6.4393458
-62.007328 28.264273 6.4404755
-61.860741 28.657185 6.4433928
-62.488113 29.414858 6.5274315
-62.462727 29.872463 6.5438061
-62.136082 30.658752 6.5485115
-62.020668 31.076454 6.5563226
-61.851006 31.467707 6.5586753
-61.677982 31.85759 6.5609341
-61.510445 32.250694 6.5640392
-61.334251 32.639668 6.5664864
-61.133701 33.015865 6.5665803
-60.957905 33.405666 6.569592
-60.773537 33.791161 6.5719447
-60.599743 34.182991 6.5757089
-60.428604 34.576923 6.5800381
-60.25922 34.972542 6.5848374
-60.084679 35.365868 6.5893545
-59.883648 35.74408 6.5912366
-59.689602 36.126827 6.5941544
-59.476143 36.498123 6.5951891
-68.70089 42.741508 7.6472263
-68.484497 43.191986 7.6524963
-68.32975 43.682705 7.6650128
-5.6288848 3.6471305 0.63286304
-5.5639601 3.653729 0.62806356
-4.1019936 2.9532738 0.47664326
-4.062078 2.9625475 0.47410235
-5.4648895 4.1949978 0.65008491
-5.4461203 4.2339501 0.65093184
-5.4255142 4.2715983 0.65159065
-5.4116564 4.3147388 0.65309638
-5.3788834 4.3428597 0.65234351
-5.3660078 4.387125 0.65403742
-5.350491 4.429491 0.65544903
-5.3300776 4.4679937 0.65629601
-5.3321629 4.5257401 0.65996623
-5.317884 4.5700526 0.66166019
-5.2649584 4.5810304 0.65855461
-5.2561731 4.6303606 0.66100144
-5.1659966 4.6075215 0.65319043
-2.1596661 2.1515038 0.28701502
-2.1842744 2.2028925 0.29209685
-2.1574814 2.2027392 0.2903088
-2.1404641 2.212358 0.28983825
-3.6685019 4.0824828 0.51767451
-3.6592431 4.122786 0.5199331
-61.99559 108.97237 11.850103
-61.21962 109.16142 11.829588
-60.32037 109.12199 11.784981
-59.393436 109.01971 11.73435
-58.565632 109.08825 11.702824
-57.714088 109.10323 11.666216
-56.844795 109.0739 11.625561
-0.83136368 1.6189548 0.17088535
-0.80928481 1.6000376 0.16834444
-0.81942201 1.6450762 0.1725793
-0.80755937 1.6464976 0.17220287
-0.79787427 1.6523182 0.17229699
-0.78515702 1.6517876 0.17173234
-49.738152 108.06814 11.244328
-49.042912 108.30237 11.237176
-12.171185 27.322393 2.8262455
-47.219173 107.77534 11.121517
-46.452206 107.81983 11.096484
-45.613087 107.68573 11.053665
-44.713463 107.39191 10.99513
-43.979782 107.48365 10.976685
-43.152336 107.33581 10.934336
-42.461842 107.51986 10.926336
-41.772152 107.70319 10.918714
-40.771099 107.06616 10.828558
-39.98999 106.98419 10.795243
-39.263538 107.03875 10.776234
-37.764145 106.9943 10.724286
-36.949345 106.76864 10.678738
-36.19503 106.70296 10.649752
-35.499123 106.80117 10.637612
-34.855774 107.05579 10.64147
-34.043102 106.78106 10.593193
-33.180553 106.32553 10.527599
-32.479851 106.37096 10.512165
-31.793793 106.45856 10.501343
-30.370262 106.43861 10.461818
-29.538855 105.98521 10.399236
-28.818716 105.9099 10.374297
-28.108538 105.85957 10.352276
-27.415535 105.86428 10.336089
-25.988117 105.67939 10.286118
-25.312069 105.72358 10.275106
-19.288589 85.166855 8.2533779
-17.346365 78.833344 7.6290631
-16.91827 79.200195 7.6543784
-20.417561 105.00761 10.110888
-19.800833 105.27962 10.125192
-17.719044 104.79483 10.045483
-17.058105 104.79349 10.035131
-5.7118907 39.682354 3.7885971
-14.379505 104.44184 9.9646435
-13.719062 104.38104 9.9506216
-12.409826 104.31217 9.9287882
-11.766422 104.35865 9.9261532
-11.103509 104.21902 9.9062023
-10.503581 104.68142 9.9438457
-10.248036 108.85432 10.334112
-9.3752623 114.64359 10.872036
-8.672246 114.70689 10.872788
-0.11572845 63.228088 5.9756742
0.27028647 62.775627 5.9329491
0.65522623 62.749889 5.9307847
1.0397449 62.714828 5.9279613
1.4264131 62.789875 5.9357724
1.8110545 62.759045 5.9337959
2.1960678 62.74575 5.933702
2.9617033 62.625576 5.9253263
3.3460705 62.609207 5.9256086
3.7227662 62.463272 5.9138451
4.1040692 62.410442 5.9111161
4.4024405 61.20937 5.7997861
4.7717299 61.101803 5.7922573
5.1452994 61.056496 5.7908454
5.5200176 61.025757 5.7910337
5.8926368 60.972897 5.78934
6.267158 60.940544 5.7898102
6.640964 60.900948 5.7898102
7.1567869 62.093338 5.9072576
7.53789 62.050232 5.9074459
7.924787 62.052189 5.9121513
8.3085546 62.026081 5.9144096
8.6873255 61.962105 5.9132805
9.070672 61.930283 5.9154449
9.4497471 61.868538 5.9149742
9.8334084 61.835938 5.9175153
10.215565 61.792118 5.9192095
10.599912 61.759678 5.9222207
10.984069 61.723862 5.925138
11.369269 61.691521 5.9286203
4.4889665 19.595848 1.8991845
16.841269 28.612606 3.1372736
37.981697 55.578457 6.3621774
32.259903 42.02327 5.0067353
31.796698 40.897881 4.8957815
33.446896 41.947773 5.0702581
34.288902 41.416279 5.0814571
34.631924 41.311916 5.0946321
36.151356 42.590839 5.2796493
34.432877 40.065357 4.992619
35.672855 40.492142 5.0999966
35.937202 40.291069 5.1023493
31.389204 33.090263 4.3102393
38.918633 40.032116 5.2765436
34.183228 34.308655 4.5769424
34.391682 34.096863 4.5767541
34.680149 33.549046 4.5600028
38.728241 37.007767 5.0624471
29.844694 28.170628 3.8782823
30.354919 25.957329 3.7742927
30.486155 25.428553 3.7515185
30.509439 25.132141 3.7353318
32.395329 26.353643 3.9464169
32.445435 26.065214 3.9329593
33.582809 26.641531 4.050971
33.750347 26.438652 4.0515356
28.126326 21.755909 3.360122
35.650055 25.534948 4.1440444
35.181862 24.552011 4.054265
30.4027 20.125736 3.445384
30.55479 19.957863 3.4486778
28.683329 18.485386 3.2245119
31.142696 19.800945 3.4873564
34.473553 21.622837 3.8455327
37.518803 23.213331 4.1693592
34.092979 19.953754 3.7329791
34.108711 19.682983 3.7214038
34.694386 19.73818 3.7720339
34.321888 18.426367 3.6812196
33.099297 17.250139 3.52707
36.69936 18.840899 3.8984215
36.771633 18.593798 3.8939042
31.071463 15.235639 3.2700603
33.986214 15.895672 3.5455153
34.103004 15.695993 3.5475857
33.282692 15.071662 3.4525363
33.077164 14.73469 3.4217629
34.567604 15.145113 3.5663133
34.640678 14.924453 3.564337
34.277828 14.519414 3.5177534
34.798241 14.488668 3.5619843
34.581768 13.903093 3.5220823
34.746056 13.722091 3.5301757
37.827675 14.671417 3.8341455
38.012814 14.475527 3.8438387
39.713543 14.291853 3.9885774
32.057373 10.437552 3.1857393
31.69171 9.8900452 3.1370852
31.891764 9.7381401 3.1509192
31.921345 9.5334406 3.1480019
31.509386 8.9907608 3.0962422
31.521763 8.7854929 3.0921016
31.924746 8.6870604 3.1263568
3.9903243 1.0597382 0.38912255
3.9726572 1.0289944 0.38676983
3.95766 0.99923867 0.38469943
3.9569495 0.97327197 0.38404068
3.9521966 0.94642442 0.3830055
3.9521117 0.92080122 0.38244084
3.9343841 0.89125651 0.38018224
0.76423776 0.16836613 0.072824493
0.79543793 0.17012082 0.07574185
0.80329078 0.16665086 0.076400608
0.80136997 0.16113079 0.076118283
0.81016165 0.15773077 0.076871149
0.81404942 0.15330879 0.077153474
0.80420011 0.1463529 0.076118283
0.80606359 0.14158766 0.076212391
0.80200905 0.1358092 0.07574185
0.79791409 0.13008586 0.075271308
0.79869723 0.1251875 0.075271308
0.78665161 0.11836202 0.074047901
0.81101286 0.11693702 0.0763065
0.81861889 0.11290904 0.076965258
0.81633508 0.10749477 0.076682933
0.80611295 0.10112341 0.075647742
0.80276382 0.095704846 0.075271308
0.80828243 0.091335088 0.07574185
0.8187272 0.087428525 0.076682933
0.82222003 0.082701437 0.076965258
0.82568562 0.077934772 0.077247582
0.90052813 0.079409145 0.084305711
0.98335528 0.080616899 0.092116699
1.040417 0.07885959 0.097480871
1.0647173 0.074129254 0.09973947
1.0611777 0.067343421 0.099363036
1.0665407 0.061114721 0.099833578
1.0897639 0.055734731 0.10199807
1.129868 0.050829615 0.10576241
1.1172259 0.043395922 0.10453899
1.1085159 0.036248721 0.10369202
1.111703 0.029525066 0.10397434
1.1048957 0.022562221 0.10331558
1.100036 0.015712105 0.10284504
1.1040939 0.008993824 0.10322148
1.1118771 -0.00074931519 0.082689315
1.1118516 -0.0075716511 0.082689315
1.1087929 -0.014356778 0.082464382
1.1176571 -0.021325763 0.083139189
1.1214926 -0.028281348 0.083439104
1.1163145 -0.03500887 0.083064213
1.1250472 -0.042188756 0.08373902
1.1207821 -0.04891957 0.083439104
1.0955613 -0.054570634 0.081564635
1.1181061 -0.062559389 0.083289146
1.1077482 -0.068806596 0.082539357
1.1083 -0.075669639 0.08261434
1.1316823 -0.084230885 0.084413826
1.1251801 -0.090696 0.083963953
1.121622 -0.097341388 0.08373902
1.1259683 -0.1046803 0.084113911
1.1332438 -0.11236963 0.084713742
1.1493928 -0.12108725 0.08598838
1.1753881 -0.13110703 0.088012807
1.2052641 -0.14191452 0.09033715
1.2202054 -0.15126139 0.091536805
1.2182655 -0.15861738 0.09146183
1.2202337 -0.16649234 0.091686763
1.2211636 -0.17425708 0.091836721
1.2121804 -0.18057562 0.091236889
1.1745872 -0.18236986 0.088462681
1.1202826 -0.1810156 0.084413826
1.1447222 -0.19216359 0.086363271
1.1415566 -0.19884276 0.086213313
1.1177423 -0.20178223 0.084488809
0.99002123 -0.18508212 0.074816547
0.99767959 -0.19285075 0.075491361
0.97104925 -0.1939089 0.073541909
0.98644674 -0.20327383 0.074816547
0.97152317 -0.20643036 0.07376685
0.95854712 -0.20983668 0.072867103
0.9883756 -0.22270797 0.075266421
0.97533154 -0.2260741 0.074366674
0.96519434 -0.22998008 0.073691867
0.95407754 -0.23353383 0.072942078
0.94488835 -0.23744462 0.072342254
0.97335279 -0.25093502 0.074666589
1.005543 -0.26580027 0.077290848
24.930286 -6.9017382 1.9441112
24.710939 -7.0045438 1.9303151
24.736452 -7.1760373 1.9357136
24.867855 -7.3798785 1.9495097
26.75823 -8.1197929 2.1016417
27.096497 -8.4043427 2.1322329
24.53483 -7.7752161 1.934289
24.183065 -7.8273563 1.9102958
24.124168 -7.9721522 1.909471
24.01338 -8.0993118 1.9045974
29.426878 -10.328925 2.3440478
23.450882 -8.3934469 1.8719068
23.328358 -8.6739912 1.8704821
23.265369 -8.8134356 1.8697324
21.025261 -8.4106255 1.70178
21.000042 -8.5503807 1.7039543
26.39035 -11.12437 2.152477
26.26569 -11.262118 2.1479034
23.016014 -10.204984 1.892151
22.9466 -10.343147 1.8916261
22.744905 -10.420621 1.8802294
22.223106 -10.347021 1.8422902
20.164368 -9.5395279 1.6763622
22.69125 -10.905761 1.892076
22.665127 -11.064909 1.895525
22.591446 -11.201114 1.8950752
22.593546 -11.375394 1.9010735
22.187605 -11.514463 1.8786548
22.096243 -11.639698 1.8769302
21.966366 -11.74403 1.8719817
23.587299 -12.797296 2.0168407
21.760319 -11.979526 1.8668082
21.561907 -12.043286 1.8560863
20.191406 -11.440952 1.744068
20.06241 -11.695403 1.7451926
19.991989 -11.819298 1.7453426
19.937052 -11.952512 1.7469171
19.846601 -12.231847 1.7520157
22.635546 -14.142988 2.0059686
19.358229 -12.596663 1.7356703
20.948017 -13.814787 1.8858528
19.91272 -13.308104 1.7999271
20.271599 -13.728617 1.8399658
19.871532 -13.816393 1.8188968
26.015652 -18.325869 2.3918092
19.548698 -13.95089 1.8048757
20.578764 -14.877363 1.9084214
19.552221 -14.318756 1.8212961
20.894583 -15.699273 1.9642055
20.83357 -15.854359 1.9675796
22.445097 -17.299164 2.1298335
22.322948 -17.869526 2.1491032
22.184996 -17.983557 2.1464038
22.056505 -18.10479 2.1446793
19.571465 -16.267096 1.9126202
19.115341 -16.288736 1.8874273
18.787016 -16.209 1.8647838
22.450407 -20.1021 2.2649453
21.405622 -19.64521 2.1836684
21.050571 -20.544001 2.2107356
25.974195 -25.661964 2.7445092
25.750675 -25.755276 2.7375362
24.445343 -25.366859 2.6479366
24.474184 -25.710663 2.6681058
24.109669 -25.640957 2.6454623
24.273771 -26.786793 2.7171419
24.182112 -27.016962 2.7253895
23.861988 -26.990763 2.7079196
19.426664 -24.277451 2.3369997
24.100971 -30.500416 2.9219837
23.826263 -30.536085 2.9113369
22.533215 -29.247211 2.7751756
22.388954 -29.431746 2.7795992
19.306326 -26.036551 2.4362717
19.140903 -26.147282 2.4355967
22.000444 -30.443525 2.8233118
17.306026 -25.22963 2.2995105
17.110645 -25.275888 2.294112
16.98016 -25.417715 2.2974861
16.950115 -25.71291 2.3147311
17.006798 -26.146612 2.3443477
19.247087 -29.991735 2.6786029
19.089905 -30.152235 2.6824267
18.926193 -30.303478 2.6855009
18.52338 -30.484877 2.6812272
17.079163 -29.72843 2.5770066
17.842312 -31.958349 2.7511823
17.917515 -32.560829 2.7935452
18.448545 -34.018326 2.9088626
17.398645 -33.541321 2.8401821
17.154852 -33.573742 2.8339589
16.367344 -33.542377 2.8053918
7.7825608 -16.459429 1.3680496
7.7436919 -16.640676 1.3791465
7.6509905 -16.708729 1.3808711
7.5675755 -16.798092 1.384395
7.477695 -16.874294 1.3868693
7.3787971 -16.930828 1.3877691
14.45423 -34.307343 2.7982688
14.239638 -34.386173 2.7975192
13.656666 -34.158329 2.7651284
13.327983 -33.9389 2.7406852
13.136352 -34.063766 2.7442093
