# .PCD v0.7 - Point Cloud Data file format
VERSION 0.7
FIELDS x y z
SIZE 4 4 4
TYPE F F F
COUNT 1 1 1
WIDTH 1437
HEIGHT 1
VIEWPOINT 0 0 0 1 0 0 0
POINTS 1437
DATA ascii
2.6727331 -0.69688368 -0.650563
2.6778078 -0.71578401 -0.65286517
2.6827509 -0.7347728 -0.6551674
2.6884985 -0.75411201 -0.65769982
2.6623085 -0.76441514 -0.65240479
2.6641035 -0.78265703 -0.65401632
2.6434078 -0.79422706 -0.65010256
2.5863926 -0.79442573 -0.63721025
2.5944676 -0.81436199 -0.64043337
2.6413138 -0.84691006 -0.65332562
2.6027746 -0.85219663 -0.64503771
2.6030343 -0.87000233 -0.64641905
2.6068571 -0.88910002 -0.64872122
2.5848095 -0.89932108 -0.64457732
2.5728233 -0.91288573 -0.64296573
2.5717487 -0.93031073 -0.64411688
2.5732961 -0.94876701 -0.6459586
2.4899964 -0.9354409 -0.62638992
2.5314684 -0.96879286 -0.63836139
2.534543 -0.9878422 -0.64066356
2.5130577 -0.99727166 -0.6367498
2.4960642 -1.0082978 -0.63398719
2.5114307 -1.0324769 -0.63951248
2.5014575 -1.0463649 -0.63859159
2.4887221 -1.0590259 -0.63698006
2.499145 -1.0816221 -0.6413542
2.4550538 -1.0804687 -0.63168502
2.4821308 -1.1106189 -0.64043337
2.4274373 -1.104067 -0.62800151
2.4550655 -1.1348686 -0.63698006
2.4718366 -1.1610845 -0.64319599
2.4760826 -1.1816794 -0.64618886
2.4521484 -1.1887827 -0.64181465
2.4596491 -1.2111158 -0.64572841
2.4530418 -1.2266206 -0.6459586
2.4289837 -1.2332767 -0.64158446
2.4222357 -1.2486035 -0.64181465
2.4257371 -1.2693089 -0.64480752
2.4041529 -1.2768644 -0.64112401
2.4108348 -1.2994426 -0.64503771
2.4087923 -1.3174802 -0.6466493
2.3853478 -1.3237343 -0.64250535
2.3407192 -1.3178133 -0.63260585
2.3283644 -1.3297374 -0.63145477
2.3277395 -1.3483897 -0.63352674
2.2682428 -1.3325728 -0.61948335
2.255008 -1.3434764 -0.61810201
2.2517192 -1.3603073 -0.61948335
2.2416706 -1.3730811 -0.61902291
2.2216301 -1.3796215 -0.61579984
2.2238286 -1.399968 -0.61879271
2.1996112 -1.403639 -0.61441851
2.1917741 -1.4176376 -0.61464876
2.1846621 -1.4321268 -0.61510921
2.1798861 -1.4481975 -0.61626029
2.1661162 -1.4582845 -0.61487895
2.159539 -1.4731936 -0.61556965
2.1408534 -1.4797755 -0.61280698
2.1301391 -1.4917672 -0.61234653
2.1130097 -1.4991775 -0.61004436
2.1085122 -1.5155227 -0.6114257
2.1219859 -1.5450455 -0.61810201
2.0944541 -1.5447495 -0.61280698
2.0802591 -1.5540767 -0.6114257
2.0652525 -1.5627009 -0.60981417
2.0316825 -1.556991 -0.60267735
2.0144036 -1.5634604 -0.60037512
1.9948272 -1.5679724 -0.59738231
1.9623294 -1.5619988 -0.59047568
1.9224049 -1.5495783 -0.58126694
1.9799507 -1.6161182 -0.60175645
1.9924979 -1.6468378 -0.60866302
1.9435527 -1.6265514 -0.59669161
1.9543219 -1.6560639 -0.60313779
1.9204922 -1.6477444 -0.59577072
1.8728815 -1.6269459 -0.58402956
1.8694395 -1.6441919 -0.58610153
1.904371 -1.6957598 -0.60037512
1.9026028 -1.7152331 -0.60313779
1.8927613 -1.727531 -0.60336798
1.8878429 -1.7443962 -0.60520977
1.8664451 -1.7459739 -0.60175645
1.8429799 -1.7453474 -0.5976125
1.8111643 -1.7364167 -0.59070593
1.8235177 -1.7698658 -0.59830314
1.8105414 -1.778975 -0.5976125
1.8016614 -1.7921098 -0.59830314
1.8112006 -1.8238481 -0.60520977
1.7952058 -1.8300637 -0.60359824
1.750087 -1.8060976 -0.59208721
1.7234974 -1.8006312 -0.58679217
1.7064 -1.8048078 -0.58472019
1.7052559 -1.8259133 -0.58817351
1.7012776 -1.8442109 -0.59070593
1.6800992 -1.8438243 -0.58725262
1.6739616 -1.8598856 -0.5890944
1.6566998 -1.8635756 -0.58702242
1.6105657 -1.8342146 -0.57459056
1.5999182 -1.8447975 -0.57482076
1.5967975 -1.8641886 -0.57781363
1.5897279 -1.8791523 -0.57942516
1.5837827 -1.895593 -0.58149713
1.5789336 -1.9135326 -0.58402956
1.5683919 -1.9246936 -0.58449
1.5559428 -1.9335227 -0.58425975
1.5440496 -1.9430333 -0.58425975
1.5224876 -1.9402207 -0.58057624
1.5248569 -1.9679893 -0.58610153
1.5139353 -1.9788545 -0.58656198
1.5011783 -1.9873301 -0.58633173
1.5000082 -2.0113266 -0.59070593
1.4934076 -2.0283296 -0.5930081
1.4786456 -2.0343058 -0.59208721
1.465001 -2.041759 -0.59162676
1.4468218 -2.0427678 -0.58932459
1.4359328 -2.0539997 -0.59001523
1.4216448 -2.0603685 -0.58932459
1.3947369 -2.0481384 -0.58333892
1.3837715 -2.0590811 -0.58402956
1.3716489 -2.0683439 -0.58425975
1.3477442 -2.0596199 -0.57942516
1.3345535 -2.0670331 -0.57919496
1.3249816 -2.0801077 -0.58057624
1.3178878 -2.0972629 -0.58310866
1.2793638 -2.0639508 -0.5715977
1.274796 -2.085047 -0.5752812
1.3097085 -2.1720035 -0.59715205
1.3122703 -2.2067661 -0.60451907
1.2706522 -2.1669242 -0.59139657
1.2500273 -2.1620424 -0.58794326
1.2218014 -2.1434615 -0.58080649
1.2219716 -2.174674 -0.58725262
1.203891 -2.1736176 -0.58495045
1.1844711 -2.1698587 -0.58195758
1.1637601 -2.1633728 -0.57827407
1.1604884 -2.1893899 -0.58333892
1.1614445 -2.2240741 -0.59070593
1.1428802 -2.2216394 -0.58817351
1.132745 -2.2355552 -0.59001523
1.1203098 -2.2450757 -0.59070593
1.1026517 -2.2440467 -0.58863395
1.1024201 -2.2788041 -0.59600097
1.1038944 -2.3180351 -0.60451907
1.0937796 -2.3335769 -0.6068213
1.0765879 -2.3340583 -0.60520977
1.0622462 -2.34062 -0.60520977
1.0478644 -2.3470938 -0.60520977
1.033052 -2.3525882 -0.60497952
1.0212972 -2.3651369 -0.60659105
1.0044845 -2.365984 -0.60520977
0.98807472 -2.3676121 -0.60405862
0.97722054 -2.3826344 -0.60636085
0.96076435 -2.3840725 -0.60520977
0.94146258 -2.3781595 -0.6022169
0.91909671 -2.3639369 -0.59715205
0.89694118 -2.3495297 -0.59208721
0.88455623 -2.3604567 -0.59346855
0.8650192 -2.3521392 -0.59001523
0.85519296 -2.3702185 -0.59323835
0.83414239 -2.3570728 -0.58863395
0.82380986 -2.3740988 -0.59162676
0.81925189 -2.4085917 -0.59899384
0.80445766 -2.413573 -0.59899384
0.78600979 -2.4073625 -0.59623116
0.77863026 -2.4353137 -0.60198665
0.76338214 -2.4391167 -0.60175645
0.74868655 -2.4446852 -0.60198665
0.72446024 -2.4184692 -0.59438944
0.70577925 -2.4097936 -0.59116638
0.68910593 -2.4075296 -0.58955479
0.67327285 -2.4079638 -0.58863395
0.65336144 -2.3932731 -0.58402956
0.64667779 -2.4273288 -0.59139657
0.63446289 -2.441612 -0.59392899
0.62185812 -2.4548926 -0.59623116
0.60608429 -2.4558277 -0.59554052
0.59077698 -2.458554 -0.59531033
0.57479459 -2.4583423 -0.59438944
0.56120914 -2.4684653 -0.59600097
0.54374444 -2.4614098 -0.59346855
0.52781534 -2.4608936 -0.59254766
0.51785719 -2.4888577 -0.59853339
0.50565267 -2.5072515 -0.6022169
0.48895395 -2.5036211 -0.60060537
0.47231883 -2.4998806 -0.59899384
0.45627218 -2.4989023 -0.59807295
0.43552849 -2.4709864 -0.59070593
0.4213362 -2.4793687 -0.59208721
0.40014753 -2.4454129 -0.58333892
0.38558865 -2.450706 -0.58402956
0.37010843 -2.450139 -0.58333892
0.3566004 -2.4629581 -0.58587128
0.34214842 -2.4699194 -0.58702242
0.32609427 -2.465219 -0.58541089
0.30998909 -2.4594495 -0.58356911
0.29697427 -2.4786975 -0.58771306
0.28219861 -2.4843409 -0.58863395
0.26487377 -2.4666741 -0.58402956
0.25423491 -2.5127902 -0.59461963
0.24019065 -2.5288346 -0.59807295
0.22613092 -2.5467396 -0.60198665
0.21042015 -2.5471091 -0.60175645
0.19449116 -2.5444713 -0.60083556
0.18010092 -2.5630903 -0.60497952
0.1655516 -2.5825989 -0.60935372
0.14942098 -2.5787084 -0.60820258
0.1338969 -2.5854077 -0.60958391
0.11816341 -2.5890973 -0.61027455
0.10196838 -2.5819943 -0.60843283
0.086446971 -2.5922976 -0.610735
0.07140936 -2.6248808 -0.61833227
0.05540403 -2.6301341 -0.61948335
0.039235935 -2.6284788 -0.61902291
0.022954965 -2.6111541 -0.61487895
0.0068806284 -2.5908098 -0.61004436
-0.0090059508 -2.5878839 -0.60935372
-0.025177939 -2.6179459 -0.61649048
-0.041271735 -2.619688 -0.61695093
-0.05740926 -2.6223042 -0.61764163
-0.072321512 -2.5800743 -0.60774219
-0.08841788 -2.5873623 -0.60958391
-0.10389894 -2.5770478 -0.60728174
-0.11930203 -2.5676129 -0.60520977
-0.13397849 -2.5464251 -0.60037512
-0.15022968 -2.556241 -0.60290754
-0.16559587 -2.5504158 -0.60175645
-0.18214026 -2.5619705 -0.60474932
-0.19823211 -2.5656557 -0.60590041
-0.21348485 -2.5585728 -0.60451907
-0.2287451 -2.5523684 -0.60336798
-0.24300817 -2.5363865 -0.59991467
-0.25836885 -2.5329113 -0.59945428
-0.27463919 -2.5380507 -0.60106581
-0.29231101 -2.5546873 -0.60543996
-0.30751413 -2.5489812 -0.60451907
-0.32425186 -2.5557349 -0.60659105
-0.33902791 -2.5469449 -0.60497952
-0.35841304 -2.5718031 -0.6114257
-0.37460762 -2.5724447 -0.61211634
-0.39301705 -2.5874152 -0.61626029
-0.40523443 -2.5618868 -0.610735
-0.42379081 -2.5766361 -0.61487895
-0.4338555 -2.5404141 -0.6068213
-0.45215192 -2.5530355 -0.61050481
-0.4679842 -2.5511703 -0.610735
-0.48090583 -2.5339098 -0.60728174
-0.49344596 -2.5156326 -0.60359824
-0.51157802 -2.5259104 -0.6068213
-0.52507591 -2.5131981 -0.60451907
-0.54745537 -2.5422735 -0.61234653
-0.57105422 -2.5749679 -0.62109488
-0.58619332 -2.5685694 -0.62040424
-0.60127544 -2.5620821 -0.6197136
-0.63113582 -2.616996 -0.63398719
-0.6549049 -2.6442454 -0.64158446
-0.6720767 -2.6439495 -0.64250535
-0.6919713 -2.6539004 -0.6459586
-0.71905208 -2.6900294 -0.65585804
-0.73657286 -2.6893208 -0.65677893
-0.75989598 -2.7091115 -0.66276467
-0.77811635 -2.7100098 -0.66414595
-0.79610193 -2.7098525 -0.66529703
-0.8132745 -2.7067807 -0.66575748
-0.79756975 -2.5966249 -0.63974267
-0.78725016 -2.5081222 -0.61902291
-0.82818544 -2.5829356 -0.63882178
-0.84432137 -2.5787299 -0.63905203
-0.87463081 -2.6168783 -0.64987236
-0.92366445 -2.7081685 -0.67404538
-0.93066812 -2.6748781 -0.66713881
-0.91907024 -2.5902479 -0.64733994
-0.94156885 -2.6028612 -0.65194434
-0.98951137 -2.6837721 -0.67381519
-1.0059601 -2.67765 -0.67381519
-1.0164564 -2.655977 -0.66990143
-1.0277853 -2.6369967 -0.66667837
-1.0432283 -2.6288319 -0.66621792
-1.0640783 -2.6341107 -0.66921079
-1.0879931 -2.6464322 -0.67404538
-1.0880591 -2.6011047 -0.66414595
-1.0959951 -2.5755758 -0.65931135
-1.1191235 -2.5857704 -0.6636855
-1.1451626 -2.6020122 -0.66967124
-1.1734304 -2.6224718 -0.67680806
-1.154843 -2.5390453 -0.65700912
-1.1385443 -2.4630151 -0.63905203
-1.1792928 -2.5105903 -0.65332562
-1.2139593 -2.5437047 -0.66391575
-1.2265722 -2.5300786 -0.66230422
-1.2554023 -2.5495679 -0.66944098
-1.2805995 -2.5609646 -0.67450583
-1.3055427 -2.5712795 -0.67934042
-1.3328903 -2.5857089 -0.68532616
-1.3239114 -2.5300615 -0.67266411
-1.343063 -2.5287657 -0.67450583
-1.3437761 -2.4930665 -0.66713881
-1.3445693 -2.4583089 -0.66000199
-1.3539605 -2.4398022 -0.65723938
-1.3603104 -2.4161856 -0.65309542
-1.3427701 -2.3511791 -0.6376707
-1.3518049 -2.3336334 -0.63513827
-1.3774378 -2.3445921 -0.64043337
-1.4376289 -2.4130049 -0.66161352
-1.4584471 -2.4141331 -0.6643762
-1.4732324 -2.4051387 -0.6643762
-1.4920701 -2.402667 -0.66621792
-1.5000436 -2.3827615 -0.66322505
-1.5125414 -2.3702314 -0.66230422
-1.536571 -2.375613 -0.66644818
-1.6322254 -2.4898379 -0.70144153
-1.6437019 -2.4741023 -0.69983
-1.674071 -2.4865716 -0.70627612
-1.6695514 -2.4473145 -0.69798821
-1.6734681 -2.421015 -0.69338387
-1.6855003 -2.4067159 -0.69223273
-1.6996726 -2.395535 -0.69200253
-1.7399015 -2.4206173 -0.70236242
-1.722067 -2.3650575 -0.68923992
-1.7232591 -2.3364351 -0.68394482
-1.76261 -2.359338 -0.69384426
-1.7653081 -2.3329592 -0.68923992
-1.7718934 -2.312043 -0.68624705
-1.7693375 -2.2796037 -0.67980087
-1.7700599 -2.251874 -0.67473608
-1.7735395 -2.2280283 -0.67082232
-1.7853447 -2.2148316 -0.67013168
-1.7921313 -2.1955431 -0.66759926
-1.761546 -2.1312532 -0.65125364
-1.7745899 -2.1204047 -0.65125364
-1.7668034 -2.0849779 -0.64365643
-1.7763946 -2.0704055 -0.64250535
-1.8005537 -2.0726891 -0.6466493
-1.8074527 -2.0550263 -0.64457732
-1.8387977 -2.0649714 -0.65125364
-1.8553437 -2.0579863 -0.65263498
-1.9230486 -2.1069345 -0.67197341
-1.9392428 -2.0986683 -0.67312455
-1.9574026 -2.0924149 -0.67496628
-1.9755582 -2.0860171 -0.67680806
-1.9930354 -2.0787725 -0.67841959
-2.0104978 -2.0713921 -0.68003112
-2.0299909 -2.0659575 -0.68233329
-2.0659652 -2.0769184 -0.69016075
-2.0848854 -2.0703735 -0.69223273
-2.1163082 -2.0759397 -0.69844866
-2.130404 -2.0642693 -0.6989091
-2.1388116 -2.0471215 -0.69752783
-2.1485035 -2.0312855 -0.69660693
-2.158793 -2.016072 -0.69591624
-2.1882908 -2.0186222 -0.70144153
-2.1804931 -1.986807 -0.6949954
-2.2085574 -1.9877108 -0.70006019
-2.2127111 -1.9670107 -0.69752783
-2.2027993 -1.9341366 -0.6906212
-2.2278597 -1.9320592 -0.69476515
-2.246325 -1.9240497 -0.69683713
-2.2536304 -1.9064597 -0.69545585
-2.2563236 -1.8851095 -0.69269317
-2.3534241 -1.9418262 -0.71893823
-2.400754 -1.956238 -0.72975856
-2.387691 -1.9213401 -0.72216129
-2.3849583 -1.8951519 -0.71778715
-2.4547305 -1.9261326 -0.73528379
-2.4726572 -1.915802 -0.73712558
-2.5121922 -1.9218779 -0.74541348
-2.524714 -1.9070137 -0.74564368
-2.5457294 -1.8984668 -0.74840635
-2.5596814 -1.8845414 -0.74909699
-2.569622 -1.8676558 -0.74863654
-2.5731261 -1.8461813 -0.74633437
-2.5867884 -1.8320454 -0.74702501
-2.593195 -1.8127936 -0.74564368
-2.6851735 -1.8526587 -0.76889586
-2.7029259 -1.8405293 -0.77073765
-2.7004366 -1.8146837 -0.76682389
-2.7618065 -1.8314201 -0.78109753
-2.7689202 -1.8117758 -0.77994639
-2.7824378 -1.7963351 -0.78063709
-2.8131073 -1.7917739 -0.78616232
-2.8116882 -1.7667142 -0.78270906
-2.8150311 -1.7448151 -0.78063709
-2.836478 -1.7341074 -0.78362989
-2.8662333 -1.7282262 -0.78892499
-2.8717647 -1.7076231 -0.78754365
-2.8863862 -1.6924309 -0.78869474
-2.8916609 -1.6717665 -0.78731346
-2.8908732 -1.6477284 -0.78432059
-2.8958385 -1.6270996 -0.78293926
-2.8998082 -1.6060007 -0.78132772
-2.8369997 -1.5485528 -0.76175904
-2.8807304 -1.5495532 -0.77096784
-2.877286 -1.5250132 -0.76751453
-2.9271336 -1.5284973 -0.77833486
-2.8577061 -1.4700066 -0.7573849
-2.8970561 -1.4678357 -0.76544255
-2.910362 -1.4522041 -0.76659369
-2.8956349 -1.4227344 -0.76037776
-2.9253354 -1.4151092 -0.765903
-2.9067254 -1.3841652 -0.75876623
-2.902827 -1.360523 -0.75554311
-2.875772 -1.3263859 -0.74633437
-2.8679049 -1.3014783 -0.74219042
-2.872282 -1.2822702 -0.74126953
-2.8961351 -1.271663 -0.74541348
-2.9539161 -1.2754674 -0.75830579
-2.9634783 -1.2580788 -0.75876623
-2.9819191 -1.244368 -0.76152885
-2.945379 -1.2079581 -0.75024807
-2.9680805 -1.1960448 -0.75416183
-2.9735537 -1.1770943 -0.75370139
-2.9852555 -1.1605895 -0.75485247
-2.9868653 -1.1401687 -0.75347114
-2.9928937 -1.1214788 -0.75324094
-2.9823647 -1.0967135 -0.74886674
-2.9981918 -1.0816953 -0.75116897
-2.9625714 -1.0483488 -0.74057883
-3.0553713 -1.0601295 -0.76221949
-3.1014361 -1.0548328 -0.77211893
-3.1337006 -1.0443962 -0.77856511
-3.1354244 -1.0236387 -0.77741396
-3.129596 -1.0005295 -0.77442116
-3.1245313 -0.97782099 -0.77165848
-3.1667621 -0.96974051 -0.78063709
-3.1875687 -0.95475775 -0.78432059
-3.2027063 -0.93791544 -0.78662276
-3.2140145 -0.9198525 -0.7880041
-3.2083514 -0.89697105 -0.78524148
-3.2325709 -0.88239175 -0.78984582
-3.2115941 -0.85552871 -0.7833997
-3.2167833 -0.83580661 -0.7833997
-3.2077005 -0.81247014 -0.77994639
-3.1360953 -0.77389413 -0.7612986
-3.1597095 -0.75918227 -0.765903
-3.1756794 -0.74243784 -0.76866567
-3.1536045 -0.71690035 -0.76221949
-3.1493919 -0.69564843 -0.76014751
-3.1545525 -0.67651498 -0.76037776
-3.1719828 -0.65992016 -0.76360083
-3.1836038 -0.64198309 -0.76544255
-3.179842 -0.62094539 -0.76360083
-3.1902859 -0.60268652 -0.76521236
-3.2178571 -0.58746725 -0.77096784
-3.2271514 -0.56872469 -0.77234918
-3.2468903 -0.55168247 -0.77626288
-3.2540557 -0.53237772 -0.77718377
-3.257261 -0.51240116 -0.77718377
-3.2507215 -0.49095288 -0.7748816
-3.2604144 -0.47197291 -0.77649313
-3.2748163 -0.45355967 -0.77925575
-3.2688549 -0.43230966 -0.77718377
-3.2685494 -0.41187942 -0.77649313
-3.2855086 -0.39355111 -0.77994639
-3.2888286 -0.37349397 -0.78017664
-3.2755771 -0.35164633 -0.77649313
-3.2612135 -0.32987759 -0.77257937
-3.2438004 -0.30802271 -0.76797497
-3.2436907 -0.28794137 -0.76751453
-3.2143614 -0.26547247 -0.76014751
-3.2324252 -0.24700363 -0.76406127
-3.2552366 -0.22866362 -0.76912612
-3.2604628 -0.20893417 -0.77004695
-3.2509968 -0.18830629 -0.76751453
-3.2686124 -0.16920893 -0.77142829
-3.254035 -0.14844164 -0.76774478
-3.2782218 -0.12939169 -0.77327001
-3.2488034 -0.10827212 -0.76613325
-3.2328694 -0.087887593 -0.76221949
-3.2216725 -0.067804672 -0.75945687
-3.222028 -0.048035588 -0.75945687
-3.2475629 -0.02848452 -0.76544255
-3.2535152 -0.0085722161 -0.76682389
-3.2418289 0.011349293 -0.76406127
-3.2358596 0.031183818 -0.76267993
-3.2609057 0.051439237 -0.76866567
-3.2303689 0.070783459 -0.76152885
-3.2269554 0.090521187 -0.76083821
-3.2146685 0.10991968 -0.75807554
-3.2051826 0.12928872 -0.75600356
-3.2140496 0.1494056 -0.75830579
-3.2325082 0.17014846 -0.76291019
-3.237232 0.19032273 -0.76429147
-3.2505696 0.21112974 -0.76774478
-3.215239 0.228652 -0.75968707
-3.2128053 0.24830097 -0.75945687
-3.2141306 0.26825276 -0.76014751
-3.2298706 0.28953463 -0.76429147
-3.2386889 0.31036931 -0.76682389
-3.2493088 0.3315208 -0.76981676
-3.2491486 0.35166153 -0.7702772
-3.2749672 0.37480238 -0.77695358
-3.2706735 0.39465684 -0.77649313
-3.2865329 0.41704696 -0.78086728
-3.2839122 0.43720487 -0.78086728
-3.3100817 0.46137896 -0.78777385
-3.3110404 0.4822419 -0.78869474
-3.2983983 0.50108659 -0.78639257
-3.2731545 0.5178166 -0.78109753
-3.2507114 0.5347299 -0.77649313
-3.2454507 0.55433792 -0.77603269
-3.2486956 0.57542986 -0.77764422
-3.2690325 0.59974462 -0.7833997
-3.2796316 0.62251502 -0.78685302
-3.2833896 0.64412606 -0.78869474
-3.2669768 0.66174793 -0.78570187
-3.26476 0.68217951 -0.78616232
-3.3166401 0.71429139 -0.79974526
-3.2760935 0.72661841 -0.79099697
-3.2374194 0.73890823 -0.78270906
-3.153245 0.74007434 -0.76337057
-3.350141 0.80802405 -0.81240737
-3.3668456 0.8339479 -0.81770241
-3.3116796 0.84187955 -0.80550081
-3.3045683 0.86169261 -0.80504036
-3.2898178 0.87943894 -0.80273813
-3.2928066 0.9019227 -0.80481011
-3.321878 0.93183756 -0.81332827
-3.3151624 0.95193404 -0.81309801
-3.3232639 0.97637331 -0.81655133
-3.3088229 0.99422514 -0.81447935
-3.2821951 1.0082209 -0.80941451
-3.365078 1.0563275 -0.83151561
-3.3659463 1.0793331 -0.83335733
-3.3435385 1.0948166 -0.82944363
-3.2850742 1.0980319 -0.81655133
-3.3123524 1.1297941 -0.82506943
-3.3228202 1.1561747 -0.82944363
-3.2863166 1.1661253 -0.82207662
-3.2864201 1.1889168 -0.82391834
-3.2818024 1.2100697 -0.82460898
-3.2615626 1.2253911 -0.82138592
-3.2557998 1.2460765 -0.82184637
-3.2272394 1.2579002 -0.81655133
-3.2230783 1.2791146 -0.81747222
-3.2305076 1.3050648 -0.82138592
-3.2242391 1.3256024 -0.82184637
-3.2007835 1.3389754 -0.81793267
-3.2014613 1.3624011 -0.82023484
-3.1733944 1.3735138 -0.81516999
-3.1827202 1.4008012 -0.81977439
-3.1536357 1.4111602 -0.81447935
-3.1360598 1.4264542 -0.81217712
-3.0963333 1.4313754 -0.80411947
-3.0866113 1.4499333 -0.80388921
-3.1189325 1.4885485 -0.81470954
-3.1377602 1.5212451 -0.82207662
-3.1170177 1.5348798 -0.81908375
-3.1310408 1.5657302 -0.82529968
-3.1387277 1.5937253 -0.82990408
-3.1245649 1.6107243 -0.82875293
-3.077549 1.6104618 -0.8188535
-3.0744846 1.6329674 -0.82069528
-3.1055231 1.673968 -0.8317458
-3.1054382 1.6985962 -0.83450842
-3.1068692 1.7242308 -0.83773154
-3.0462027 1.7150896 -0.8241486
-3.0263271 1.7284389 -0.82161617
-2.9920881 1.7333152 -0.81516999
-2.9897864 1.756572 -0.81747222
-2.9680846 1.7684078 -0.81447935
-2.9571779 1.7865864 -0.81447935
-2.9129684 1.7843623 -0.80527055
-2.9060981 1.8047698 -0.80642164
-2.8826172 1.8147893 -0.80296838
-2.8837321 1.840296 -0.80642164
-2.886276 1.8669417 -0.8103354
-2.8991804 1.9006244 -0.81724197
-2.8939478 1.9226862 -0.81908375
-2.8199422 1.8985542 -0.80135685
-2.8966625 1.9761548 -0.82668096
-2.8492622 1.9695411 -0.81655133
-2.8108208 1.9685627 -0.80895406
-2.7915466 1.9807037 -0.80688208
-2.7888224 2.0046117 -0.80964476
-2.7693901 2.01653 -0.80757278
-2.7467844 2.0259745 -0.80457991
-2.7935474 2.0870597 -0.82207662
-3.0127013 2.2797544 -0.89091223
-2.8943899 2.2182746 -0.85983258
-2.7692633 2.1494644 -0.82645077
-2.7177713 2.1363435 -0.8149398
-2.6178219 2.0838799 -0.78869474
-2.6171074 2.1096761 -0.79237825
-2.5973291 2.1201558 -0.79030627
-2.584271 2.1360528 -0.79030627
-2.5688772 2.1499953 -0.78961563
-2.5452437 2.1569083 -0.78639257
-2.5445156 2.1832588 -0.79030627
-2.5185833 2.1879799 -0.78639257
-2.4897671 2.1898947 -0.78155792
-2.4428551 2.1753576 -0.77096784
-2.4374111 2.1974742 -0.77350026
-2.4332252 2.2209179 -0.77649313
-2.4324157 2.247695 -0.78063709
-2.4285269 2.2718859 -0.78386015
-2.4180737 2.2900903 -0.78501123
-2.4152143 2.315661 -0.78869474
-2.3995638 2.3290811 -0.78823429
-2.3748167 2.3335292 -0.78478104
-2.3728714 2.3604112 -0.78892499
-2.3686283 2.3852851 -0.79237825
-2.3505409 2.3962998 -0.79122716
-2.7901382 2.8796637 -0.94570452
-2.7643428 2.8882926 -0.94294184
-2.747237 2.9059072 -0.9431721
-2.7207212 2.9134624 -0.94017923
-2.6889384 2.9150794 -0.93534464
-2.6618261 2.921452 -0.93212157
-2.6392939 2.9326661 -0.93050998
-2.6315935 2.9604433 -0.93419355
-2.6608875 3.030652 -0.95122975
-2.6447916 3.0498631 -0.95215064
-2.6310921 3.0719469 -0.95399243
-2.5722439 3.1176043 -0.95330173
-1.862779 2.3149028 -0.70006019
-2.230515 2.8070729 -0.84532875
-2.0726941 2.6415467 -0.79145741
-2.0212855 2.6088252 -0.77787441
-2.0123348 2.6304541 -0.78063709
-1.9850138 2.6279972 -0.77626288
-1.9612894 2.6299856 -0.77327001
-1.951461 2.6505911 -0.77580243
-1.9609038 2.6979403 -0.78616232
-1.9255939 2.6838276 -0.77856511
-1.9310225 2.7265658 -0.78754365
-1.9176011 2.7431488 -0.78892499
-1.8935498 2.7444499 -0.78593212
-1.8607926 2.7326891 -0.77925575
-1.8331358 2.7279 -0.77465135
-1.8136744 2.7350414 -0.77350026
-1.8165705 2.7762494 -0.78201836
-1.8311666 2.8363998 -0.79583156
-1.8152964 2.8500445 -0.7965222
-1.7832799 2.8380568 -0.79007608
-1.774034 2.8621802 -0.79375958
-1.7584686 2.876333 -0.79468048
-1.723202 2.8578994 -0.78662276
-1.7071258 2.8709283 -0.78731346
-1.6894779 2.8813488 -0.78731346
-1.6610526 2.8731258 -0.78224862
-1.6255648 2.8519807 -0.77373046
-1.5975491 2.8432357 -0.76866567
-1.5810162 2.8546875 -0.76912612
-1.5550792 2.8489587 -0.76498216
-1.5371082 2.8575897 -0.76475191
-1.5168114 2.8618083 -0.76337057
-1.503727 2.879688 -0.7656728
-1.4922601 2.9009759 -0.76889586
-1.4682754 2.8979242 -0.7656728
-1.4413438 2.888592 -0.76083821
-1.4175856 2.8851535 -0.75761509
-1.3875687 2.8683915 -0.75093871
-1.394623 2.9286914 -0.76452172
-1.37993 2.9442432 -0.76636344
-1.358171 2.9447014 -0.76429147
-1.3320357 2.9352555 -0.75968707
-1.3167766 2.949594 -0.7612986
-1.3150823 2.9950428 -0.77096784
-1.3013086 3.0137768 -0.77373046
-1.3002812 3.0629113 -0.78432059
-1.2874582 3.0852015 -0.7880041
-1.2888085 3.1425648 -0.80066615
-1.27132 3.154927 -0.80181724
-1.2526541 3.1644778 -0.80227768
-1.2349763 3.1766398 -0.80342883
-1.2175434 3.1896126 -0.80481011
-1.1945356 3.1879103 -0.80250794
-1.1762955 3.1988332 -0.80342883
-1.1546646 3.2004981 -0.80204749
-1.1544783 3.2625682 -0.81586069
-1.1433675 3.2953336 -0.82230681
-1.1353439 3.3382194 -0.83128536
-1.1243757 3.3737433 -0.83842218
-1.0982186 3.3639266 -0.83427823
-1.0784461 3.3733828 -0.83496886
-1.0487194 3.3511455 -0.8278321
-1.0232948 3.3416984 -0.82391834
-0.99886322 3.3348629 -0.82069528
-0.99013925 3.3810883 -0.83059472
-0.9696424 3.3880358 -0.83082491
-0.95145494 3.4032936 -0.83312714
-0.94490117 3.4616411 -0.84601945
-0.92564648 3.4748967 -0.84786117
-0.89868063 3.4588475 -0.84256613
-0.87959045 3.4727869 -0.84463811
-0.85546839 3.4667809 -0.84187549
-0.81918091 3.4095137 -0.82668096
-0.80621755 3.4485896 -0.83496886
-0.78245455 3.4420843 -0.83220625
-0.75082904 3.399308 -0.82069528
-0.73648441 3.4342995 -0.8280623
-0.71262419 3.4254155 -0.82483923
-0.69659221 3.4545262 -0.83082491
-0.67351824 3.4491844 -0.82852274
-0.6518001 3.4503832 -0.8278321
-0.62712276 3.4351711 -0.8232277
-0.61396754 3.4839983 -0.83404803
-0.59176391 3.482903 -0.83289689
-0.56472856 3.4518948 -0.82460898
-0.54444432 3.4610629 -0.82599032
-0.52189022 3.4556782 -0.82391834
-0.50262749 3.4722989 -0.8271414
-0.48024499 3.4676058 -0.82529968
-0.46036175 3.4810996 -0.8278321
-0.43753436 3.4722729 -0.82506943
-0.4140231 3.4565334 -0.82069528
-0.39730537 3.4986529 -0.83013427
-0.37707609 3.5126362 -0.83289689
-0.35551587 3.5148835 -0.83289689
-0.33458567 3.5237803 -0.83450842
-0.31235605 3.5189817 -0.83289689
-0.28859764 3.4946461 -0.82668096
-0.26618659 3.4837372 -0.82368815
-0.24501012 3.4882171 -0.82437879
-0.22279423 3.4770298 -0.82138592
-0.20162395 3.481246 -0.82207662
-0.18141493 3.5047698 -0.82737166
-0.16017224 3.5116498 -0.82875293
-0.13934988 3.5310419 -0.83312714
-0.11768118 3.5318303 -0.83312714
-0.096719928 3.5587511 -0.83934307
-0.07437212 3.5349543 -0.83358759
-0.053373083 3.5820498 -0.84463811
-0.031790417 3.6280458 -0.85545844
-0.0094813518 3.6096828 -0.85108423
0.012824344 3.6534638 -0.86144412
0.034787346 3.6066082 -0.85039359
0.05682385 3.6004887 -0.84901226
0.08041288 3.6681755 -0.86512762
0.10234413 3.6471851 -0.86029303
0.12422088 3.6318998 -0.85683978
0.14823279 3.6738527 -0.86696941
0.1666529 3.584414 -0.84601945
0.18987289 3.606647 -0.85154468
0.2119993 3.6054142 -0.85154468
0.23279147 3.5836527 -0.84671009
0.25664198 3.6083651 -0.85292602
0.27832726 3.6009009 -0.85154468
0.29944453 3.5874884 -0.84878206
0.32510388 3.6262918 -0.85845131
0.34614041 3.6116357 -0.85545844
0.36789906 3.6055713 -0.85453755
0.39095864 3.6119535 -0.85660952
0.41267091 3.6056192 -0.85568863
0.44003636 3.6464946 -0.86604851
0.45504761 3.585803 -0.85223538
0.46945935 3.526031 -0.83865237
0.48839742 3.5038075 -0.83404803
0.51971042 3.5681527 -0.8501634
0.54495788 3.5870247 -0.85545844
0.56878287 3.5951474 -0.85822105
0.59478235 3.6155953 -0.86397654
0.61351365 3.5917339 -0.85914195
0.64691752 3.652102 -0.87456667
0.65859765 3.5896776 -0.86052328
0.67879564 3.5760083 -0.85822105
0.70091224 3.5727308 -0.85845131
0.71818244 3.5454731 -0.85292602
0.74828643 3.5810065 -0.86259526
0.77331942 3.5906174 -0.86604851
0.79660118 3.5915051 -0.86742985
0.81537402 3.5723188 -0.86397654
0.83661073 3.5644062 -0.8632859
0.85709631 3.5535297 -0.86190456
0.86647987 3.4981415 -0.84970295
0.88145226 3.4672947 -0.84348702
0.90025443 3.4524047 -0.84118479
0.92192382 3.4486959 -0.84164524
0.93715274 3.4213877 -0.8363502
0.9565509 3.4099512 -0.83496886
0.99223179 3.4554605 -0.84763098
1.0232933 3.4829187 -0.85591888
1.0359614 3.4476838 -0.84878206
1.0553815 3.4356811 -0.84740072
1.0665308 3.3975737 -0.83957326
1.0888439 3.3955986 -0.84072435
1.1099614 3.3897784 -0.8409546
1.1214828 3.3552165 -0.83404803
1.1433058 3.3519559 -0.83496886
1.1452992 3.2915719 -0.82161617
1.1622193 3.2753117 -0.81931394
1.1793143 3.2598832 -0.81724197
1.1902026 3.2279339 -0.81102604
1.2099864 3.2205703 -0.81102604
1.2328559 3.2212646 -0.81309801
1.2642628 3.2435596 -0.82069528
1.313223 3.3090043 -0.83934307
1.3211062 3.2702072 -0.83151561
1.337816 3.2539394 -0.82944363
1.3570054 3.2438741 -0.82898319
1.3902231 3.2668254 -0.83704084
1.4079223 3.2528756 -0.83565956
1.4223658 3.2317061 -0.83243644
1.433025 3.2024887 -0.8271414
1.4433795 3.1732624 -0.82184637
1.4595557 3.15728 -0.82000464
1.4722798 3.1341727 -0.81632107
1.4965137 3.1356187 -0.81908375
1.5186975 3.1325064 -0.82069528
1.5413293 3.1301129 -0.822537
1.5565885 3.1127634 -0.82046503
1.5752182 3.1022861 -0.82023484
1.5911021 3.0865078 -0.8186233
1.6113644 3.0792735 -0.81931394
1.6265757 3.062453 -0.81747222
1.6365616 3.0361397 -0.81309801
1.6173289 2.9568887 -0.79445022
1.6344969 2.9452076 -0.79398978
1.6563575 2.9419065 -0.79583156
1.6700335 2.924083 -0.79375958
1.7045312 2.9424093 -0.80158705
1.7767859 3.0241854 -0.82691121
1.756452 2.9480214 -0.80895406
1.7558862 2.9063714 -0.80043596
1.764027 2.879777 -0.79606175
1.7775562 2.8622856 -0.79422003
1.7950852 2.8513248 -0.79422003
1.8235419 2.8574829 -0.79905462
1.8500267 2.8601301 -0.80296838
1.8830158 2.8723249 -0.80964476
1.9102988 2.8753059 -0.81378871
1.9327973 2.8707955 -0.81586069
1.9602487 2.8733511 -0.82000464
1.9839298 2.8700743 -0.822537
1.9786122 2.8251679 -0.81309801
1.9975994 2.8153551 -0.81378871
1.9733691 2.7453649 -0.79698265
1.9483566 2.6757801 -0.78017664
1.3610406 1.8454254 -0.53959715
1.3799106 1.8471736 -0.54259002
1.3782989 1.8216007 -0.53752518
1.3847139 1.8069305 -0.53568345
2.1661732 2.7907867 -0.83289689
2.1724305 2.7636724 -0.82875293
2.1893473 2.7502906 -0.82875293
2.1957979 2.7239265 -0.82483923
2.1921611 2.6855259 -0.81724197
2.2042577 2.6667743 -0.81563044
2.2074616 2.6375287 -0.81079584
2.2173116 2.6165106 -0.80849361
2.2174809 2.584394 -0.80273813
2.2415943 2.5802886 -0.805731
2.2175333 2.5211852 -0.79145741
1.1831532 1.3288255 -0.41804123
1.1925877 1.3229861 -0.41850168
2.150059 2.3556054 -0.75162941
2.1591885 2.3366511 -0.74978763
2.159523 2.3084362 -0.74495304
2.171639 2.2930226 -0.7442624
2.179606 2.2733328 -0.74219042
2.2985785 2.3681431 -0.77787441
2.3232975 2.3644059 -0.78132772
2.2622626 2.2742205 -0.75600356
2.2243812 2.2088735 -0.73873711
2.2344189 2.1917763 -0.73758602
2.2520189 2.1820874 -0.7389673
2.2562256 2.1594818 -0.73597449
2.2581184 2.1349013 -0.73229098
2.2569497 2.1077228 -0.72768658
2.2526717 2.0780005 -0.72216129
2.2459564 2.0464447 -0.71594536
2.2693217 2.0423892 -0.71939868
2.2970858 2.0420024 -0.72423327
2.3139596 2.0317216 -0.72561461
2.3175597 2.009835 -0.72285193
2.3320656 1.9974759 -0.72354263
2.3398199 1.9793582 -0.72216129
2.3661113 1.9768177 -0.72653544
2.3729415 1.9579273 -0.72492391
2.3811381 1.9402571 -0.72377282
2.394515 1.9268303 -0.72423327
2.3499091 1.8673058 -0.70719701
2.3911824 1.8762776 -0.71617556
2.4026499 1.8615702 -0.71617556
2.4062977 1.8408806 -0.71387339
2.4113352 1.8213894 -0.7120316
2.3959405 1.786782 -0.70420414
2.3292723 1.7149347 -0.6814124
2.380687 1.730358 -0.69338387
2.3888872 1.7140161 -0.69269317
2.3945942 1.6959518 -0.6913119
2.4025624 1.6795543 -0.6906212
2.4096186 1.6625706 -0.68970031
2.4165571 1.6455636 -0.68877947
2.4258006 1.6301621 -0.68854922
2.4390018 1.6173979 -0.68947011
2.4505086 1.6034677 -0.68993056
2.4537604 1.5841794 -0.68808877
2.4675386 1.5717071 -0.68923992
2.4820802 1.5596433 -0.6906212
2.4891217 1.5428462 -0.68993056
2.5026932 1.5300817 -0.69108164
2.5003667 1.5076629 -0.68785858
2.5020421 1.4878169 -0.6857866
2.50105 1.4665307 -0.68302399
2.5167415 1.455053 -0.68486571
2.5171673 1.4347649 -0.68256354
2.5361047 1.4250122 -0.68532616
2.5422466 1.40801 -0.68463552
2.5525465 1.393317 -0.68509597
2.5507631 1.3720975 -0.68233329
2.547096 1.3500413 -0.67911023
2.5579195 1.3357383 -0.67980087
2.565202 1.319573 -0.67957067
2.5888765 1.3117239 -0.68371463
2.5759773 1.2853882 -0.67818934
2.5514984 1.2536827 -0.66967124
2.5626471 1.2396982 -0.67059213
2.529788 1.2047082 -0.66000199
2.5397758 1.1904018 -0.66069269
2.5434973 1.1731656 -0.6597718
2.5391273 1.15231 -0.65677893
2.5683661 1.1466242 -0.66253442
2.5824819 1.1339728 -0.6643762
2.6108339 1.1273621 -0.66990143
2.5863492 1.0980141 -0.66184378
2.5948339 1.0828732 -0.66230422
2.5942264 1.0639778 -0.66046244
2.5943875 1.0454944 -0.65885091
2.6007535 1.0295559 -0.65885091
2.5925095 1.0079379 -0.6551674
2.5895534 0.98854184 -0.65286517
2.6046832 0.97604793 -0.6551674
2.6334572 0.96844214 -0.66092288
2.6594889 0.95952934 -0.66598773
2.6974363 0.95455235 -0.67404538
2.7151947 0.94212914 -0.67703825
2.7089472 0.92137873 -0.67404538
2.7173193 0.90566248 -0.67473608
2.7163494 0.88685864 -0.67312455
2.6744657 0.85506552 -0.66138333
2.6740894 0.83689576 -0.66000199
2.681035 0.82104182 -0.66046244
2.7363636 0.81964988 -0.6728943
2.7712274 0.81159395 -0.68026131
2.6863377 0.76887679 -0.65816027
2.6741347 0.74766427 -0.65401632
2.6758556 0.73047346 -0.65332562
2.6755855 0.71278882 -0.65217453
2.7138166 0.70516557 -0.66046244
2.6945081 0.68252915 -0.65470695
2.6901422 0.66388547 -0.65263498
2.6828101 0.64463937 -0.64987236
2.6592345 0.62174356 -0.64319599
2.6611016 0.60498381 -0.64273554
2.7122762 0.59913486 -0.65424651
2.6902101 0.57697392 -0.64803058
2.727999 0.56758916 -0.65631849
2.8363652 0.57199115 -0.68164265
2.7729633 0.54152679 -0.66552728
2.7743213 0.52414089 -0.66506684
2.75068 0.5022167 -0.65862072
2.7489178 0.48448527 -0.65746957
2.7230568 0.46272114 -0.650563
2.7152805 0.4442766 -0.64803058
2.7093036 0.42624724 -0.6459586
2.7243769 0.41150346 -0.64895147
2.7518914 0.39840204 -0.65493715
2.7321134 0.37844047 -0.64964211
2.7507846 0.36383706 -0.65355587
2.7375174 0.34500629 -0.64987236
2.7308865 0.32716176 -0.64780039
2.7212393 0.30908245 -0.64503771
2.7414689 0.29435152 -0.64941192
2.742255 0.27742678 -0.64918166
2.728405 0.25912482 -0.64549816
2.7367291 0.2429805 -0.64710969
2.7682335 0.22866423 -0.65424651
2.7715251 0.21182249 -0.65470695
2.7708313 0.19467655 -0.65424651
2.7651753 0.1772363 -0.65263498
2.7594104 0.15987282 -0.65102345
2.7340996 0.14158216 -0.64480752
2.7669971 0.12626415 -0.65240479
2.7482722 0.1085178 -0.64780039
2.7848725 0.092849016 -0.65631849
2.7873354 0.075812347 -0.65677893
2.7692626 0.058320627 -0.65240479
2.7705412 0.04134208 -0.65263498
2.7415497 0.024087932 -0.64572841
2.4877567 0.0066404701 -0.63931674
2.4664495 -0.0085558137 -0.63381582
2.4624779 -0.023653297 -0.63281566
2.4632545 -0.038777325 -0.6330657
2.4629703 -0.053890843 -0.6330657
2.4819505 -0.069539748 -0.63806653
2.4901862 -0.085062683 -0.6403169
2.4780078 -0.099875621 -0.63731641
2.4686437 -0.11467638 -0.63506603
2.4823971 -0.13058077 -0.63881665
2.4815493 -0.14581001 -0.63881665
2.4458239 -0.1587846 -0.62981516
2.4650857 -0.17522539 -0.63506603
2.4378991 -0.18834068 -0.62831491
2.4299431 -0.20273404 -0.62656456
2.4151518 -0.21643367 -0.62306398
2.4166701 -0.23152496 -0.62381411
2.4142406 -0.246251 -0.62356406
2.4232733 -0.26220286 -0.62631452
2.4235427 -0.27728647 -0.6268146
2.4314086 -0.29330894 -0.62931508
2.4458928 -0.31028962 -0.63356578
2.4257066 -0.322869 -0.628815
2.4198439 -0.33721322 -0.62781483
2.4234784 -0.35289037 -0.62931508
2.4451997 -0.37138253 -0.63556612
2.4514823 -0.38773817 -0.63781649
2.4891858 -0.40936193 -0.64831823
2.4885359 -0.4249531 -0.64881831
2.4954159 -0.4419004 -0.65131873
2.5183723 -0.46191362 -0.65806991
2.50788 -0.47591507 -0.65606958
2.4697561 -0.48440787 -0.64681798
2.5236785 -0.51106948 -0.66182053
2.4380345 -0.50933951 -0.64006686
2.509644 -0.54037184 -0.6598202
2.5204611 -0.55890119 -0.66357082
2.4848876 -0.56703997 -0.65506941
2.518126 -0.59089392 -0.66482103
2.4909203 -0.60066509 -0.65856999
2.4947071 -0.61779791 -0.66057032
2.5021307 -0.63595283 -0.66357082
2.4644504 -0.64250851 -0.65456933
2.4894609 -0.66536105 -0.66232061
2.4638515 -0.67474681 -0.65656966
2.4708529 -0.69298691 -0.65957016
2.4767921 -0.71107119 -0.66232061
2.4742405 -0.72680044 -0.6628207
2.4604609 -0.73918486 -0.66032028
2.4308867 -0.74659902 -0.6535691
2.4253359 -0.76121092 -0.65331906
2.4270742 -0.77814579 -0.65506941
2.4056895 -0.78760481 -0.6505686
2.3953013 -0.80051106 -0.64906836
2.3820961 -0.81238258 -0.64681798
2.3926139 -0.83238816 -0.65106869
2.3719473 -0.84155339 -0.64681798
2.3803978 -0.86102831 -0.6505686
2.3250997 -0.85720962 -0.63681632
2.3061991 -0.86635602 -0.6330657
2.3451538 -0.89743555 -0.64531773
2.3098297 -0.90021318 -0.63706636
2.2646599 -0.89866585 -0.62606448
2.2546139 -0.91073263 -0.62481427
2.2606263 -0.92933232 -0.62806487
2.2638147 -0.9469198 -0.63056529
2.2267759 -0.94753188 -0.62181377
2.2431374 -0.97078556 -0.62806487
2.2220712 -0.97790474 -0.62381411
2.2284036 -0.99705368 -0.62731469
2.2099035 -1.0050993 -0.62381411
2.2784085 -1.0531524 -0.64506769
2.2499917 -1.0568273 -0.63881665
2.2373471 -1.0676956 -0.63706636
2.252538 -1.0919571 -0.6433174
2.232764 -1.0993458 -0.63956678
2.243299 -1.121681 -0.64456761
2.2424185 -1.1384913 -0.6463179
2.2517445 -1.1606535 -0.65106869
2.2428646 -1.1735508 -0.6505686
2.2510159 -1.1954613 -0.65506941
2.2044263 -1.1881293 -0.64356744
2.1758544 -1.1900233 -0.63731641
2.1752856 -1.2071085 -0.63931674
2.135772 -1.2023915 -0.62981516
2.1224678 -1.2121141 -0.62806487
2.1300733 -1.2338463 -0.63256562
2.133317 -1.2532659 -0.63581616
2.1131079 -1.258902 -0.63206553
2.1152902 -1.2778493 -0.63506603
2.0958486 -1.2837272 -0.63156545
2.0838189 -1.2940102 -0.63031524
2.0750203 -1.3062562 -0.6300652
2.0563536 -1.3121954 -0.6268146
2.0612738 -1.3331983 -0.63081533
2.0109398 -1.3182294 -0.61781311
2.0060401 -1.3326858 -0.61881328
2.0082684 -1.3519961 -0.62206382
1.9903349 -1.357748 -0.61906332
1.9708136 -1.3622304 -0.61556274
1.9774895 -1.3848463 -0.62031353
1.9444706 -1.3795921 -0.61256224
1.9650646 -1.4123983 -0.62181377
1.9673218 -1.432405 -0.62531435
1.9304382 -1.4237673 -0.61631286
1.9154589 -1.4309512 -0.61431253
1.9182267 -1.4514376 -0.61806315
1.8877621 -1.4466953 -0.61106199
1.9086865 -1.481396 -0.62081361
1.8401726 -1.4464248 -0.60131037
1.8327783 -1.4588943 -0.60181046
1.8290702 -1.4743645 -0.60356075
1.8424966 -1.5039213 -0.61106199
1.8645862 -1.5410973 -0.62156373
1.8417269 -1.5413274 -0.61706299
1.8381455 -1.5576051 -0.61906332
1.8336987 -1.5732664 -0.62081361
1.7808746 -1.5470362 -0.60606116
1.8077093 -1.5898969 -0.61856323
1.7675424 -1.5739233 -0.60806149
1.7434654 -1.5717766 -0.60306066
1.7809995 -1.6255116 -0.6195634
1.756766 -1.623271 -0.61456257
1.698679 -1.5890543 -0.59755969
1.6888968 -1.5994473 -0.59755969
1.68744 -1.6178187 -0.60056019
1.6781764 -1.6288164 -0.60081029
1.6736773 -1.64451 -0.60281062
1.6944542 -1.6854675 -0.61406249
1.6738437 -1.6855299 -0.61031187
1.641089 -1.6729653 -0.6020605
1.6247272 -1.6767468 -0.59981006
1.5789151 -1.6496223 -0.58655787
1.5661019 -1.6564658 -0.5855577
1.5625192 -1.6731184 -0.58805811
1.5541937 -1.684809 -0.58880824
1.562744 -1.7150633 -0.59605944
1.5645016 -1.7382904 -0.60081029
1.5576671 -1.7521981 -0.60231054
1.553277 -1.7689967 -0.60481095
1.5144725 -1.7463167 -0.59380907
1.5012085 -1.7526357 -0.5928089
1.4841709 -1.7544236 -0.59030849
1.4677889 -1.7568115 -0.58805811
1.4736254 -1.7859443 -0.59480923
1.4516262 -1.7814451 -0.59030849
1.4479547 -1.7993686 -0.59330899
1.4338739 -1.8044298 -0.59205878
1.4311459 -1.8238558 -0.59555936
1.4205213 -1.8333679 -0.5958094
1.4092453 -1.8420496 -0.5958094
1.4002514 -1.8537517 -0.59680957
1.3871133 -1.8599806 -0.59605944
1.3728033 -1.8645589 -0.59480923
1.3607671 -1.8721642 -0.59455919
1.3413489 -1.8694671 -0.59105861
1.3281733 -1.8752923 -0.59030849
1.312202 -1.8770592 -0.58830816
1.3111116 -1.9002144 -0.59305894
1.2901591 -1.894621 -0.58880824
1.2812111 -1.9065191 -0.59005845
1.2743068 -1.9216055 -0.59230882
1.2640831 -1.9318185 -0.59305894
1.2569345 -1.9468579 -0.59530932
1.2480874 -1.9594327 -0.59680957
1.2381026 -1.9703326 -0.59780973
1.2295619 -1.9836522 -0.59956002
1.2148409 -1.9870297 -0.59830981
1.2011253 -1.9919593 -0.59755969
1.1883851 -1.9984597 -0.59730965
1.1731604 -2.0007033 -0.5958094
1.1642563 -2.0137305 -0.59755969
1.1499596 -2.0174723 -0.59655952
1.1375589 -2.0244904 -0.59655952
1.1284009 -2.0373602 -0.59830981
1.1223767 -2.0561419 -0.60181046
1.1129516 -2.068958 -0.60356075
1.0970601 -2.0697603 -0.60181046
1.0820975 -2.0721622 -0.60056019
1.0715784 -2.0830672 -0.60181046
1.0552739 -2.0826945 -0.59981006
1.0502607 -2.1047227 -0.60431087
1.028782 -2.0937498 -0.59930998
1.0214002 -2.111352 -0.60256058
1.0013449 -2.1027205 -0.59830981
0.97074419 -2.0711312 -0.58755803
0.94868493 -2.0568292 -0.58180708
0.94325328 -2.07848 -0.58630782
0.93087715 -2.0851126 -0.58655787
0.92001325 -2.0952172 -0.58780807
0.91443735 -2.1177099 -0.59255886
0.90369785 -2.1286278 -0.59405911
0.88464952 -2.1198375 -0.59005845
0.87714058 -2.1386616 -0.59380907
0.86436361 -2.1449013 -0.59405911
0.85938901 -2.1708684 -0.59981006
0.84991473 -2.1860263 -0.60256058
0.83648562 -2.1912 -0.60256058
0.82438493 -2.1999176 -0.60356075
0.81321198 -2.2112951 -0.60531104
0.80127269 -2.2207966 -0.60656124
0.78795427 -2.226584 -0.60681129
0.77745396 -2.2405233 -0.6093117
0.76025933 -2.2351692 -0.60656124
0.74377263 -2.2315257 -0.60431087
0.72826171 -2.2305255 -0.60281062
0.71279109 -2.229419 -0.60131037
0.69244093 -2.2124994 -0.59555936
0.6782847 -2.2148552 -0.59505928
0.65828586 -2.1976442 -0.58930832
0.64179271 -2.1914215 -0.58655787
0.63206786 -2.2083492 -0.59005845
0.61615711 -2.2037945 -0.58780807
0.61283296 -2.2448931 -0.59780973
0.60029453 -2.2532887 -0.59905994
0.58986998 -2.2700484 -0.60256058
0.57783413 -2.2811332 -0.60456091
0.56405872 -2.2855759 -0.60481095
0.54889172 -2.2842867 -0.60356075
0.53552735 -2.2904401 -0.60431087
0.524472 -2.3069 -0.60781145
0.50068843 -2.2665868 -0.59630948
0.49612331 -2.3131623 -0.60781145
0.47895834 -2.3019447 -0.60406083
0.46386653 -2.3000948 -0.60281062
0.44807211 -2.2943459 -0.60056019
0.43452585 -2.299906 -0.60131037
0.41953486 -2.2977667 -0.60006011
0.40610141 -2.3041117 -0.60106033
0.39293081 -2.3122871 -0.60256058
0.37920529 -2.3175209 -0.6033107
0.36708847 -2.333194 -0.60681129
0.35233077 -2.3325305 -0.60606116
0.33995789 -2.3480635 -0.60956174
0.3263427 -2.3558593 -0.61106199
0.31251737 -2.3626165 -0.6123122
0.29898539 -2.3721747 -0.61431253
0.28396267 -2.3701191 -0.61331236
0.27018127 -2.378551 -0.61506265
0.25578892 -2.3820894 -0.61556274
0.24263369 -2.3980634 -0.61931336
0.22754765 -2.3956516 -0.61831319
0.21224268 -2.3902519 -0.6165629
0.19677265 -2.3818598 -0.61406249
0.18208008 -2.382057 -0.61381245
0.16746062 -2.3831294 -0.61381245
0.15246168 -2.3783145 -0.6123122
0.13842842 -2.3888712 -0.61481261
0.12321428 -2.3790395 -0.61206216
0.10852566 -2.3778162 -0.61156207
0.093625866 -2.3706977 -0.60956174
0.078622371 -2.3576798 -0.60606116
0.064048074 -2.3542464 -0.60506099
0.049539525 -2.351691 -0.60431087
0.035491399 -2.3771219 -0.61081195
0.021097958 -2.3985953 -0.61631286
0.0063376003 -2.384156 -0.61256224
-0.0082883155 -2.3831818 -0.6123122
-0.023083063 -2.4014816 -0.61706299
-0.037188187 -2.3606339 -0.60656124
-0.051797654 -2.3661695 -0.60806149
-0.06618087 -2.3609676 -0.60681129
-0.080830291 -2.3653557 -0.60806149
-0.095691033 -2.3735223 -0.61031187
-0.11052098 -2.3786936 -0.61181211
-0.1254686 -2.3847392 -0.61356241
-0.14004219 -2.3829577 -0.61331236
-0.1552234 -2.3907495 -0.61556274
-0.16811131 -2.364641 -0.60906166
-0.1785292 -2.3104692 -0.59530932
-0.19655468 -2.3556457 -0.60731137
-0.21152195 -2.3601816 -0.60881162
-0.22627604 -2.3617308 -0.60956174
-0.24056709 -2.3583713 -0.60906166
-0.25368246 -2.3443365 -0.60581112
-0.26740339 -2.3369639 -0.60431087
-0.2826634 -2.3429697 -0.6063112
-0.29642624 -2.3363881 -0.60506099
-0.31241399 -2.3470027 -0.60831153
-0.32547513 -2.3354516 -0.60581112
-0.33993834 -2.3343689 -0.60606116
-0.35817429 -2.3580859 -0.61281228
-0.37384462 -2.3634949 -0.61481261
-0.38614339 -2.3477805 -0.61131203
-0.39712426 -2.3253231 -0.60606116
-0.40986735 -2.3142617 -0.60381079
-0.42475745 -2.3155129 -0.60481095
-0.44130081 -2.3252299 -0.60806149
-0.46635458 -2.3775887 -0.6225639
-0.48074248 -2.3737335 -0.62231386
-0.50340664 -2.4095998 -0.63256562
-0.52021796 -2.4159315 -0.63506603
-0.53859144 -2.4287646 -0.63931674
-0.55133218 -2.4159739 -0.63681632
-0.56482023 -2.4068892 -0.63531607
-0.58728725 -2.4353831 -0.64381748
-0.6022194 -2.4317336 -0.64381748
-0.61569923 -2.4223619 -0.64231724
-0.63152707 -2.4222863 -0.6433174
-0.64562875 -2.4155595 -0.64256728
-0.66248226 -2.4190238 -0.64456761
-0.6812312 -2.4288981 -0.64831823
-0.757254 -2.6378043 -0.70557785
-0.7723344 -2.6293921 -0.70457768
-0.74837053 -2.4910638 -0.66857165
-0.74489474 -2.4253328 -0.65206885
-0.78641593 -2.5057132 -0.67507273
-0.85405755 -2.6640489 -0.71933019
-0.84449923 -2.5796168 -0.69782656
-0.85019153 -2.5440798 -0.6895752
-0.89389259 -2.621299 -0.71207899
-0.92490184 -2.6587489 -0.72383094
-0.93828648 -2.6448104 -0.72158056
-0.91599059 -2.5324652 -0.69232565
-0.97602689 -2.6476338 -0.72558123
-0.99225408 -2.6415951 -0.72558123
-0.96072072 -2.5106537 -0.69107544
-0.97962129 -2.5137341 -0.69357586
-0.99788195 -2.5148764 -0.69557619
-1.014019 -2.5105019 -0.69607627
-1.0099047 -2.4567652 -0.68282408
-1.0503514 -2.5112693 -0.6998269
-1.067256 -2.5083413 -0.70082706
-1.0753244 -2.4848604 -0.69607627
-1.1431712 -2.597868 -0.72983193
-1.1413054 -2.551029 -0.71858007
-1.1176753 -2.4575946 -0.69407594
-1.1652161 -2.5210094 -0.71407932
-1.2053475 -2.5664012 -0.72908181
-1.1935643 -2.501277 -0.71257907
-1.1920038 -2.4590518 -0.70257735
-1.2027951 -2.4430039 -0.70007694
-1.2008833 -2.401799 -0.69032532
-1.2116548 -2.3866143 -0.68807495
-1.226276 -2.3791347 -0.68807495
-1.2471324 -2.3835778 -0.69157553
-1.269905 -2.3912749 -0.69607627
-1.2896044 -2.3928146 -0.69882673
-1.2982252 -2.373812 -0.69557619
-1.303844 -2.3497136 -0.6908254
-1.3272578 -2.357702 -0.69557619
-1.3345001 -2.3369 -0.69182557
-1.3512394 -2.3328574 -0.69307578
-1.3669988 -2.3270273 -0.6938259
-1.3852143 -2.3252513 -0.69582623
-1.4164705 -2.3448899 -0.70432764
-1.4384145 -2.3485413 -0.70807827
-1.4732208 -2.3725784 -0.71807998
-1.5011567 -2.3848016 -0.72458106
-1.4673427 -2.2996256 -0.70132715
-1.4435802 -2.2320328 -0.68332416
-1.4763504 -2.2522895 -0.69232565
-1.5078161 -2.2698071 -0.70057702
-1.5163099 -2.2524793 -0.69807661
-1.5290115 -2.241533 -0.69757652
-1.5295287 -2.2129898 -0.69157553
-1.5480754 -2.2107022 -0.6938259
-1.5862534 -2.235914 -0.70482773
-1.6327068 -2.2717481 -0.71933019
-1.6654155 -2.2875226 -0.72758156
-1.557626 -2.1120329 -0.67457265
-1.5543362 -2.0807121 -0.66757149
-1.568826 -2.0734525 -0.66832161
-1.5821077 -2.0645561 -0.66857165
-1.5787225 -2.0341535 -0.66182053
-1.5911741 -2.0244284 -0.66182053
-1.6011546 -2.0115962 -0.66082036
-1.6158971 -2.0047498 -0.66182053
-1.6263316 -1.9925463 -0.66107041
-1.6360604 -1.9795439 -0.66007024
-1.6506606 -1.9724387 -0.66107041
-1.6727444 -1.9740949 -0.66507107
-1.6974313 -1.978494 -0.6700719
-1.7120782 -1.970966 -0.67107207
-1.7139115 -1.9487885 -0.6670714
-1.7181123 -1.9295561 -0.6640709
-1.726679 -1.9153811 -0.6628207
-1.7547122 -1.9226334 -0.66907173
-1.7677901 -1.9132531 -0.66957182
-1.8072692 -1.932075 -0.68007356
-1.8077751 -1.9089953 -0.67582285
-1.8301728 -1.9090525 -0.67982352
-1.849942 -1.9061264 -0.68282408
-1.8595676 -1.8926672 -0.68207395
-1.878655 -1.8887745 -0.68482441
-1.8867745 -1.8737994 -0.6835742
-1.9134388 -1.877108 -0.68907511
-1.931177 -1.8713976 -0.69132549
-1.9454205 -1.8621916 -0.69232565
-1.9539965 -1.8475581 -0.69132549
-1.9709557 -1.8408223 -0.69332582
-1.9779449 -1.8247539 -0.69182557
-1.9984057 -1.8210633 -0.69507611
-2.0030663 -1.8029358 -0.69282573
-2.0162616 -1.7925417 -0.69357586
-2.0286775 -1.7814145 -0.69407594
-2.0329878 -1.7632222 -0.69182557
-2.0540612 -1.7595357 -0.69532615
-2.0722091 -1.7531545 -0.69782656
-2.1044703 -1.7584156 -0.70507777
-2.1122334 -1.7430041 -0.7040776
-2.12514 -1.7318462 -0.70482773
-2.1357262 -1.718774 -0.70482773
-2.1507795 -1.7092526 -0.70632797
-2.1635115 -1.6978172 -0.7070781
-2.1976099 -1.7029004 -0.71482944
-2.1949472 -1.6793791 -0.71057874
-2.2075276 -1.667631 -0.71132886
-2.2192705 -1.6552125 -0.71182895
-2.2184713 -1.6335244 -0.70832831
-2.2221882 -1.6153255 -0.70632797
-2.2383502 -1.6061773 -0.70832831
-2.2939823 -1.6248829 -0.72283077
-2.2951818 -1.604672 -0.72008032
-2.3432305 -1.6169633 -0.73208231
-2.3723116 -1.6156398 -0.73808336
-2.4062848 -1.6172614 -0.74558461
-2.3145082 -1.5350142 -0.71407932
-2.3238835 -1.5207838 -0.71407932
-2.3356109 -1.5080723 -0.71482944
-2.3840122 -1.5186917 -0.72683144
-2.3908267 -1.5024889 -0.72608131
-2.3950641 -1.4847288 -0.72458106
-2.3917398 -1.4624258 -0.72083044
-2.425539 -1.4627289 -0.72833169
-2.441957 -1.4522744 -0.73058206
-2.458338 -1.4416733 -0.73283243
-2.471328 -1.4289864 -0.73408264
-2.4876192 -1.418113 -0.73633307
-2.4988055 -1.4042462 -0.7370832
-2.5200779 -1.3959275 -0.74083382
-2.5268962 -1.37951 -0.74033374
-2.5643005 -1.3795825 -0.74883515
-2.5898247 -1.3728958 -0.75383598
-2.6376741 -1.3776065 -0.76533794
-2.6650167 -1.3711454 -0.77083886
-2.6820152 -1.3591459 -0.77333927
-2.6903043 -1.3426636 -0.77333927
-2.7037053 -1.3286943 -0.77483952
-2.7083211 -1.3103923 -0.77383935
-2.7180588 -1.2945826 -0.77433944
-2.7241979 -1.2770582 -0.77383935
-2.7319825 -1.2603189 -0.77383935
-2.7387826 -1.2431316 -0.77358931
-2.7472427 -1.2266984 -0.77383935
-2.7414215 -1.2039757 -0.77008873
-2.7576454 -1.1909727 -0.77258915
-2.7649012 -1.1740297 -0.77258915
-2.7148724 -1.1331614 -0.75658643
-2.7378969 -1.1230997 -0.76108718
-2.7600019 -1.1124357 -0.76533794
-2.7325697 -1.0819277 -0.75583631
-2.7265241 -1.060225 -0.75233573
-2.6732831 -1.0206686 -0.73583299
-2.6921875 -1.0090065 -0.73933357
-2.7192268 -1.0001605 -0.74508452
-2.7171164 -0.98049712 -0.74283415
-2.7322083 -0.96703935 -0.74533457
