# .PCD v0.7 - Point Cloud Data file format
VERSION 0.7
FIELDS x y z
SIZE 4 4 4
TYPE F F F
COUNT 1 1 1
WIDTH 1506
HEIGHT 1
VIEWPOINT 0 0 0 1 0 0 0
POINTS 1506
DATA ascii
12.302574 24.510351 1.5949945
12.391085 24.313435 1.5870948
12.495996 24.151827 1.5815184
12.162585 23.158171 1.5212824
12.110505 22.719269 1.4972926
11.928577 22.050961 1.4580261
11.924344 21.723564 1.4411808
11.90489 21.376127 1.4229416
11.995558 21.231405 1.4181786
12.140498 21.183386 1.4199212
12.49 21.486525 1.4453632
12.538961 21.269306 1.435895
12.504794 20.916916 1.4172491
12.421239 20.490631 1.3934916
12.417615 20.203955 1.3791442
12.397219 19.89607 1.3632865
12.328734 19.518311 1.3425496
12.318532 19.239676 1.3285507
12.239078 18.859745 1.3074652
12.239365 18.609137 1.295267
12.180011 18.273682 1.2770858
12.178474 18.030664 1.2652942
12.126492 17.718336 1.2485652
12.120065 17.477882 1.2368317
12.060643 17.166298 1.2199866
12.057489 16.939882 1.2091243
12.000632 16.6429 1.1931504
11.972389 16.390793 1.1803132
11.993169 16.209484 1.1725297
11.921773 15.907914 1.155975
11.864637 15.630899 1.1411047
11.876356 15.448585 1.1330887
11.83845 15.205276 1.120542
11.853024 15.032792 1.113165
11.794291 14.77099 1.099108
11.751002 14.532995 1.0867355
11.716626 14.309997 1.0754086
11.707996 14.121788 1.0666375
11.706488 13.944933 1.0586796
11.652822 13.709302 1.046191
11.612339 13.49302 1.0350964
11.615554 13.330443 1.0280679
11.578248 13.124168 1.0176123
11.582745 12.968 1.0109904
11.548936 12.771548 1.0011737
11.519225 12.582631 0.99187988
0.78095669 0.84290022 0.066151336
0.79157877 0.84391654 0.066616036
0.79261667 0.83470082 0.066267513
0.7914955 0.82334554 0.065744735
0.79653257 0.81847358 0.065744735
0.79032737 0.8021943 0.064815342
0.79170907 0.79379636 0.064524911
0.80011201 0.79243541 0.064815342
0.80139059 0.78402108 0.064524911
0.80475014 0.77770185 0.064408734
0.80661792 0.76999259 0.064176388
0.80551559 0.75955075 0.063711695
0.80504638 0.74983203 0.063305087
0.80522323 0.74082351 0.062956564
0.80310321 0.72982752 0.062433787
0.80310792 0.72088575 0.062085267
0.80527478 0.71395797 0.061911006
0.80287981 0.70308554 0.061388224
0.80491316 0.69618714 0.061213966
0.80309623 0.68604898 0.06074927
0.80729067 0.68110836 0.06074927
0.81068754 0.67550313 0.060691185
0.82021403 0.67495555 0.061097793
0.81969082 0.6661334 0.06074927
0.82921374 0.66546416 0.061155878
0.83249885 0.65974373 0.061097793
0.83338594 0.65216285 0.060865443
0.83737189 0.64703703 0.060865443
0.84370768 0.64370298 0.061039705
0.85322404 0.64271748 0.061446313
0.86356109 0.64223492 0.061911006
0.87231439 0.64046812 0.062259525
0.88673735 0.64271808 0.063014656
0.88254428 0.63145751 0.062433787
0.91576213 0.64675772 0.064524911
0.93363756 0.65082914 0.065512381
0.9441939 0.64961386 0.065977082
0.9522922 0.64661139 0.066267513
0.96204782 0.64464504 0.066674121
0.96848369 0.64038128 0.066848382
0.97573954 0.63660812 0.067080729
0.9888621 0.63655144 0.067719683
0.99612057 0.63261211 0.067952029
1.0109826 0.6333763 0.068707153
1.0224938 0.63188308 0.069229938
1.0272043 0.62611669 0.069288023
1.0412952 0.62597251 0.069985062
1.0519872 0.62364298 0.070449762
1.0497603 0.61365074 0.070043154
1.059561 0.61068654 0.070449762
1.0641563 0.60466677 0.070507847
1.0591357 0.59324872 0.069926977
1.0618818 0.58625644 0.069868892
1.068967 0.5816378 0.070101239
1.0742755 0.57601094 0.070217408
1.0830863 0.5722056 0.070565931
1.0945475 0.56969601 0.071088716
1.1051298 0.56661183 0.071553409
1.1121507 0.56161964 0.071785755
1.1245153 0.55922884 0.072366618
1.1324087 0.55451286 0.072657056
1.1321925 0.54582059 0.07242471
1.1183826 0.53073412 0.071321063
10.150318 4.7389312 0.6510849
10.230006 4.6998987 0.65433776
10.257742 4.6366286 0.65427965
10.269579 4.5663009 0.65323412
10.20868 4.4644036 0.6475997
10.264311 4.4139056 0.64940041
10.263616 4.3391795 0.64765781
10.181264 4.2309184 0.64080358
10.135868 4.139307 0.63633084
10.100852 4.0528736 0.63255525
10.08745 3.975812 0.63017368
10.043691 3.8875368 0.62593335
10.049624 3.8190989 0.62482971
10.002717 3.7311974 0.62047321
10.001986 3.6611729 0.619021
9.9979534 3.5902863 0.61739457
10.012261 3.5262196 0.61692989
10.028048 3.462764 0.61658138
10.025466 3.393167 0.61512923
9.9977713 3.315563 0.61216676
9.9780483 3.2412026 0.60972714
9.9758673 3.1729584 0.60839117
9.9665527 3.1027858 0.60664856
9.9252386 3.0232489 0.60298908
9.9215965 2.9557366 0.6016531
9.9242096 2.8903372 0.60072368
9.9139118 2.8214648 0.5990392
9.8665943 2.7426689 0.59514737
9.8793831 2.681031 0.59491503
9.8859968 2.6178067 0.59433413
9.868042 2.5483618 0.59230113
9.8602581 2.4819169 0.59090704
9.8452435 2.4139996 0.58910632
9.824913 2.3452013 0.58701521
9.8011932 2.2760663 0.58474982
9.7818642 2.2084103 0.58277488
9.7903547 2.147279 0.58248442
9.779912 2.0821774 0.58109039
9.7954369 2.0227354 0.58126462
9.7988539 1.9608309 0.58074182
9.7842379 1.8955432 0.57917351
9.7760601 1.8317958 0.57801175
9.8332853 1.7801338 0.58074182
10.082012 1.761336 0.59479886
10.350556 1.7428663 0.6100176
10.608405 1.7194091 0.62459737
11.829088 1.8428168 0.6958698
12.318046 1.8416374 0.72398376
12.512923 1.7923466 0.73478788
12.840191 1.7588854 0.75337565
13.216011 1.7278146 0.77480966
13.588946 1.6918261 0.79606944
13.955977 1.6506211 0.81698066
14.404352 1.6140888 0.842655
14.467594 1.5313486 0.8457917
14.466784 1.4415585 0.84521079
14.457465 1.3510932 0.84416527
14.454544 1.2614038 0.8435263
14.572462 1.1816431 0.84997392
14.654102 1.0977982 0.85433042
15.663496 1.0767955 0.9128238
16.248695 1.0168866 0.94657218
16.816782 0.94887954 0.9793331
17.46439 0.87794703 1.016741
18.236404 0.80460072 1.0614097
19.194696 0.72889417 1.1169406
20.048939 0.63815463 1.1664306
20.696177 0.53165376 1.2038965
21.659241 0.42341584 1.259776
23.666859 0.31738532 1.3764722
17.046736 0.12405573 0.9911828
25.882368 -0.020566469 1.0073999
27.527468 -0.19074106 1.0714864
29.583042 -0.38647291 1.1516042
31.285509 -0.6006918 1.2180252
35.012211 -0.88710612 1.3633579
35.186882 -1.1076072 1.3704008
38.798119 -1.4595604 1.5114143
38.80341 -1.6982487 1.5119979
38.798248 -1.9366089 1.5122315
38.792618 -2.1750255 1.5125039
38.781532 -2.4131975 1.5126206
38.763008 -2.6509068 1.5125039
42.509708 -3.1692395 1.6594707
42.460579 -3.4276831 1.6583424
42.422821 -3.6867681 1.6577197
42.405369 -3.9475558 1.6579531
42.386314 -4.2082682 1.6581867
42.333858 -4.4655414 1.6571749
42.328503 -4.7277641 1.65807
45.161682 -5.3249249 1.7703282
54.742924 -7.1366439 2.1492827
52.384956 -8.141304 2.0639119
52.89109 -8.8860073 2.0879977
51.245052 -9.2574739 2.0273354
51.189251 -9.5721006 2.0274134
51.290447 -9.917119 2.0337946
51.124763 -10.210901 2.0296702
51.545895 -10.954451 2.0515771
51.352997 -11.573871 2.0493979
46.728138 -21.447279 2.0016541
46.017895 -21.464117 1.9768289
45.546715 -21.585602 1.9622374
44.109726 -21.237017 1.9058942
43.241611 -21.146872 1.8739482
42.689526 -21.202452 1.8556212
41.518318 -20.939341 1.8102509
40.866074 -20.925909 1.7873713
39.702225 -20.638428 1.7419621
39.019836 -20.588808 1.717526
38.351906 -20.538208 1.6936346
38.145267 -20.729727 1.6900936
38.082981 -20.999578 1.693012
38.000507 -21.259199 1.6951132
37.980587 -21.555096 1.7000939
37.870991 -21.801193 1.7011445
34.394379 -20.081858 1.5504421
33.887886 -20.065968 1.5331266
33.387184 -20.047197 1.5160058
32.654995 -19.881191 1.4882623
32.142952 -19.840805 1.470441
31.683472 -19.826696 1.4549544
31.193323 -19.787363 1.4379892
30.558619 -19.648741 1.4142535
30.110146 -19.622561 1.3990393
29.686506 -19.607046 1.3849146
29.178667 -19.529835 1.3667821
28.756435 -19.503784 1.3525795
28.610691 -19.662319 1.3513733
28.059805 -19.538309 1.3309839
27.733629 -19.56496 1.3211783
26.900894 -19.225805 1.2870923
26.583309 -19.246355 1.2775202
26.283415 -19.276144 1.2687652
26.105286 -19.392962 1.2658858
25.89238 -19.482485 1.2613332
25.448879 -19.394484 1.2454964
24.553389 -18.951342 1.2073247
24.331148 -19.01918 1.2021106
23.931936 -18.944847 1.1881026
23.606293 -18.923838 1.1776745
23.488182 -19.067068 1.1775967
23.445625 -19.272377 1.1813711
23.420631 -19.49386 1.1861182
23.378513 -19.702879 1.1900871
23.302027 -19.884226 1.1923829
23.35198 -20.175774 1.2012546
23.317245 -20.396967 1.2058851
23.291893 -20.628429 1.211099
23.24523 -20.842999 1.2153015
23.19681 -21.057772 1.2195039
23.18856 -21.311274 1.2259241
23.17734 -21.564781 1.2323055
23.180605 -21.834705 1.2395819
23.153223 -22.078587 1.2453408
23.099274 -22.299353 1.2497766
23.076355 -22.55241 1.2560024
23.048359 -22.803211 1.2620726
23.032267 -23.068657 1.2689209
22.992731 -23.313414 1.2746018
22.924559 -23.531355 1.2788042
22.916933 -23.814131 1.2865087
22.901188 -24.091904 1.2939017
22.888367 -24.3762 1.3016061
22.824665 -24.609224 1.3065478
22.825113 -24.914585 1.3153027
22.78244 -25.176416 1.3217231
22.708775 -25.406624 1.3264703
22.779957 -25.803167 1.3398557
22.732189 -26.069735 1.3464316
22.61223 -26.255669 1.3488441
22.655293 -26.634436 1.36114
22.619991 -26.925961 1.3689221
22.526451 -27.151146 1.3733191
22.227066 -27.127316 1.3651867
21.989799 -27.176189 1.3608286
21.686649 -27.140427 1.3523461
13.831305 -17.52947 0.86903232
21.573978 -28.042665 1.377288
21.397879 -28.169739 1.3770546
21.273193 -28.365253 1.3802063
21.192698 -28.622133 1.3863543
21.172945 -28.965405 1.3966657
21.067909 -29.19606 1.4015296
8.2979736 -11.650054 0.556499
8.1148338 -11.542172 0.54895031
8.025629 -11.565478 0.54770511
7.905952 -11.543606 0.54435879
7.7745357 -11.502491 0.54015642
7.646697 -11.464358 0.53614855
7.6635642 -11.643771 0.54233539
21.887165 -33.700874 1.5643333
21.850328 -34.100395 1.5766292
21.81101 -34.503262 1.5890418
21.720503 -34.831455 1.5979913
21.646158 -35.191322 1.6083806
21.637661 -35.666054 1.6239839
21.567711 -36.047672 1.635307
10.222622 -17.326904 0.78292221
10.11109 -17.380667 0.78253311
9.9982872 -17.431978 0.78206617
9.8463793 -17.413845 0.77852529
9.6906939 -17.386654 0.77463418
9.5583286 -17.399372 0.77257192
9.4399691 -17.436604 0.77163804
9.3153992 -17.461576 0.77019835
9.1694908 -17.444994 0.76696873
8.9984064 -17.377592 0.76156008
9.0555239 -17.753813 0.77560699
9.3223314 -18.557285 0.80821443
9.4067993 -19.015381 0.82564652
9.2912579 -19.075436 0.82576329
9.1675577 -19.11857 0.82517958
9.0445299 -19.162716 0.82467377
8.9200439 -19.203352 0.8240512
8.7866764 -19.224096 0.82261145
22.924183 -51.825306 2.2062483
22.876019 -52.586235 2.23263
12.609446 -30.509968 1.2850689
12.342288 -30.390495 1.2768198
12.119292 -30.374701 1.2730066
10.165736 -25.94005 1.0844437
9.9966888 -25.976759 1.0833931
9.8212175 -25.995544 1.0816422
9.6094112 -25.914782 1.0758054
9.4283533 -25.91316 1.0733151
9.2463341 -25.90653 1.0706692
9.0465937 -25.846771 1.0658832
8.8871832 -25.899902 1.0658053
8.928134 -26.548733 1.0902414
8.8122864 -26.746321 1.096117
8.666728 -26.857899 1.0984906
8.1621895 -25.835793 1.0545989
8.6854048 -28.09062 1.1444834
8.5467329 -28.255287 1.149036
8.864996 -29.969667 1.2165467
8.6823263 -30.028296 1.2167412
7.9760242 -28.233767 1.141993
7.0948887 -25.717039 1.0383731
6.9772363 -25.909641 1.0444043
7.8432398 -29.853483 1.201488
7.6517305 -29.869102 1.200204
6.3931241 -25.609047 1.0273613
6.2240648 -25.599245 1.0254157
7.0359735 -29.731647 1.18927
6.8457894 -29.741152 1.187947
6.6647 -29.789421 1.1882194
6.0883746 -28.019413 1.1160784
5.9206667 -28.076777 1.1168956
5.2135463 -25.497715 1.0129641
5.0595217 -25.541965 1.0134701
5.6655483 -29.550985 1.1712153
5.47647 -29.543926 1.1695811
4.9963999 -27.908789 1.103588
5.1051745 -29.560659 1.1676744
4.9010615 -29.455402 1.1623046
4.7158108 -29.457293 1.1612152
4.5251007 -29.421478 1.1586859
4.3401127 -29.419035 1.1575186
4.1591001 -29.442144 1.1574019
3.9688742 -29.396801 1.1546392
3.7885516 -29.421589 1.1546781
3.6019967 -29.395681 1.1527715
3.4176345 -29.383486 1.1514485
3.2335577 -29.370131 1.1501255
3.0494637 -29.352644 1.1486858
2.8642485 -29.319088 1.1466625
2.6797423 -29.286356 1.1447169
2.495491 -29.249483 1.1426545
2.3154995 -29.258266 1.1424211
2.1350577 -29.259964 1.1419542
1.9560814 -29.281487 1.1423044
1.7663325 -29.127367 1.1358452
1.7508444 -32.132935 1.252656
1.5613213 -32.301773 1.2588429
1.3659151 -32.377632 1.2614499
1.0656884 -60.448776 2.3537989
0.69469261 -60.448181 2.3535655
0.32380864 -60.457306 2.3537989
-0.047188763 -60.500122 2.3554332
-0.069499977 -9.9691935 0.38774195
-0.13068151 -9.9695778 0.38778085
-1.162802 -60.593903 2.3595188
-1.5349061 -60.598618 2.3600247
-1.9073945 -60.610027 2.3608806
-2.2793674 -60.600174 2.3609974
-2.652252 -60.610008 2.3619702
-3.0262895 -60.636509 2.3636823
-3.3996332 -60.640743 2.3646162
-3.7750037 -60.672592 2.3667173
-4.1509614 -60.703121 2.3688574
-4.5250592 -60.699425 2.3697524
-4.9020004 -60.727291 2.3719704
-5.2765136 -60.718964 2.3728652
-5.6531458 -60.730217 2.3746164
-6.0311022 -60.749077 2.3767564
-6.4059386 -60.731796 2.3775735
-6.7847829 -60.747952 2.3797915
-7.1651196 -60.770672 2.3823595
-7.5468512 -60.797951 2.3852
-7.9260874 -60.799057 2.3871067
-8.3057556 -60.798782 2.3890524
-8.6824694 -60.773384 2.3901029
-12.013109 -80.554436 3.171047
-12.483987 -80.330109 3.1651714
-13.00456 -80.424622 3.1719809
-8.179636 -46.922279 1.8542593
-19.209351 -106.338 4.2074032
-19.868813 -106.25742 4.2089596
-20.566513 -106.3719 4.2184148
-21.253256 -106.41617 4.2252631
-4.4675765 -21.020184 0.83634704
-4.6246781 -21.121223 0.84148329
-4.7711043 -21.167509 0.84447944
-4.9394841 -21.304293 0.85113323
-5.0009723 -20.426781 0.81844801
-5.1342516 -20.427692 0.81973207
-5.2809525 -20.479017 0.82307839
-5.407021 -20.448162 0.82315624
-5.5235009 -20.381807 0.82183325
-5.6449833 -20.335014 0.82132739
-5.7751131 -20.31922 0.82210565
-5.9476767 -20.448433 0.82879835
-6.0610671 -20.371328 0.82716405
-6.1906023 -20.349051 0.82778662
-6.3067417 -20.28301 0.82665825
-6.43501 -20.256311 0.82716405
-6.5656548 -20.236406 0.82798117
-6.6972394 -20.218506 0.82891506
-6.812212 -20.150526 0.82782555
-6.926929 -20.082842 0.82677495
-7.0443873 -20.023935 0.82611346
-7.1823006 -20.022661 0.82786447
-7.3194332 -20.017632 0.82949871
-7.4609604 -20.022907 0.83159989
-7.6063738 -20.036539 0.83409023
-7.7432256 -20.025839 0.83560777
-7.8260565 -19.876604 0.83136648
-7.8002853 -19.459986 0.8159188
-7.9157681 -19.402506 0.81552964
-8.0166655 -19.310194 0.81370085
-8.1116743 -19.205412 0.8113662
-8.1670475 -19.010214 0.80521828
-8.2703381 -18.929527 0.80393416
-8.3753796 -18.853769 0.80288357
-8.4806252 -18.779257 0.80191082
-8.5961103 -18.727774 0.80194974
-8.7260647 -18.707277 0.80335051
-8.8689299 -18.71298 0.80591863
-9.1305256 -18.963423 0.8191095
-26.272388 -45.638203 2.0501373
-25.708025 -44.030731 1.9849614
-25.406822 -41.731236 1.902042
-25.161175 -40.762516 1.864882
-25.406574 -40.600586 1.8645707
-25.015602 -39.435585 1.8180721
-24.908998 -38.222328 1.776087
-24.099525 -36.006321 1.6867085
-23.090942 -33.162106 1.5730883
-23.305506 -33.036129 1.5738665
-12.000165 -16.574354 0.79634655
-12.089819 -16.484297 0.79556835
-12.214572 -16.441891 0.79712474
-12.330247 -16.386595 0.79809755
-12.52565 -16.435408 0.80420655
-12.689145 -16.439718 0.80821443
-12.826699 -16.408787 0.81054908
-22.40489 -28.303003 1.4051872
-22.386261 -27.92564 1.3932415
-12.570482 -15.484864 0.77619064
-12.804216 -15.576496 0.78471214
-12.915531 -15.516838 0.78568494
-13.029171 -15.459455 0.78681332
-13.155566 -15.416466 0.78871995
-13.302173 -15.395946 0.79183286
-13.447705 -15.3727 0.79486793
-13.602727 -15.358719 0.79844773
-14.275057 -15.919995 0.8321836
-14.647835 -16.135454 0.84813708
-14.770906 -16.071758 0.84953791
-14.915526 -16.030571 0.85218382
-15.079379 -16.008579 0.8559193
-15.34282 -16.089312 0.86525798
-15.478036 -16.03297 0.86732024
-15.652246 -16.015594 0.87156153
-15.750924 -15.919964 0.87160045
-15.919023 -15.89362 0.87549156
-15.987786 -15.767576 0.8739351
-15.996199 -15.583414 0.86914903
-16.038237 -15.433696 0.86626965
-15.572082 -14.802127 0.83615249
-15.632747 -14.678256 0.83455718
-15.694677 -14.556236 0.83307856
-15.82643 -14.498813 0.83533537
-15.961031 -14.443 0.83774787
-16.080641 -14.372763 0.83938211
-16.182013 -14.285728 0.84008253
-16.316057 -14.226885 0.84249502
-16.468914 -14.183235 0.84588027
-16.612715 -14.130474 0.84879857
-16.725119 -14.050129 0.85012156
-16.828701 -13.961916 0.85101652
-16.899366 -13.84636 0.85027719
-16.941286 -13.707837 0.84813708
-16.996975 -13.581173 0.84673631
-17.070574 -13.469198 0.84626937
-11.114329 -8.6591244 0.54817206
-17.25992 -13.278199 0.84751451
-7.8889556 -5.9918933 0.38529056
-17.376797 -13.031819 0.84533548
-17.433144 -12.907707 0.84420711
-17.470068 -12.769833 0.84218371
-17.322832 -12.499843 0.83136648
-17.066332 -12.156199 0.81545186
-17.027796 -11.971939 0.81008214
-17.039366 -11.824504 0.80716377
-17.043999 -11.673428 0.80397308
-12.441272 -8.4091225 0.5842815
-12.575762 -8.3880777 0.58817261
-12.675403 -8.3426218 0.59042943
-12.809317 -8.318572 0.59428161
-16.829523 -10.783365 0.7778638
-16.8202 -10.632378 0.77440071
-16.575645 -10.335977 0.76019818
-15.631886 -9.6147308 0.71416646
-15.402684 -9.3439646 0.70105344
-13.880261 -8.3042345 0.62937939
-15.201208 -8.9683981 0.68681204
-15.231767 -8.8608875 0.68572253
-12.778277 -7.328907 0.57315296
-12.477694 -7.0550957 0.55770528
-12.376735 -6.8981271 0.55128497
-12.166604 -6.6834855 0.54007858
-12.065033 -6.5316334 0.53377497
-11.940021 -6.3695226 0.52649862
-11.901044 -6.2552252 0.52307445
-11.901046 -6.1623254 0.52140129
-11.91104 -6.07511 0.52019507
-11.916841 -5.9862103 0.51883316
-11.961408 -5.9169655 0.51918334
-12.010064 -5.8495865 0.51972812
-12.065553 -5.7852893 0.52058417
-12.089076 -5.7056026 0.5200783
-7.608098 -3.5335555 0.32618472
-12.071847 -5.5173573 0.51638174
-12.022543 -5.4058871 0.51284087
-12.016191 -5.3146348 0.51116771
-12.036663 -5.2356224 0.51066184
-12.059375 -5.1577387 0.51027274
-12.074215 -5.076674 0.50957233
-12.071893 -4.9887524 0.50817156
-12.052282 -4.8942819 0.50607038
-12.051459 -4.8080177 0.50478631
-12.034217 -4.7157502 0.50284076
-12.015365 -4.6235161 0.50085628
-11.96312 -4.519331 0.49750993
-11.94659 -4.429512 0.49568111
-11.942557 -4.3448505 0.49439704
-11.955817 -4.266788 0.49385229
-12.006294 -4.2019315 0.49486399
-12.03374 -4.1288319 0.4949418
-12.011493 -4.03899 0.49299625
-11.966768 -3.9423847 0.49015576
-11.960303 -3.8590634 0.48891059
-11.963747 -3.7792819 0.48809347
-11.986712 -3.7058022 0.48809347
-11.809328 -3.5717137 0.47996107
-11.951755 -3.5349014 0.48486385
-12.044253 -3.4820402 0.48774326
-12.086547 -3.4140494 0.4885993
-12.106304 -3.3395576 0.48856038
-11.843863 -3.1890748 0.47715947
-11.974348 -3.1455438 0.48163423
-11.963416 -3.0643237 0.48042798
-11.889892 -2.967865 0.47673145
-11.640867 -2.8299272 0.46603093
-11.636621 -2.7533841 0.46517488
-11.543259 -2.6566005 0.46077794
-11.558367 -2.5855043 0.46073902
-11.521285 -2.5030763 0.45863783
-11.50514 -2.4257374 0.45739266
-11.446383 -2.3400824 0.45447433
-11.445823 -2.266892 0.45389068
-11.500735 -2.2045221 0.45552495
-11.507168 -2.1326385 0.45525256
-11.510201 -2.0602305 0.45486346
-11.510809 -1.9875256 0.45439652
-11.284251 -1.8771639 0.44498006
-11.293584 -1.8075737 0.44490224
-11.303474 -1.7380916 0.44486332
-11.322824 -1.6700147 0.44521353
-7.3831081 -1.0424627 0.28988072
-7.3695602 -0.99446684 0.28910252
-11.250556 -1.4482965 0.4412446
-11.254272 -1.3786294 0.44105005
-11.267483 -1.3101258 0.4412446
-11.261403 -1.239434 0.44069985
-11.235003 -1.1668005 0.43937686
-11.18626 -1.0923998 0.43719783
-11.159914 -1.0207362 0.43591377
-11.158998 -0.95164633 0.43564141
-11.239337 -0.88907224 0.43855974
-11.279461 -0.82263821 0.43992162
-11.327168 -0.75627822 0.44159478
-11.3296 -0.6866408 0.44151697
-11.329609 -0.61689317 0.44136134
-11.333182 -0.54736441 0.44136134
-11.341318 -0.47802567 0.44155589
-11.330057 -0.40792352 0.44101113
-11.310374 -0.33773845 0.44015509
-11.289258 -0.26778659 0.43926013
-11.250724 -0.197807 0.4377037
-11.258719 -0.12885059 0.43797606
-11.353227 -0.060270064 0.4416337
-11.405344 0.0094331177 0.44365707
-11.406071 0.079421706 0.44369599
-11.384385 0.14913289 0.44287884
-11.376263 0.21884924 0.44260648
-11.458616 0.290773 0.44587502
-11.512546 0.36283576 0.44805402
-11.575006 0.43590915 0.45058325
-11.608053 0.50849611 0.45198405
-11.592739 0.57911462 0.45151711
-11.579988 0.64973217 0.4511669
-11.67352 0.72685337 0.45498019
-11.693764 0.80017108 0.45595297
-11.694613 0.87235326 0.45618641
-11.705972 0.9454602 0.45684791
-11.738774 1.0206424 0.45836544
-11.795967 1.0985776 0.46085575
-11.831761 1.1751801 0.46252891
-11.839234 1.2493284 0.46311259
-11.880999 1.3274941 0.46505815
-11.938126 1.4080912 0.46762627
-11.970909 1.486485 0.46926051
-12.248913 1.5973663 0.48054472
-12.288383 1.6792561 0.48249027
-12.388639 1.7704517 0.48684829
-12.441784 1.8560132 0.48937753
-12.532849 1.9482775 0.49342427
-11.271837 1.8232185 0.44416294
-10.745056 1.8057662 0.42381245
-10.570363 1.8431787 0.41735324
-10.515588 1.900187 0.41564116
-10.580344 1.9789989 0.4186762
-10.638639 2.0575383 0.42147779
-10.736542 2.1448908 0.42587474
-7.052176 1.454133 0.27991951
-10.684977 2.2712905 0.42490196
-10.655221 2.3333902 0.42427939
-10.552972 2.3789539 0.42077741
-10.548883 2.4461434 0.42120543
-10.580333 2.5219421 0.42307314
-10.705395 2.6212652 0.42871526
-6.4405327 1.6192168 0.25812936
-5.9099092 1.5244826 0.23719522
-5.7999749 1.5341533 0.23314847
-5.3998446 1.4638703 0.21738951
-5.212635 1.4475341 0.21019097
-4.9326015 1.4024614 0.19921806
-4.7694259 1.3877743 0.19295339
-4.477324 1.332674 0.18143573
-4.3677278 1.3292965 0.17731117
-4.219223 1.3124622 0.17159124
-4.0682378 1.2929498 0.16575459
-3.9366655 1.2778025 0.16069616
-3.8206143 1.2661176 0.1562603
-3.6035702 1.2188191 0.14766097
-3.532733 1.2190794 0.14505392
-3.4271533 1.2062484 0.14100718
-3.3942919 1.2181457 0.13995659
-3.3398294 1.2217937 0.13801104
-3.2957518 1.2286572 0.1364935
-3.247046 1.2332535 0.13478142
-3.2002733 1.2380196 0.13314717
-3.1451979 1.2389641 0.1311627
-3.0661178 1.2296147 0.12816654
-3.0316837 1.2374593 0.12703814
-3.0000389 1.2460774 0.12602644
-2.9776084 1.2582418 0.12540387
-2.8982189 1.245725 0.12236881
-2.8767855 1.2574843 0.12178514
-2.9302003 1.30229 0.12439218
-2.9276187 1.3227123 0.12462565
-2.869499 1.3177261 0.12248554
-2.8595481 1.3344635 0.12240772
-2.8458884 1.3494167 0.12217426
-2.8276513 1.3620852 0.12174623
-2.8012874 1.3706304 0.12096801
-2.7749257 1.3789034 0.12018979
-2.7976398 1.4116526 0.12155168
-2.8565216 1.4634042 0.12450891
-2.7916319 1.4518689 0.12205752
-2.7561576 1.4549816 0.12089019
-2.742774 1.4695072 0.12069564
-2.7082441 1.4724725 0.11956722
-2.7079084 1.4938872 0.11995632
-2.7039237 1.5134016 0.12018979
-2.6945868 1.5299641 0.12018979
-2.6834161 1.5454719 0.12011196
-2.6712942 1.5603966 0.11999524
-2.663389 1.5777762 0.12007306
-2.6596546 1.5976893 0.12034544
-2.6549222 1.6170962 0.1205789
-2.6466506 1.6344059 0.12065672
-2.6425018 1.6543249 0.1209291
-2.6415832 1.6763954 0.12135712
-2.6438549 1.7006786 0.12194078
-2.6400671 1.7212332 0.12225208
-2.6327915 1.7396028 0.12240772
-2.6594365 1.7807351 0.12415871
-2.6319203 1.7858021 0.1233805
-2.6316192 1.8092748 0.12388634
-2.6417892 1.8402336 0.12489802
-2.6394298 1.8627447 0.12532604
-2.6287637 1.8794857 0.12536496
-2.6349883 1.9084717 0.126221
-2.6530426 1.9464682 0.12766071
-2.6266108 1.9519849 0.12696031
-2.6129873 1.9668632 0.12688248
-2.6350446 2.0089025 0.12855566
-2.6313701 2.031749 0.12898368
-2.6227903 2.0509331 0.12917824
-2.6195583 2.07443 0.12964517
-2.613018 2.0954642 0.12995645
-2.6140759 2.1227937 0.13065685
-2.595598 2.1343517 0.13038447
-2.5885973 2.1553516 0.13069576
-2.5829644 2.1776338 0.13108487
-2.5649934 2.1895499 0.1308514
-2.5590715 2.2117798 0.13124052
-2.5890746 2.2655978 0.13349736
-2.5870934 2.2920413 0.13411993
-2.5796769 2.3138759 0.13447013
-2.5720894 2.3357055 0.13482033
-2.5599165 2.353472 0.13493706
-2.5490856 2.3725383 0.13513163
-2.5446634 2.3977263 0.13567637
-2.5400276 2.4229488 0.13622113
-2.5344591 2.4475107 0.13672698
-2.5344012 2.4776821 0.13754411
-2.5369098 2.5107553 0.13851687
-2.540519 2.5453665 0.13956748
-2.5536218 2.5900755 0.14116283
-2.5809138 2.6500704 0.14357531
-2.5840056 2.6860166 0.14466482
-3.5712528 3.757746 0.20139708
-3.5474446 3.7788596 0.20135817
-3.5058439 3.7807744 0.20030758
-3.4778545 3.7970572 0.2000352
-3.4357171 3.79758 0.19894569
-3.3883779 3.7917693 0.19754489
-3.31148 3.7518137 0.1943931
-3.2660682 3.7464557 0.19307013
-3.2267163 3.7474968 0.19209735
-3.1848855 3.7451525 0.19096893
-3.1444914 3.7439668 0.18991834
-3.1106129 3.7501175 0.18925685
-3.0609446 3.7366707 0.18762258
-3.0235023 3.7375162 0.18672763
-2.9761846 3.7255533 0.18521009
-2.9266529 3.7100136 0.18353693
-2.8897078 3.7097723 0.18264197
-2.8364251 3.6878347 0.18069643
-2.7962148 3.6820939 0.17956801
-2.7615783 3.6831939 0.17878978
-2.7288179 3.6864173 0.1781283
-2.7020192 3.6974449 0.17785592
-2.6740186 3.7066622 0.17750572
-2.6442678 3.7132332 0.17703879
-2.614537 3.7195792 0.17657186
-2.6013501 3.7495074 0.17723334
-2.5511906 3.7258272 0.17536561
-2.5294003 3.7430668 0.17544344
-2.5080495 3.7610102 0.17556016
-2.488771 3.782171 0.17583254
-2.467694 3.8007226 0.17598818
-2.4464831 3.8191578 0.17614384
-2.4128585 3.8180494 0.17540452
-2.3899145 3.8336306 0.17544344
-2.3590174 3.836307 0.17489868
-2.3250675 3.8336232 0.17412046
-2.2973969 3.8409576 0.17380917
-2.2671847 3.8437941 0.17330334
-2.2676768 3.8990908 0.17517106
-2.2491786 3.922466 0.17559908
-2.2339218 3.9518495 0.17629948
-2.2354167 4.0117407 0.17836176
-2.1919944 3.9912264 0.17684422
-2.1960092 4.0573239 0.17917889
-2.1861241 4.0989337 0.18042405
-2.1702313 4.1299601 0.18120226
-2.1646082 4.1813531 0.18287544
-2.1511707 4.2185898 0.18392603
-2.1422918 4.2656393 0.18540466
-2.1559567 4.3593106 0.18890664
-2.1226039 4.3589821 0.18832298
-2.1139648 4.4097662 0.18995725
-2.1005163 4.4515705 0.1912024
-2.0992634 4.5205617 0.19361489
-2.0897646 4.5733447 0.19532697
-2.0784669 4.623446 0.19692232
-2.0561223 4.6498194 0.19750598
-2.0586448 4.7338185 0.20054103
-2.1002977 4.9117308 0.20754503
-2.1100166 5.0194001 0.21155286
-3.2230949 9.2099047 0.37949282
-3.1503067 9.18225 0.37754726
-2.7942858 9.239378 0.37540716
-2.724786 9.2132311 0.37365615
-2.661819 9.2076988 0.37276119
-2.6079884 9.2334738 0.37315032
-2.5486259 9.2396698 0.37276119
-2.5183897 9.35355 0.37673011
-2.4693296 9.4007187 0.37801418
-2.4242492 9.4650602 0.37999865
-2.3920264 9.5834913 0.38416213
-2.3379002 9.6174078 0.38494036
-2.3057706 9.7453403 0.38949293
-2.2728307 9.8761578 0.39416227
-2.2095709 9.8782158 0.39369532
-5.6518831 26.010851 1.0360384
-5.7431259 27.234947 1.0833931
-5.6047359 27.410646 1.0889963
-5.439549 27.460201 1.0896189
-5.3437762 27.87285 1.1046774
-5.2163658 28.140915 1.1140161
-5.1040053 28.509769 1.1273626
-6.9904585 40.475643 1.599003
-6.752635 40.581844 1.6015322
-6.4976573 40.586006 1.6000925
-6.2486558 40.626099 1.6001314
-10.275852 69.647667 2.7410026
-4.0580311 28.726795 1.1292692
-10.176313 83.038353 3.2572739
-4.1807938 57.287102 2.2362487
-2.6018465 72.167374 2.8115871
0.054982413 70.634438 2.7500687
7.2424917 97.156586 3.7933509
7.8331103 97.043579 3.7907438
7.8803887 70.558479 2.7641935
8.7873802 70.792625 2.7773843
9.1666965 70.316261 2.7608471
26.715096 70.376999 2.9308493
14.009526 36.233482 1.5122703
14.23598 36.157997 1.5127373
14.147906 35.297344 1.4803244
14.129456 34.634384 1.4561218
13.990781 33.701672 1.4204793
13.89252 32.893505 1.389973
13.789612 32.098858 1.3599337
13.677088 31.305824 1.3298554
13.630404 30.684349 1.3069758
13.540431 29.984505 1.280672
13.473235 29.354145 1.2572476
13.393756 28.714893 1.2333561
13.304809 28.073227 1.2092702
13.235376 27.489578 1.1875968
13.184313 26.959021 1.1681414
13.122355 26.420298 1.1482577
13.064192 25.902996 1.1292303
12.46597 24.344126 1.0645602
12.922971 24.859434 1.0905527
12.866358 24.383745 1.0731206
12.827045 23.951984 1.0575562
12.767656 23.49354 1.0407467
12.742216 23.107618 1.0270889
12.693987 22.689768 1.0119525
12.649009 22.287298 0.99743867
12.57814 21.849005 0.98125172
12.534622 21.467665 0.96755499
12.478758 21.073935 0.95323575
12.462262 20.754528 0.94222397
12.423098 20.404547 0.92977244
12.379588 20.054987 0.91728199
12.350285 19.73554 0.90611452
12.295587 19.382622 0.89335173
12.267295 19.078197 0.88276792
12.23737 18.777367 0.87230086
12.176137 18.43511 0.85984933
12.125623 18.115908 0.84840947
12.135594 17.892309 0.84140551
12.092347 17.595156 0.83089954
12.056767 17.314796 0.82113284
12.024541 17.044527 0.81179422
12.006887 16.799702 0.8036229
11.970866 16.533886 0.79440099
11.946222 16.28849 0.78611296
11.919023 16.044027 0.77782488
11.861041 15.762989 0.767708
11.847306 15.545267 0.7606262
11.822193 15.316445 0.75296074
11.819952 15.120803 0.74689066
11.743817 14.834884 0.73630685
11.756498 14.665088 0.73144299
11.702046 14.415013 0.72253233
11.694464 14.226377 0.7166568
11.667112 14.016877 0.7096917
11.635059 13.805195 0.70257097
11.633283 13.632447 0.6973958
11.609576 13.436804 0.69101441
11.583911 13.24197 0.68463302
11.598696 13.095838 0.68074191
11.567431 12.900178 0.67424375
11.517416 12.686903 0.66677284
11.511879 12.525498 0.66198677
0.78322428 0.84085524 0.044274393
0.77603668 0.82294071 0.043573998
0.76659048 0.80297697 0.042756867
0.78399503 0.81119877 0.043457262
0.79594165 0.81351954 0.043846373
0.80232388 0.81004113 0.043924198
0.79950082 0.79733658 0.043496177
0.80153239 0.78960919 0.04334053
0.80349934 0.78188711 0.043184888
0.79604197 0.765163 0.042523399
0.79999775 0.75957572 0.042484488
0.8039149 0.75396872 0.042445578
0.80559552 0.74630368 0.042289935
0.8064757 0.73797154 0.042095378
0.808025 0.73032725 0.041939735
0.8035509 0.71736455 0.041472804
0.80569023 0.71043652 0.041356068
0.80476242 0.70088243 0.041083694
0.80299062 0.69071454 0.040772405
0.80721366 0.68577445 0.040772405
0.80834597 0.67823756 0.040616758
0.81018531 0.67135072 0.040500026
0.81506228 0.66700017 0.040538937
0.81836283 0.66135794 0.040500026
0.83177298 0.66380954 0.040966958
0.83426148 0.65745544 0.040889136
0.83827984 0.65232414 0.040889136
0.84305865 0.64777756 0.040928047
0.8509959 0.64561468 0.041122604
0.85654008 0.64157999 0.041200425
0.86367285 0.63869083 0.041356068
0.8812893 0.64340413 0.042017557
0.89332354 0.64383185 0.042406667
0.90865129 0.64645487 0.04295142
0.92077482 0.64661479 0.04334053
0.93375516 0.64721972 0.043768551
0.94430399 0.6459955 0.04407984
0.9507336 0.64186794 0.044196572
0.96379805 0.64212191 0.044624593
0.97356248 0.64004189 0.044896971
0.97830933 0.6346004 0.044935882
0.98555011 0.63074213 0.045091528
0.99278021 0.62681884 0.045247171
0.99830335 0.62177294 0.045324992
1.004653 0.61720639 0.045441724
1.0135471 0.61414015 0.045675192
1.0181538 0.60842264 0.045714103
1.0244496 0.60368723 0.045830835
1.0298619 0.59839499 0.04590866
1.0335141 0.59206462 0.04590866
1.0379974 0.58620375 0.04594757
1.0459387 0.58225626 0.046142124
1.0521191 0.57727098 0.046258856
1.0617924 0.57413477 0.046531234
1.06794 0.56902003 0.046647966
1.0758338 0.56478125 0.046842523
1.0890394 0.56322402 0.047270544
1.0906947 0.55562311 0.047192723
1.1065838 0.55520046 0.047737475
1.1198215 0.55327421 0.048165496
1.116907 0.54332954 0.047893118
1.1310318 0.54165095 0.048360053
1.114454 0.52531707 0.047504008
10.047678 4.6668444 0.43093318
10.186089 4.6553702 0.43564141
10.213551 4.5923719 0.43560249
10.213207 4.5170856 0.43439627
10.213243 4.4423747 0.43322891
10.213665 4.368227 0.4321005
10.208037 4.2919178 0.43073863
10.205552 4.2173696 0.42953238
10.194205 4.1396298 0.42797592
10.200852 4.0695953 0.42719772
10.181905 3.98979 0.42536891
10.197801 3.9240096 0.4250187
10.214208 3.8585379 0.42470741
10.24987 3.8003085 0.42521325
10.309618 3.7506704 0.42673078
10.361611 3.6977546 0.42793703
10.405797 3.6417003 0.42883196
10.444014 3.583297 0.42949346
10.475275 3.5223312 0.42988259
10.47676 3.4514232 0.42906544
10.466359 3.3769467 0.42778137
10.464015 3.3054376 0.42684752
10.465007 3.2352655 0.42606929
10.455011 3.1620233 0.42486307
10.442596 3.0884593 0.42357898
10.435432 3.0168319 0.42252839
10.430668 2.9462245 0.42159453
10.415799 2.8731313 0.42027155
10.399462 2.8000722 0.41890967
10.395185 2.7306232 0.41805363
10.39916 2.6635642 0.41754779
10.389132 2.5931704 0.4164972
10.369894 2.5208757 0.4150964
10.347243 2.4482245 0.41357887
10.08844 2.3216987 0.40264487
9.8440866 2.2019343 0.39233345
10.301697 2.2380409 0.41003796
10.332835 2.1785004 0.41073835
10.342092 2.1142573 0.41058272
10.367612 2.0532842 0.41108856
10.586102 2.0291469 0.41925988
10.808609 2.0031328 0.42758682
11.031188 1.9744631 0.43591377
11.263659 1.9448367 0.44462985
11.419291 1.899636 0.45031086
11.773108 1.8843515 0.46381298
11.913828 1.8319794 0.46891034
12.310375 1.8157281 0.48408562
12.552808 1.7728699 0.4931908
12.855576 1.7352606 0.50466955
13.329794 1.7160825 0.5228799
13.640594 1.6710913 0.53466994
14.008903 1.6290464 0.54871684
14.442747 1.5897619 0.56533182
14.454217 1.5013194 0.56540966
14.454206 1.4117272 0.56505942
14.434734 1.3204612 0.56396997
14.437588 1.2314416 0.56377536
14.57636 1.1532401 0.56891167
14.9519 1.0906942 0.5833087
15.695108 1.0481672 0.61206394
16.315647 0.98911661 0.63603312
16.848228 0.91770297 0.65657818
17.590124 0.84992498 0.68529451
18.279877 0.77088463 0.71198744
19.709255 0.71009523 0.76751345
20.020872 0.59835219 0.77949804
20.899256 0.49630406 0.81358409
21.846045 0.38471442 0.85035503
23.647511 0.27136278 0.92043376
17.050827 0.090848736 0.6635043
17.097864 0.0075857379 0.37579483
27.368938 -0.15592407 0.60171366
29.456816 -0.34859484 0.64767146
27.417942 -0.49272379 0.60287911
23.675394 -0.57077235 0.52061689
22.006611 -0.66565657 0.48398256
21.942167 -0.79849195 0.48266321
21.936853 -0.93311155 0.48266321
45.237457 -2.2026165 0.99589521
45.410763 -2.4904401 1.0000292
45.407597 -2.7698197 1.0003151
42.448086 -2.8508067 0.93546844
42.420826 -3.1105516 0.93527055
42.388981 -3.3698316 0.93500668
42.360535 -3.6292648 0.93485272
42.32552 -3.8880181 0.93458885
42.299873 -4.147552 0.93456686
42.277603 -4.4074359 0.93465483
42.240822 -4.6657753 0.93445694
42.241184 -4.9283481 0.93511659
52.804905 -8.805501 1.1771976
53.939899 -9.3352985 1.2037607
50.865864 -10.745265 1.1432021
50.915218 -11.082474 1.1458188
51.262829 -11.488029 1.1552082
61.519894 -14.981068 1.3923856
60.775036 -15.195302 1.3776088
46.982891 -21.49502 1.1361215
46.056873 -21.414078 1.1168808
45.092976 -21.303375 1.0966506
44.166451 -21.198107 1.077256
43.361565 -21.140116 1.0607638
42.333302 -20.961264 1.0387305
41.494686 -20.864021 1.021271
40.711422 -20.784111 1.0051088
40.013271 -20.738173 0.99099159
39.210182 -20.628136 0.97421372
38.455833 -20.533524 0.95857924
38.068932 -20.628113 0.95207042
37.967926 -20.875761 0.95273006
37.902855 -21.14389 0.95433533
37.863766 -21.427761 0.95664418
37.774059 -21.684074 0.95772165
21.134809 -12.305284 0.53763664
21.027056 -12.415925 0.53682303
33.403183 -20.001286 0.8560648
33.02602 -20.051764 0.84953398
32.828293 -20.208435 0.84762084
31.888613 -19.900818 0.82648909
31.234474 -19.759903 0.81265777
31.033533 -19.900452 0.81059074
30.052277 -19.795815 0.7912401
29.242588 -19.52079 0.7730549
28.823322 -19.497631 0.76511675
28.594292 -19.599508 0.76221412
28.536722 -19.818504 0.76390731
27.76865 -19.538729 0.74653572
27.037672 -19.273504 0.73004371
26.683855 -19.2693 0.72366679
26.285927 -19.228434 0.71605843
26.13291 -19.363766 0.71511292
26.042389 -19.545355 0.71590453
25.394285 -19.303652 0.70132554
25.185055 -19.389576 0.69881874
24.319763 -18.962196 0.67801684
24.096243 -19.026802 0.67502624
23.629238 -18.894577 0.66517502
23.434383 -18.975662 0.66295409
23.40951 -19.19453 0.66557086
23.388212 -19.418276 0.66834152
23.327549 -19.610954 0.67003465
23.314882 -19.845741 0.67315716
23.288849 -20.071318 0.67594981
23.215727 -20.257877 0.67742312
23.20862 -20.50387 0.68087542
23.160616 -20.715872 0.68318433
23.22204 -21.028719 0.68879163
23.172899 -21.244452 0.69118845
23.124912 -21.463093 0.69367325
23.119556 -21.723701 0.69749939
23.057537 -21.933367 0.69967633
23.041346 -22.18886 0.70330459
23.027891 -22.44986 0.7070868
23.00498 -22.704502 0.71064907
22.942326 -22.922253 0.7130459
11.162068 -11.28985 0.34892383
22.972939 -23.523214 0.72291911
22.903137 -23.741442 0.72529399
22.872898 -24.003119 0.72898817
22.843046 -24.268229 0.73277038
22.771996 -24.492134 0.73529917
22.717989 -24.736698 0.73844361
22.708183 -25.032608 0.74310535
22.740297 -25.379213 0.7492404
22.662329 -25.606611 0.75183517
22.593609 -25.8468 0.75480372
22.627979 -26.208941 0.76131254
22.545877 -26.4401 0.76399529
22.542934 -26.767588 0.76944864
22.492062 -27.042223 0.77336276
22.413282 -27.286335 0.77639729
21.999805 -27.120539 0.76782143
21.733601 -27.130953 0.76432514
21.527641 -27.214399 0.76293981
21.961521 -28.115746 0.78442341
21.698225 -28.132805 0.781169
21.382252 -28.077703 0.77597946
21.215576 -28.216364 0.7761994
21.170759 -28.519405 0.78094906
21.101152 -28.793114 0.78488517
21.008467 -29.038687 0.78805166
8.2373581 -11.534128 0.31147593
8.1209249 -11.5199 0.30973876
7.9992681 -11.496473 0.3077817
7.9115982 -11.520616 0.30712202
7.7409234 -11.42163 0.3032079
7.6423502 -11.42653 0.30208644
7.6684642 -11.619232 0.30593461
21.803255 -33.48204 0.87853795
21.801136 -33.932297 0.88682795
21.681368 -34.205601 0.89047819
21.72497 -34.74403 0.90101105
21.671448 -35.136211 0.90771782
21.547417 -35.419704 0.91160995
21.473698 -35.79129 0.91776699
21.408951 -36.184811 0.92447376
10.146495 -17.391727 0.44259855
21.432365 -37.2603 0.94516575
21.272871 -37.513729 0.94826627
21.255465 -38.024906 0.95787561
21.250427 -38.569672 0.96829855
21.071569 -38.806526 0.97098124
27.528782 -51.448929 1.2831424
27.200457 -51.59388 1.2825707
10.012206 -19.27667 0.4774957
8.890131 -17.376099 0.42903113
25.86062 -51.320667 1.2637259
25.562122 -51.512413 1.2645614
25.207823 -51.591038 1.2626703
24.639 -51.221287 1.2498945
24.193756 -51.095913 1.2431878
23.7873 -51.044945 1.2383721
8.7809162 -19.148575 0.46307066
23.021379 -51.027721 1.2310057
22.830317 -51.443989 1.2376465
22.765785 -52.159447 1.2514777
22.862867 -53.27108 1.2747645
12.335392 -30.266951 0.71860921
12.103735 -30.227911 0.71590453
11.925716 -30.321146 0.71636629
10.048619 -26.016069 0.61314815
9.854414 -25.986561 0.6110152
11.231318 -30.174791 0.7079004
11.026065 -30.188671 0.70662498
10.817693 -30.191757 0.70512974
10.61235 -30.200974 0.70381033
8.9061069 -25.851255 0.60112
8.7553139 -25.929096 0.60166973
9.9912205 -30.199465 0.69936848
9.7940207 -30.224058 0.69853288
8.1964407 -25.83333 0.59584254
8.0125742 -25.801979 0.5939734
8.6059561 -28.32534 0.65085995
7.6651568 -25.796778 0.59164256
7.4925041 -25.794361 0.5905211
7.3212624 -25.794645 0.58948761
7.1436234 -25.769716 0.58790433
6.984324 -25.809202 0.58781642
6.7992878 -25.751043 0.58552951
6.6219592 -25.717728 0.58383632
6.4499197 -25.701633 0.58256096
6.2899594 -25.731983 0.58236301
6.0935369 -25.608643 0.57871282
5.9435048 -25.676716 0.57941645
5.7566543 -25.582979 0.57649189
5.5935941 -25.590471 0.57587618
5.4196625 -25.545094 0.57409501
5.2545581 -25.53772 0.57319349
5.0866213 -25.513594 0.57194006
4.9235358 -25.510946 0.57119244
4.7698455 -25.556402 0.57154429
4.610816 -25.57338 0.57128042
4.4911671 -25.815914 0.57607406
4.4298744 -26.42275 0.5890038
4.321898 -27.872089 0.6200968
4.3882504 -29.494125 0.65558767
4.2026815 -29.488825 0.65488398
4.0153184 -29.467499 0.6538505
3.8299222 -29.456881 0.65308088
3.6445625 -29.443115 0.65226728
3.4583483 -29.418259 0.65123373
3.2750106 -29.414083 0.650684
3.0893459 -29.384905 0.64960653
2.9047532 -29.360525 0.64866102
2.7214992 -29.344946 0.64793533
2.536046 -29.299339 0.64657199
2.3556604 -29.307371 0.64641809
2.17431 -29.301332 0.64597827
1.9955651 -29.330082 0.64633012
1.8180926 -29.382689 0.6472317
1.7974873 -32.260147 0.7103852
1.5996079 -32.272568 0.71042913
1.407497 -32.418613 0.71344173
1.2146592 -32.590485 0.71704799
1.7909005 -71.685287 1.5769205
1.1823646 -62.743687 1.3800056
0.76781583 -60.424511 1.3288584
0.39713547 -60.442074 1.3291662
0.026267542 -60.455376 1.3294301
-0.34472007 -60.461395 1.329584
-0.11791108 -9.9758921 0.21916452
-1.0873134 -60.489597 1.3303976
-1.4587876 -60.495777 1.3307054
-1.8317996 -60.546646 1.3320469
-2.2052 -60.587223 1.3332123
-2.5781896 -60.602512 1.333872
-2.951839 -60.623501 1.3347075
-3.3259523 -60.64418 1.3355871
-4.0740528 -60.660637 1.3369504
-4.4474988 -60.652451 1.3373462
-4.8234544 -60.672852 1.3384237
-5.2011929 -60.706863 1.339853
-5.5784321 -60.72657 1.3410184
-5.9556217 -60.73896 1.3420739
-6.326849 -60.688339 1.3417881
-6.708766 -60.735828 1.3437232
-7.0829301 -60.70742 1.344031
-7.4698029 -60.780903 1.3466477
-7.8516979 -60.804321 1.348209
-8.6157751 -60.834057 1.3511117
-8.9919548 -60.800812 1.3515733
-12.070923 -78.296829 1.7421926
-12.551591 -78.224251 1.7422587
-13.034619 -78.165482 1.7426984
-13.50802 -78.049553 1.7419288
-3.4620371 -19.299194 0.43098816
-3.4507632 -18.579695 0.41537571
-3.5560255 -18.51301 0.41436422
-3.6629353 -18.4575 0.41361657
-3.7737119 -18.422924 0.4133527
-3.8930876 -18.429747 0.41403437
-4.2268152 -19.419516 0.43685934
-4.4040465 -19.652716 0.44270852
-4.5497069 -19.734432 0.44517133
-4.6716318 -19.710035 0.44525927
-4.7886972 -19.665459 0.44490746
-4.9116974 -19.645405 0.44512734
-5.0890417 -19.836658 0.45016292
-5.2193108 -19.837933 0.45091054
-5.3477039 -19.830631 0.45148227
-5.4692822 -19.797447 0.45148227
-5.5980015 -19.789488 0.45207599
-5.7365603 -19.814306 0.45343933
-5.8674006 -19.810368 0.45416498
-5.9784112 -19.739548 0.45337337
-6.0772429 -19.630865 0.45172414
-6.180696 -19.539827 0.45049274
-4.9566727 -15.342288 0.35435522
-6.4654279 -19.600178 0.4536812
-6.7339134 -20.000721 0.46390626
-6.858458 -19.964701 0.46403819
-7.0013285 -19.980738 0.46540156
-7.0605521 -19.760408 0.46126753
-7.1597676 -19.656593 0.45986024
-7.2725892 -19.591673 0.45937645
-7.3831153 -19.521431 0.45878273
-7.4398618 -19.312502 0.4549346
-7.529376 -19.192961 0.45319745
-7.6380997 -19.124119 0.45266971
-7.7665949 -19.104677 0.45332938
-7.8756466 -19.037262 0.4528676
-7.9418883 -18.86879 0.45000899
-8.0602703 -18.826138 0.45016292
-8.0974035 -18.596666 0.44585299
-8.1939535 -18.507322 0.44490746
-8.2921753 -18.422966 0.44409385
-8.382184 -18.321737 0.44288442
-8.5193148 -18.323446 0.4441818
-8.6439695 -18.297043 0.44481948
-8.7950096 -18.32478 0.44679853
-8.9252462 -18.307314 0.44770011
-9.0489435 -18.275499 0.44827181
-9.1550713 -18.208019 0.44798595
-9.2748041 -18.16753 0.44838178
-9.4376287 -18.209694 0.45084459
-9.6050415 -18.257616 0.45348331
-16.299166 -30.52569 0.76085079
-16.404238 -30.273916 0.75706863
-16.400381 -29.828398 0.7484268
-16.514421 -29.604097 0.74532628
-16.524401 -29.199421 0.737674
-16.485247 -28.71771 0.72804266
-16.607319 -28.523573 0.72568977
-16.700182 -28.282534 0.72214949
-16.77993 -28.023422 0.71814746
-16.890854 -27.81995 0.71557468
-16.939648 -27.518265 0.71047312
-16.98432 -27.215343 0.70532763
-17.06226 -26.970366 0.70167738
-16.996983 -26.50581 0.69228792
-17.12879 -26.354076 0.69105649
-17.17028 -26.066473 0.68626285
-11.172422 -16.736712 0.44233468
-11.292832 -16.694344 0.44303834
-11.386575 -16.612368 0.44270852
-11.48373 -16.53562 0.4425326
-11.538949 -16.399433 0.44077346
-11.624269 -16.307158 0.44020173
-11.705379 -16.209589 0.43949807
-11.782779 -16.107605 0.43868446
-11.776039 -15.892825 0.43479234
-11.837927 -15.773093 0.43349496
-11.726358 -15.426369 0.42593062
-11.751264 -15.263819 0.42342383
-11.812733 -15.150429 0.42228037
-11.912907 -15.087077 0.42254424
-12.017118 -15.028532 0.42296204
-12.106589 -14.951406 0.42287409
-12.206976 -14.887664 0.42318195
-12.325557 -14.845558 0.42412749
-12.468525 -14.831636 0.42590863
-12.585865 -14.786065 0.4268102
-12.751413 -14.795651 0.42933896
-12.845901 -14.721651 0.4294709
-12.894951 -14.5961 0.42810756
-13.002264 -14.536822 0.42870128
-13.144901 -14.516054 0.43046042
-13.266152 -14.470498 0.43151593
-13.40162 -14.439387 0.4330332
-13.496813 -14.36417 0.43325308
-13.57367 -14.269494 0.43290126
-13.640166 -14.164336 0.43224156
-13.722632 -14.076079 0.43210962
-13.844559 -14.027904 0.43323109
-13.944505 -13.956837 0.43367088
-14.024193 -13.865388 0.43349496
-14.182676 -13.851024 0.43575987
-14.312728 -13.807469 0.4371452
-14.300193 -13.62697 0.43419862
-14.16514 -13.3334 0.42760181
-14.120749 -13.129144 0.42381963
-14.089855 -12.940141 0.42049924
-8.8249254 -8.0056705 0.26180193
-8.8418636 -7.9226832 0.26085639
-8.8476362 -7.8305144 0.25960299
-8.8631496 -7.7477856 0.25865743
-8.8946304 -7.6795363 0.25819567
-8.930934 -7.6157341 0.25788781
-8.9721413 -7.5562835 0.25773388
-8.9991217 -7.4851065 0.25718415
-9.028656 -7.4164219 0.25672236
-9.0375004 -7.3312826 0.25568888
-9.0440807 -7.2450643 0.2546114
-9.0538645 -7.1621432 0.25364387
-9.0803061 -7.092916 0.25316009
-9.1078234 -7.0248547 0.2527203
-8.0117674 -6.1014652 0.22123152
-9.0902615 -6.8350539 0.24988368
-11.820462 -8.7748213 0.32352608
-10.648355 -7.8038616 0.29010224
-10.679029 -7.7260714 0.28964046
-10.473207 -7.4797025 0.28280178
-10.368551 -7.3093109 0.27875572
-10.199014 -7.0965228 0.27301651
-10.183851 -6.9936271 0.27145526
-10.159535 -6.8855772 0.26967412
-10.175831 -6.8058805 0.26899245
-10.182354 -6.7201853 0.26806888
-10.080973 -6.564837 0.26433069
-10.063869 -6.4661107 0.26283541
-10.065355 -6.3801522 0.26184589
-10.089903 -6.3092618 0.26147208
-10.093538 -6.2257147 0.26057053
-10.055532 -6.1174202 0.25861347
-10.01915 -6.0113716 0.25672236
-9.978406 -5.9039655 0.25474334
-10.004946 -5.8370857 0.25450146
-10.037973 -5.7740912 0.25443548
-10.050602 -5.6995687 0.25386375
-10.066186 -5.6270604 0.25338
-10.071628 -5.5492692 0.25265434
-10.050136 -5.4573112 0.25126901
-9.8648186 -5.2785697 0.24581565
-9.9279747 -5.2342596 0.24658526
-10.014026 -5.2013535 0.24792662
-10.22732 -5.2327032 0.25241247
-10.356551 -5.2188892 0.25480929
-10.408081 -5.1650209 0.25529307
-10.462932 -5.1124721 0.2558648
-10.540052 -5.0702791 0.25698626
-10.51675 -4.9798403 0.25566688
-7.5947256 -3.5394003 0.1840255
-10.338062 -4.7408113 0.24988368
-10.352376 -4.670711 0.24953185
-10.349771 -4.5933137 0.24878421
-10.35027 -4.5177245 0.24812452
-10.378715 -4.4545255 0.24814652
-10.361638 -4.3721042 0.24709103
-10.3541 -4.2942734 0.24627742
-10.368219 -4.2257557 0.24599156
-10.369822 -4.1523957 0.24541983
-10.346725 -4.0696616 0.24427639
-10.352849 -3.9988945 0.2438366
-10.368777 -3.9321046 0.24363869
-10.362726 -3.8572497 0.24293503
-10.345819 -3.7788444 0.24198949
-10.341516 -3.705513 0.2413518
-10.304635 -3.621109 0.23996647
-10.303974 -3.5499971 0.23943873
-10.315143 -3.4831882 0.23919684
-10.361 -3.4279945 0.23976856
-10.349502 -3.3538778 0.23902093
-10.378463 -3.2930326 0.23921883
-10.418523 -3.2355156 0.2396806
-10.459225 -3.1779218 0.24016437
-10.500569 -3.1202345 0.24067013
-10.829622 -3.1458192 0.24777269
-10.84295 -3.0776727 0.24764076
-10.844289 -3.0062768 0.24724495
-10.663731 -2.8858845 0.24271514
-10.50821 -2.7747145 0.23877904
-10.358511 -2.6673081 0.23499687
-10.310682 -2.5876386 0.23354557
-10.304029 -2.5188651 0.23303981
-10.301784 -2.4514277 0.23264401
-10.298124 -2.3838875 0.23222621
-10.315485 -2.3213129 0.23229218
-10.338324 -2.259896 0.23249008
-10.349062 -2.195796 0.23242411
-10.370174 -2.1338658 0.23260003
-10.393858 -2.0723457 0.23284191
-10.377909 -2.0030375 0.23220421
-10.343814 -1.9307013 0.23117071
-10.316109 -1.860101 0.23029114
-10.31354 -1.7943686 0.2299833
-10.327312 -1.7315481 0.23004927
-10.343664 -1.6691039 0.2301812
-10.351736 -1.6052985 0.23013721
-10.348536 -1.5398387 0.22985135
-7.3815866 -1.0521728 0.16372931
-7.3671007 -1.0040259 0.16326752
-7.3998909 -0.96228349 0.16386124
-10.259185 -1.270058 0.22710268
-10.275722 -1.2081354 0.22730058
-10.281947 -1.1449515 0.22727861
-10.290768 -1.0820501 0.22732258
-10.314126 -1.0205599 0.2276964
-10.349063 -0.95993155 0.22833408
-10.350775 -0.89606798 0.22824614
-10.354084 -0.83237982 0.22820215
-10.346035 -0.76787096 0.22791629
-10.306664 -0.70138872 0.22694875
-10.291816 -0.636962 0.22653095
-10.296528 -0.57385623 0.22655295
-10.305846 -0.51096404 0.22668488
-10.296803 -0.44719863 0.22642101
-10.287363 -0.38356349 0.22615714
