# .PCD v0.7 - Point Cloud Data file format
VERSION 0.7
FIELDS x y z
SIZE 4 4 4
TYPE F F F
COUNT 1 1 1
WIDTH 1511
HEIGHT 1
VIEWPOINT 0 0 0 1 0 0 0
POINTS 1511
DATA ascii
-25.700621 -11.238905 1.631415
-26.06716 -11.209166 1.6502931
-29.164345 -12.329478 1.8416309
-28.819067 -11.975614 1.8151433
-28.90402 -11.803464 1.8158985
-28.969416 -11.623288 1.8154919
-29.044834 -11.447146 1.8157823
-28.830566 -11.158812 1.7980659
-28.961018 -11.00546 1.8019576
-29.510649 -11.007577 1.8319304
-29.883255 -10.93816 1.8508667
-31.243601 -11.219169 1.9308522
-31.432381 -11.069696 1.9382873
-31.575203 -10.902689 1.9429342
-31.685003 -10.723463 1.9456062
-32.33012 -10.72115 1.9811553
-31.905363 -10.363439 1.9511825
-32.380287 -10.29849 1.9763341
-32.55344 -10.134033 1.9830722
-37.869473 -9.28477 2.2679877
-37.925728 -9.0522327 2.2679877
-12.320219 -1.7647469 0.72346097
-12.222018 -1.6742165 0.71707147
-12.024183 -1.5720184 0.7048732
-11.923638 -1.4845209 0.69842559
-11.932524 -1.4113309 0.69842559
-11.893337 -1.3327522 0.69563746
-11.913204 -1.2610118 0.69633448
-11.956479 -1.1914531 0.69842559
-11.927781 -1.1147236 0.69633448
-11.922462 -1.0404738 0.69563746
-11.895786 -0.96463716 0.69372058
-11.901482 -0.89162785 0.69372058
-11.886808 -0.81721586 0.69255883
-11.861709 -0.74239415 0.69081622
-11.912886 -0.67224073 0.6935463
-11.893855 -0.59797943 0.69221032
-11.896302 -0.5249449 0.69215226
-11.937208 -0.45337978 0.69435954
-11.959722 -0.38076094 0.69552124
-11.999756 -0.30834407 0.69772857
-12.05532 -0.2357623 0.70086527
-12.10146 -0.1623898 0.70347917
-12.376758 -0.090128049 0.71945298
-12.782391 -0.014641603 0.74303621
-13.355264 0.066659056 0.77637804
-13.646091 0.15185231 0.79333937
-14.09308 0.24332498 0.81942028
-14.486544 0.33904961 0.84242266
-15.360326 0.45382884 0.89342284
-11.165481 0.87963444 0.65096873
-11.112125 0.94407058 0.64818054
-11.048461 1.006979 0.64481151
-11.080825 1.0785246 0.6470769
-11.385801 1.1787819 0.66531616
-11.159044 1.2245513 0.65247899
-11.120579 1.2894337 0.65067828
-11.092638 1.3552223 0.64951658
-11.073222 1.4218612 0.64887762
-11.056376 1.4887125 0.64841288
-11.032204 1.5544356 0.64754158
-11.024434 1.6223893 0.64765781
-10.918555 1.6753151 0.64202338
-10.957361 1.7501526 0.64492768
-10.929674 1.8145729 0.64394021
-10.874063 1.8739716 0.64132631
-10.863342 1.9408339 0.64138442
-10.838468 2.0050926 0.64062929
-10.849493 2.0760617 0.64202338
-10.888456 2.1528575 0.64510196
-10.888735 2.2224228 0.64591521
-10.884664 2.2912495 0.64649606
-10.868447 2.3575699 0.64637989
-10.94731 2.4451058 0.6519562
-10.936966 2.5133493 0.65224665
-10.878591 2.5703087 0.64969081
-10.769482 2.6143994 0.64411449
-11.024464 2.7480438 0.66037875
-11.267563 2.8821917 0.67600411
-88.699989 31.012114 5.4666505
-61.43866 25.367271 3.8668253
-43.685921 23.980009 2.898926
-41.512684 23.454535 2.7735748
-12.697227 8.3509779 0.88354808
-12.532773 8.3534269 0.87564826
-12.355535 8.3452349 0.86681908
-12.113791 8.2906408 0.85340106
-11.860885 8.2248669 0.83911169
-11.663161 8.1941843 0.82865608
-11.455692 8.153863 0.81744534
-11.401398 8.2210808 0.81715494
-11.395884 8.3238592 0.82040775
-11.359842 8.4049091 0.82151145
-12.245124 9.1767292 0.88964719
-10.650718 8.0843458 0.77730739
-10.556591 8.1154709 0.77405453
-10.429401 8.1199884 0.76836205
-10.134012 7.9903564 0.7501809
-9.9833765 7.9714069 0.74262965
-9.7883358 7.914506 0.7317093
-9.6770229 7.9231887 0.72700429
-9.4268713 7.8154759 0.71178555
-9.3083954 7.8141179 0.70644158
-9.1553049 7.7818608 0.69842559
-8.934864 7.6894131 0.6851818
-8.8679457 7.7270393 0.68367159
-8.7103195 7.6842198 0.67513281
-8.4694223 7.5646119 0.66003025
-8.3473215 7.5481391 0.65410542
-8.21838 7.5237141 0.6475997
-8.1003065 7.5074935 0.64190722
-7.9900246 7.4969416 0.63679558
-7.8490562 7.4557562 0.62918621
-7.691627 7.3965187 0.62018275
-7.6518211 7.4491458 0.62064743
-7.6521859 7.5415058 0.62442309
-7.6326232 7.6151114 0.62663037
-7.5983968 7.6745706 0.62767595
-7.5776877 7.7481713 0.62988323
-7.5521989 7.8174973 0.631742
-7.5385489 7.8998017 0.63464636
-7.5118461 7.9691548 0.63650513
-7.5097466 8.0655117 0.64051312
-7.499311 8.1540575 0.64388216
-7.4800158 8.2339106 0.64655411
-7.4573545 8.3108597 0.64899379
-7.4320431 8.3855991 0.65125918
-7.3982038 8.4513254 0.6528275
-7.3866892 8.5433826 0.65642887
-7.3535771 8.6113214 0.65817147
-8.2756643 9.8124514 0.7461729
-8.2133837 9.8607435 0.74599862
-8.1026239 9.8500462 0.74140978
-7.9608335 9.7996197 0.73391658
-7.8330889 9.7641802 0.72764325
-7.6881032 9.7048531 0.71968538
-7.5090852 9.5992975 0.70841652
-7.3493533 9.5148277 0.69883221
-7.2944655 9.5645065 0.69918072
-7.2050157 9.5684109 0.69621831
-7.1104336 9.5643702 0.69273311
-7.0333033 9.5828695 0.69093239
-6.9521141 9.5951233 0.68872511
-6.8919468 9.6359768 0.68860894
-6.8447833 9.6952095 0.68982875
-6.7560577 9.6952534 0.68686634
-6.7366066 9.7949266 0.69099051
-6.74646 9.9393301 0.69825137
-6.8097939 10.166332 0.71126276
-6.7726078 10.246236 0.71393478
-6.7439675 10.340279 0.71759421
-6.7052436 10.420082 0.72026622
-6.696826 10.548682 0.72630721
-6.6722436 10.653878 0.73072183
-6.6466217 10.759166 0.73513645
-6.6158013 10.857718 0.73908633
-6.5855637 10.958863 0.74321049
-6.5731626 11.09182 0.74948388
-6.5462813 11.202621 0.75424695
-6.5123053 11.303129 0.75831306
-6.4669871 11.385411 0.7611593
-6.4433384 11.507629 0.76667756
-6.3962431 11.589776 0.7695238
-6.3598294 11.692825 0.77376413
-6.3417253 11.831937 0.78038603
-6.2885866 11.907702 0.78282565
-6.2107964 11.937208 0.7822448
-6.151094 12.001745 0.7839874
-6.2158928 12.313754 0.80187809
-6.225986 12.524196 0.81308883
-6.1503382 12.564851 0.81326312
-6.1142969 12.687789 0.81878138
-6.0645695 12.784597 0.82261509
-6.0151496 12.883986 0.82662308
-5.9643211 12.982338 0.83057296
-5.9264903 13.11148 0.83649778
-5.8962212 13.260711 0.84370059
-5.8431425 13.361583 0.84782469
-5.8324275 13.563182 0.85833842
-5.8626037 13.867213 0.87529975
-5.8095846 13.980364 0.88017905
-5.762567 14.110942 0.88616198
-5.6740165 14.141402 0.88587153
-5.6138611 14.243752 0.89011186
-5.5479774 14.333791 0.89359707
-5.4443192 14.326502 0.89104128
-5.4177155 14.524261 0.90126455
-5.4465346 14.879726 0.92124635
-5.3284783 14.838638 0.91665751
-5.2638588 14.946384 0.92130446
-5.210824 15.090695 0.92821676
-5.1683755 15.270846 0.93733639
-5.2483435 15.826279 0.9694584
-5.2979355 16.310137 0.99710768
-5.2089539 16.377539 0.99925685
-5.1056943 16.400612 0.99873412
-8.2144966 28.20653 1.7086704
-8.027607 28.208393 1.705766
-7.8380647 28.198446 1.7022227
-7.640842 28.15737 1.6968788
-7.4349651 28.079231 1.6893855
-7.2353272 28.018963 1.6830541
-7.0376859 27.961176 1.676955
-6.8431659 27.910753 1.6713786
-6.6615825 27.909491 1.6688229
-6.4732723 27.876907 1.6644664
-6.2682471 27.766134 1.6555209
-6.0862112 27.751415 1.6523843
-5.903553 27.730629 1.6489571
-5.7082582 27.645096 1.6417544
-5.520308 27.588562 1.6363523
-5.428575 28.022772 1.6601099
-1.4054003 8.044364 0.47444311
-1.3548543 8.0459452 0.47403648
-1.3040226 8.0452375 0.47351372
-1.2620087 8.1004353 0.47630188
-1.2094772 8.0892668 0.47519824
-1.1565644 8.0738058 0.47386223
-1.1038868 8.0580025 0.47252622
-1.0523527 8.0487852 0.47159684
-1.0023297 8.0501375 0.47130641
-0.8485198 8.0155993 0.46828589
-0.79753953 8.0027742 0.46724033
-0.74052596 7.9230285 0.46230295
-0.69614923 7.9761558 0.46514922
-0.64235502 7.9205742 0.46166402
-0.59769517 7.9771295 0.4647426
-0.54736805 7.9607272 0.46358088
-0.49502051 7.9081397 0.46032801
-0.44508207 7.8861094 0.45887583
-0.39964193 7.9475183 0.46230295
-0.35038546 7.9388504 0.46166402
-0.30132616 7.9318719 0.46114123
-0.25147671 7.8966532 0.45899203
-0.20301899 7.8980474 0.45899203
-0.15361755 7.8512344 0.45620385
-0.10538687 7.8480368 0.45597151
-0.057360791 7.8665051 0.45701706
-0.009081603 7.8577232 0.4564943
0.039117657 7.8546362 0.45632002
0.087356567 7.8582411 0.45655239
0.13555494 7.8565598 0.4564943
0.18375932 7.8555799 0.4564943
0.23177981 7.8483171 0.45614576
0.27975371 7.8417592 0.45585534
0.32744721 7.8299203 0.45527446
0.37476662 7.8128066 0.45440316
0.42205036 7.7983975 0.45370612
0.46899107 7.7807136 0.45283481
0.51705486 7.7826705 0.45312527
0.56537724 7.7873163 0.45358995
0.61416811 7.796639 0.45434508
0.66182679 7.7907338 0.45422891
0.70825791 7.7716136 0.45335761
0.75505978 7.7581787 0.45283481
0.80244315 7.7514138 0.45271865
0.84955418 7.7423749 0.45248631
0.8969295 7.7360249 0.45242822
0.94522756 7.7373118 0.45283481
0.99281222 7.732357 0.4528929
1.0301124 7.6509271 0.44847831
1.0757844 7.6355653 0.44795555
1.1271216 7.6594381 0.44975623
1.3394541 8.7299204 0.51318693
2.1084127 13.200086 0.77707505
7.701561 46.384468 2.7351213
7.9851775 46.331417 2.7348309
8.2807255 46.345428 2.7386065
3.2731538 16.553988 0.98113382
3.1809945 15.584793 0.92478967
3.2533219 15.454594 0.91822588
3.3474531 15.431413 0.9180516
3.4405522 15.403763 0.91764498
3.235148 14.077641 0.83975065
3.2964425 13.951625 0.8334192
3.3730359 13.894271 0.83121192
3.4555697 13.862658 0.83057296
3.5462549 13.863439 0.83190894
3.6411333 13.879077 0.83417434
3.6007407 13.389871 0.80606037
3.6815054 13.362713 0.80576992
3.371994 11.952471 0.72189265
2.9824581 10.328863 0.62482971
2.6509249 8.9738312 0.54374057
2.3952792 7.9291162 0.48123926
2.2188315 7.1855197 0.43686098
2.2619779 7.1689134 0.43668672
2.3105168 7.1691523 0.43755803
2.3547747 7.1557884 0.43761611
2.3964121 7.1345806 0.43720949
2.4446757 7.1329637 0.4380227
2.4963043 7.1404462 0.4394168
2.5437582 7.1353383 0.44005573
2.5871508 7.1186576 0.43999764
2.6363297 7.1176271 0.44092706
2.6827734 7.1087894 0.44139174
2.7263415 7.0921941 0.44139174
2.7698069 7.0753322 0.44139174
2.8153861 7.0637679 0.44174024
2.8594263 7.0482101 0.44185644
2.9049053 7.0360689 0.44220495
2.951503 7.0263953 0.44272774
2.9992683 7.0191698 0.44342476
3.0498409 7.0180302 0.44452843
3.0892136 6.9909663 0.44400564
3.1320512 6.9718795 0.44400564
3.1847236 6.9743252 0.44539973
3.2367034 6.9745746 0.44667763
3.2819922 6.960001 0.44702616
3.3259304 6.9424329 0.44720042
3.3706501 6.926383 0.44749084
3.4272416 6.9342093 0.44934961
3.5140615 7.0013795 0.45510021
3.5555949 6.9770174 0.45492595
3.7277086 7.2051072 0.47130641
3.7797394 7.197124 0.47229388
3.8257074 7.1773205 0.47252622
3.8744245 7.1624918 0.4731071
3.9240644 7.1490855 0.47380415
3.9741714 7.1362114 0.47455928
4.0208297 7.1169071 0.47490779
4.0733581 7.1076922 0.47595334
4.1239171 7.0946484 0.47676656
4.1775117 7.0864105 0.47792831
4.226037 7.0692129 0.47850916
4.2755437 7.0533938 0.4792062
4.3365154 7.055944 0.48118117
4.3871193 7.0410647 0.48199436
4.437171 7.0249858 0.48274949
4.4877281 7.009398 0.48356271
4.5339136 6.9867544 0.48391125
4.5887671 6.9771528 0.48518914
4.6525316 6.9804316 0.48739645
4.7019806 6.9616799 0.4880935
4.750247 6.940937 0.48867434
4.803555 6.9272461 0.48977801
4.8528562 6.907444 0.49047503
4.9165683 6.9076295 0.49262425
4.9734573 6.8975763 0.49407643
5.0233417 6.8774095 0.49483153
5.0731654 6.8568902 0.49558666
5.1325054 6.8487997 0.49727118
5.1901255 6.837853 0.49878144
5.2368512 6.8122101 0.49924615
5.2889781 6.7933402 0.50023359
5.3484874 6.7834935 0.50191814
5.4180412 6.7856536 0.50453204
5.4727564 6.7685833 0.50575185
5.5179796 6.7395105 0.50610036
5.580255 6.7308869 0.50801724
5.6368551 6.7148709 0.50941133
5.689589 6.6938491 0.51045686
5.7624645 6.6958895 0.51330316
5.8277073 6.6882534 0.51545233
5.8851471 6.6710849 0.51690453
5.93927 6.6497397 0.51806623
5.9859867 6.6198359 0.51858902
6.0446939 6.6028628 0.5201574
6.0939164 6.5751677 0.52091247
6.1642032 6.5696845 0.52346832
6.2401509 6.569376 0.52648884
6.3135576 6.5655022 0.52927697
6.3753123 6.5488143 0.53107768
6.4392009 6.5337472 0.53305262
6.4911571 6.5061283 0.53404009
6.5650091 6.4998908 0.53682828
6.6340313 6.4881043 0.53920984
6.6873584 6.4604554 0.54031348
6.7420406 6.4337735 0.54153329
6.8198924 6.4285755 0.54461187
6.8855124 6.411099 0.54670304
6.9519086 6.393733 0.54885221
6.9954424 6.3549843 0.54920077
6.9889784 6.2712717 0.54565746
7.0228443 6.2242975 0.54530895
7.0729222 6.1916099 0.5462383
7.1266394 6.1618056 0.54745811
7.1643133 6.1179614 0.54745811
7.1696653 6.0468554 0.54501849
7.2219748 6.0155272 0.54618025
7.2888179 5.9958348 0.54844564
7.3417425 5.9642172 0.54966545
7.4327102 5.9627848 0.5537315
7.4949808 5.9375224 0.55564839
7.5713739 5.9227915 0.5586108
7.6439171 5.904294 0.56128281
7.7141347 5.8833127 0.56378055
7.7780018 5.8568859 0.56581354
7.8658695 5.847765 0.5695892
7.9378195 5.8259711 0.5722031
8.1310606 5.8913717 0.58353001
2.0867503 1.4927104 0.14857644
2.0754812 1.4654844 0.14712426
2.0696907 1.4424485 0.14607871
2.0636964 1.4195392 0.14503315
2.0665858 1.4029254 0.14462654
2.0676899 1.3852184 0.14410375
2.0728192 1.3703034 0.14387141
2.0786796 1.3559229 0.14369714
2.0852814 1.3420626 0.14358097
2.0951624 1.3303124 0.14369714
2.1083622 1.3206106 0.14404567
2.122371 1.311322 0.14445227
2.1371973 1.30243 0.14491697
2.1554172 1.2954624 0.14561401
2.1779256 1.2908646 0.14660148
2.1935627 1.2820097 0.14712426
2.2022526 1.2690245 0.14718236
2.1995811 1.2495713 0.14648531
2.1645243 1.2121536 0.14363906
2.1692991 1.1974025 0.1434648
2.1695895 1.1802535 0.14300011
2.1776705 1.1673905 0.1430582
2.186558 1.1549389 0.14317437
2.2033453 1.1465691 0.14381333
2.2192233 1.1375812 0.14439419
2.2395298 1.1306908 0.14526549
2.2651985 1.12626 0.14648531
11.012729 5.3906226 0.71271497
11.12474 5.3610854 0.7178266
11.135777 5.2824564 0.71643251
11.260248 5.2571044 0.72235733
11.529063 5.2966862 0.73751801
11.594095 5.2406473 0.73960912
11.688975 5.1973944 0.74361712
11.845043 5.1799717 0.75151688
11.826161 5.085505 0.74832213
11.819443 4.9969072 0.74594057
11.860944 4.9288874 0.74663758
11.911296 4.8643203 0.74791551
12.074338 4.8446727 0.75628
12.187428 4.8034387 0.76150781
12.369357 4.787663 0.77103406
12.52355 4.7591949 0.77881765
12.636699 4.7136621 0.78404546
12.792882 4.682703 0.79194528
12.855198 4.6162648 0.79403639
12.841849 4.5227094 0.7914806
12.801416 4.4203687 0.78729832
12.764941 4.3202953 0.7834065
12.776996 4.2371764 0.7825352
12.763825 4.1460543 0.78015363
12.98881 4.1311984 0.7923519
13.056808 4.0647755 0.7949658
13.106333 3.9921467 0.79647601
19.10844 5.6923804 1.159402
12.937716 3.7679274 0.78334844
12.960592 3.6884718 0.78334844
13.006064 3.6152945 0.78474253
6.6787362 1.8125217 0.40195084
6.6800814 1.7689524 0.40136996
6.6714773 1.7229388 0.40020823
6.660625 1.6766105 0.39893031
6.6106725 1.6209716 0.39532894
6.6030154 1.5762069 0.39428338
6.5960307 1.5318233 0.39329591
6.5848556 1.4867055 0.39207608
6.5763016 1.4424243 0.39103052
2.6568446 0.565808 0.15734753
2.6016049 0.53738308 0.15386233
2.5960431 0.519647 0.15333955
2.5560586 0.49535456 0.15078373
2.5413878 0.47635245 0.14973818
2.5344391 0.45897168 0.1491573
2.530324 0.44220951 0.14875069
2.5260983 0.4255152 0.14834408
2.5276763 0.40984765 0.148286
2.5311298 0.39448401 0.14834408
2.5335028 0.37894586 0.14834408
2.53578 0.36339349 0.14834408
2.5349951 0.34742096 0.14816983
2.5341094 0.3314718 0.14799556
2.5351048 0.31579322 0.14793748
2.5250981 0.29882526 0.14724045
2.5457339 0.28543791 0.14834408
2.549423 0.27002233 0.14846027
2.5490448 0.25417635 0.14834408
2.5525444 0.23871668 0.14846027
2.558934 0.22348393 0.14875069
2.5652323 0.20818175 0.14904113
2.5704436 0.19273613 0.14927347
2.5775535 0.17737128 0.14962199
2.5845716 0.16192643 0.14997052
2.5914965 0.14640211 0.15031904
2.6142814 0.13160066 0.15159695
6.3670397 0.28105438 0.3701193
6.3586679 0.24160296 0.36953843
6.3600311 0.20258237 0.36953843
6.3491783 0.1632466 0.36884138
6.3420753 0.12412969 0.3683767
6.3277445 0.085012436 0.3675054
6.3151698 0.046090245 0.36675027
6.3092074 -0.0055140066 0.24521089
6.319047 -0.044295467 0.2456
6.3156581 -0.08302848 0.24548326
6.3070378 -0.12162578 0.24517198
6.279202 -0.15963989 0.24412139
6.2611251 -0.19763121 0.2434599
6.2637887 -0.23619522 0.24361554
6.2672133 -0.27484304 0.24381009
6.2694011 -0.31349197 0.24396573
6.2723479 -0.35223398 0.24416029
6.2640843 -0.39034146 0.24392682
6.2525992 -0.42815641 0.24357663
6.2558331 -0.46695924 0.24381009
6.2339263 -0.50380808 0.24307078
6.22574 -0.5416168 0.24287623
6.2372236 -0.58119613 0.2434599
6.2275739 -0.61886382 0.24322642
6.2157097 -0.65622538 0.24291514
6.2125592 -0.69446284 0.24295405
6.2161198 -0.73350525 0.24326533
6.2184434 -0.77249438 0.24353771
6.1868339 -0.8071481 0.24248712
6.1817646 -0.84509456 0.24248712
6.1893225 -0.88484633 0.24299297
6.1867418 -0.92324877 0.24310969
6.1720738 -0.95981157 0.2427595
6.1483126 -0.99479371 0.2420591
6.1450491 -1.0329969 0.24217583
6.1415482 -1.0711976 0.24229257
6.1230597 -1.1067297 0.24182563
6.1122251 -1.1435447 0.24166998
6.1149039 -1.1829238 0.2420591
6.1163497 -1.2221832 0.24240929
6.1175432 -1.2615048 0.2427595
6.1096873 -1.2990175 0.2427595
6.1006255 -1.3362677 0.24272059
6.0884128 -1.3727965 0.24256495
6.0857153 -1.4114825 0.2427984
6.0730519 -1.4478706 0.24264276
6.0533772 -1.4824934 0.24221474
6.0470743 -1.520339 0.24233148
6.039567 -1.5579134 0.24240929
6.031826 -1.5954531 0.24248712
6.0084205 -1.6287749 0.24194236
6.0098677 -1.6688182 0.24240929
6.010088 -1.7086673 0.24283731
5.9946928 -1.744117 0.24264276
5.9800472 -1.7797272 0.24248712
5.9728384 -1.8175499 0.24264276
5.9663448 -1.8556476 0.24283731
5.9510369 -1.8910115 0.24268167
5.9326687 -1.9253323 0.24240929
5.9150519 -1.9598132 0.24217583
5.9085951 -1.9979904 0.24240929
5.9047265 -2.0371394 0.2427595
5.8892875 -2.0723369 0.24264276
5.8745799 -2.1077592 0.24256495
5.8662291 -2.1454809 0.2427595
5.8641906 -2.1856215 0.24322642
5.8609457 -2.2254632 0.24365444
5.8462477 -2.2610228 0.24361554
5.8341241 -2.2975843 0.24369335
5.8282642 -2.3366845 0.24404356
5.8267698 -2.377686 0.24458832
5.8129935 -2.4137769 0.24462722
5.7953124 -2.4482329 0.24451049
5.7801809 -2.4837461 0.24451049
5.7684951 -2.520766 0.24466613
5.754746 -2.5569246 0.24474396
5.7471447 -2.5958881 0.24509415
5.7447309 -2.6373553 0.24567781
5.7356849 -2.6759336 0.24598911
5.7173514 -2.7102208 0.24591129
5.7006145 -2.7452509 0.24591129
5.7043085 -2.7902739 0.24680623
5.6960301 -2.8296671 0.24719535
5.6500096 -2.8501654 0.24595019
5.6439776 -2.8907001 0.24645604
5.6615987 -2.9437113 0.24801248
5.6584539 -2.9863219 0.24867398
5.6479521 -3.0252309 0.24902417
5.631917 -3.0612605 0.2491409
5.6147776 -3.0967245 0.24921872
5.6061354 -3.136972 0.24968566
5.6024246 -3.1801891 0.25038606
5.5724139 -3.2085228 0.24991912
5.5457187 -3.2386239 0.24960783
5.5687332 -3.2980461 0.25155339
5.5895128 -3.3568428 0.25342113
5.5636892 -3.3879585 0.25318766
5.5410957 -3.4209833 0.25310981
5.5293188 -3.4607489 0.25353783
5.5138865 -3.4983575 0.25381023
5.5074463 -3.541852 0.25451061
5.510725 -3.5919447 0.25567794
5.4927511 -3.6284437 0.25587252
5.4753661 -3.6654131 0.25610596
5.4784088 -3.7163274 0.25731221
5.4695029 -3.7594931 0.2579737
5.4553528 -3.7992637 0.25840172
5.4450026 -3.8418815 0.25902429
5.4359603 -3.8856769 0.25972471
5.4193001 -3.9242322 0.26007488
5.4176817 -3.9739563 0.2611644
5.4188647 -4.0261917 0.26240957
8.3891191 -6.3128757 0.40836477
8.3748646 -6.383007 0.40957102
8.2928247 -6.4013057 0.40746984
8.2848816 -6.4766836 0.40902627
8.2551708 -6.535459 0.40953213
8.207118 -6.5797386 0.409143
8.1115084 -6.5852604 0.40638033
7.9721413 -6.5536909 0.4013997
7.8480635 -6.5328074 0.39715841
7.7184319 -6.5054989 0.39260581
7.5567493 -6.4489589 0.38638005
6.9620352 -6.0157118 0.35781938
6.8272181 -5.9727921 0.35276094
6.7702441 -5.9966831 0.35171035
6.6351156 -5.9500589 0.3465741
6.5030389 -5.9040203 0.34155458
6.4203377 -5.9012136 0.33910316
6.314508 -5.8758354 0.33540663
6.1939592 -5.8349953 0.33089295
6.090785 -5.8087606 0.32727423
6.0018282 -5.7946677 0.32439482
5.9218512 -5.7880845 0.32198232
5.7903275 -5.7294374 0.31672934
5.7197614 -5.7295027 0.31478378
5.6480112 -5.7274961 0.31276041
5.596724 -5.7455821 0.31186545
5.5592856 -5.7776546 0.31174874
5.5189109 -5.8065877 0.31147635
5.4934382 -5.8512683 0.31206003
5.4146223 -5.8387103 0.30960861
5.3564191 -5.8475103 0.30832455
5.2446742 -5.7965441 0.3039276
5.1843696 -5.8010502 0.30248791
5.0951095 -5.7720766 0.29933611
5.0175657 -5.7550311 0.29684582
4.9404249 -5.7372532 0.29435551
4.8701668 -5.7263579 0.2922543
4.7918744 -5.7048726 0.28964728
4.7102022 -5.67803 0.28680676
4.6265082 -5.6473098 0.28381062
4.5603418 -5.6367526 0.28186506
4.4770141 -5.6037393 0.27883002
4.3794098 -5.5510912 0.2748611
4.178215 -5.363462 0.26427728
4.1269474 -5.3652391 0.26310995
4.0613093 -5.3474922 0.26100877
4.0200276 -5.3611197 0.26046401
3.9549468 -5.3423204 0.2583628
3.9008632 -5.3374462 0.256962
3.8382185 -5.3199563 0.25497755
3.7846327 -5.3141074 0.25357676
3.7278156 -5.3028984 0.25194249
3.667861 -5.2862682 0.25007477
3.609946 -5.2715759 0.24832377
3.5545886 -5.2596855 0.24672842
3.4967415 -5.2431588 0.24493851
3.4502199 -5.2428145 0.24392682
3.3983917 -5.2337174 0.24252602
3.3446496 -5.2208176 0.24096958
3.2949324 -5.2133694 0.23968552
3.2359152 -5.1902466 0.23770106
3.1888251 -5.1853213 0.23657264
3.119112 -5.1424255 0.23373213
3.0746739 -5.1400304 0.23275936
3.029367 -5.1355634 0.23170877
2.9867442 -5.1350532 0.23085272
2.93927 -5.125546 0.22960757
2.8905497 -5.1130414 0.22824569
2.8411214 -5.0983872 0.22680597
2.7886145 -5.0771899 0.22509389
2.7402816 -5.062571 0.2236931
2.6945853 -5.0519595 0.22248685
2.650053 -5.0427485 0.22135843
2.6089523 -5.0393925 0.22050239
2.5634522 -5.0268221 0.21925724
2.5199997 -5.0174556 0.21816774
2.494926 -5.044467 0.21867357
2.4836185 -5.1001053 0.22042458
2.4712892 -5.1548924 0.22213666
2.465205 -5.2241769 0.22447132
2.4524689 -5.2808914 0.22626123
2.4387136 -5.3367362 0.22801222
2.4235446 -5.3907866 0.2296854
2.4037616 -5.4357119 0.23096946
2.3851123 -5.4842615 0.23240916
2.3730309 -5.5493226 0.23454927
2.3590779 -5.6116767 0.23657264
2.3467386 -5.6796079 0.23882948
2.3347816 -5.7503738 0.24120305
2.324636 -5.8277016 0.24384901
2.3150868 -5.9088402 0.24665059
2.2927847 -5.9593039 0.24816813
2.2710092 -6.0125194 0.2498024
2.2643011 -6.107851 0.25318766
2.2373736 -6.1507387 0.25439388
2.2234409 -6.2311687 0.25715658
2.2132263 -6.3248606 0.26046401
2.1964312 -6.4025908 0.26310995
2.1730306 -6.4633031 0.26505551
2.1580362 -6.5514898 0.26812947
2.1438816 -6.6454391 0.2714369
2.1130002 -6.6899114 0.27272099
2.093756 -6.7733941 0.2756004
2.1953738 -7.259551 0.29486135
2.165812 -7.323669 0.29692364
2.1341572 -7.3828964 0.29879135
2.1195159 -7.5045133 0.30318829
2.1002719 -7.6146655 0.30711833
2.0753376 -7.7084579 0.31038684
2.0483146 -7.7983618 0.31349972
2.0187778 -7.8824139 0.31637913
1.9931269 -7.9857836 0.32003677
1.9627413 -8.0745678 0.32311076
1.9527431 -8.2537088 0.32980344
1.9264964 -8.3716764 0.33404475
1.8951656 -8.473052 0.33762455
1.8588428 -8.556778 0.34050396
1.8293992 -8.6775293 0.34486201
1.8125566 -8.866766 0.35194382
1.7755941 -8.9659367 0.3554458
1.7525358 -9.1434956 0.36206067
1.7111531 -9.2336597 0.36521247
1.6852841 -9.4161158 0.37202188
1.6487358 -9.5493612 0.37688577
1.6102866 -9.6805382 0.38167182
1.5715529 -9.8194904 0.38676918
1.5402892 -10.017585 0.39420116
1.5011098 -10.178095 0.40015456
1.460018 -10.338494 0.40610793
1.41581 -10.489855 0.41171113
1.3786058 -10.709439 0.41999918
1.3155422 -10.739516 0.42085522
1.2490437 -10.742424 0.42066067
1.1826683 -10.745913 0.42050502
1.1227006 -10.810613 0.42276186
1.0752965 -11.011227 0.4303495
1.0275668 -11.234546 0.4388321
0.97543699 -11.437774 0.44653648
0.92613459 -11.707516 0.45684791
0.86737484 -11.892365 0.4638519
2.404675 -35.994415 1.4042922
2.179234 -35.933685 1.401374
1.9524537 -35.831638 1.3968992
1.7195755 -35.574463 1.3864322
1.5056868 -35.689171 1.3905178
1.2865658 -35.69474 1.390401
1.0680307 -35.718945 1.3910625
0.85033983 -35.787762 1.3935139
0.63233811 -35.883221 1.3970548
0.41239229 -35.907406 1.397872
0.19297248 -36.079132 1.4044868
-0.028654439 -36.399395 1.4169383
-0.26680997 -38.543858 1.5004803
-0.50494742 -38.667385 1.5053831
-0.74976522 -39.058189 1.5207529
-0.98963529 -39.061844 1.5211031
-1.2290442 -39.047047 1.5207919
-1.2217735 -32.474384 1.2649908
-1.7067651 -38.998077 1.5195856
-1.8129389 -32.332661 1.260555
-2.4359045 -39.146549 1.526862
-2.6759894 -39.129871 1.526823
-2.9176695 -39.134636 1.5276791
-3.7354085 -33.442516 1.3098942
-3.7121496 -28.47226 1.1176348
-4.2451687 -31.072575 1.220749
-3.3545647 -23.477571 0.92304081
-3.4034975 -22.819084 0.8979432
-3.5342422 -22.738527 0.89560854
-3.7020869 -22.891998 0.90253472
-3.8481085 -22.902357 0.90385771
-3.9950829 -22.91572 0.90533632
-4.1439643 -22.936993 0.90716511
-4.2849922 -22.913099 0.90724295
-4.4291077 -22.905016 0.90798223
-4.5257311 -22.657911 0.89926618
-4.6640668 -22.62678 0.89914942
-4.7990756 -22.580141 0.89844906
-4.9368935 -22.54734 0.8983323
-8.3605223 -36.061466 1.4410243
-8.4834213 -35.597347 1.424526
-8.6287432 -35.246655 1.4125804
-6.9004364 -26.096643 1.050669
-7.0659204 -26.074066 1.0514861
-7.2289815 -26.041773 1.051953
-7.3861761 -25.988276 1.0516028
-7.5435448 -25.935749 1.0513304
-7.7259059 -25.96751 1.0545211
-8.7263794 -28.685303 1.1670907
-8.4201508 -27.08066 1.1038603
-8.5568132 -26.936108 1.100086
-8.7126789 -26.854582 1.0989186
-8.7987471 -26.563475 1.0891908
-8.9452534 -26.460709 1.0872064
-8.9178343 -25.855543 1.0645602
-8.0653238 -22.926275 0.94592047
-8.1316261 -22.66943 0.93736005
-8.3635569 -22.873438 0.94790494
-7.9821796 -21.421831 0.88973296
-8.11028 -21.364042 0.88938278
-8.2520247 -21.341835 0.89055014
-8.4003906 -21.33543 0.89241785
-9.5166521 -23.742334 0.99557096
-9.60818 -23.551186 0.99000669
-9.7245407 -23.424417 0.98716617
-9.8404846 -23.298952 0.98440349
-9.9524956 -23.166519 0.98136842
-10.078455 -23.06839 0.97981197
-10.243337 -23.059082 0.98206884
-10.385866 -22.998528 0.98218554
-10.519284 -22.91802 0.98148519
-10.64239 -22.815914 0.97988981
-10.729123 -22.638216 0.97506481
-10.862625 -22.561153 0.97459793
-11.018413 -22.529984 0.97615433
-10.668858 -21.480196 0.93346894
-10.703266 -21.221613 0.92506421
-10.820982 -21.131525 0.92401361
-10.952744 -21.069162 0.92420816
-11.055236 -20.951187 0.92199022
-11.168959 -20.855652 0.920784
-11.266181 -20.730536 0.91829365
-11.334305 -20.554264 0.9135465
-11.262142 -20.130276 0.89774865
-11.336621 -19.974758 0.89389646
-11.36824 -19.747208 0.88681465
-11.412109 -19.545053 0.88086128
-11.495674 -19.413614 0.87809861
-11.47261 -19.106268 0.86735916
-11.571442 -19.005642 0.86599725
-11.543508 -18.700447 0.85529673
-11.627821 -18.580984 0.85307878
-11.660255 -18.381029 0.84716433
-11.680951 -18.166252 0.84054947
-11.766009 -18.054052 0.8386817
-11.80718 -17.876459 0.83377892
-11.773252 -17.589426 0.82373989
-11.794583 -17.389502 0.81774759
-11.863143 -17.261627 0.81514055
-11.894608 -17.081905 0.81008214
-11.874781 -16.832232 0.80167735
-11.870353 -16.608652 0.79447883
-11.918715 -16.461849 0.7909379
-11.942085 -16.28285 0.78584057
-11.992314 -16.142691 0.78261095
-11.973386 -15.912303 0.77498442
-12.009624 -15.758265 0.77105439
-12.073731 -15.642353 0.76899207
-12.140561 -15.530973 0.76716328
-12.219503 -15.435818 0.76615161
-12.289611 -15.330143 0.76463407
-12.31669 -15.17221 0.76050949
-12.40067 -15.085544 0.75996476
-12.474462 -14.986898 0.75883633
-12.543647 -14.88333 0.75747442
-12.610735 -14.777959 0.75603473
-12.690722 -14.688205 0.75541216
-12.766134 -14.593513 0.75455612
-12.826289 -14.481993 0.75284404
-12.882888 -14.367308 0.75097626
-12.962742 -14.279112 0.75050938
-13.050789 -14.20004 0.75054824
-13.141076 -14.123352 0.75074285
-13.222007 -14.036635 0.75043154
-13.29961 -13.946565 0.74996459
-13.381465 -13.861103 0.74977005
-13.464168 -13.77659 0.74965334
-13.541418 -13.686613 0.74926418
-13.6209 -13.59903 0.74903077
-13.710488 -13.521513 0.74938095
-13.798923 -13.442712 0.7496922
-13.853065 -13.330767 0.74817473
-13.904908 -13.217288 0.74657935
-13.95588 -13.103677 0.74498397
-14.010379 -12.994015 0.74362212
-14.067004 -12.886879 0.74241585
-14.097652 -12.756741 0.73988664
-14.06838 -12.574107 0.73428345
-14.135531 -12.478951 0.73377764
-14.173426 -12.358489 0.73179317
-14.225517 -12.251075 0.73058695
-14.274542 -12.141544 0.72926396
-14.338061 -12.04473 0.72871917
-14.42477 -11.967374 0.72938067
-14.546622 -11.918539 0.73183209
-14.575979 -11.793859 0.72965306
-14.618407 -11.680496 0.72817445
-14.688233 -11.589342 0.7280966
-14.761433 -11.500841 0.72821337
-14.860233 -11.431985 0.72961414
-14.973066 -11.373229 0.73171532
-15.02818 -11.27035 0.73101497
-15.083399 -11.167818 0.73035347
-15.173421 -11.090979 0.73140407
-15.245239 -11.000591 0.73159862
-15.326286 -10.916698 0.73226011
-15.410964 -10.835095 0.73311615
-15.49686 -10.754004 0.73404998
-15.576567 -10.668315 0.73471147
-15.639251 -10.570859 0.73459476
-15.675555 -10.455847 0.73327178
-15.714375 -10.342985 0.73210442
-15.750727 -10.228951 0.73085928
-15.798891 -10.122949 0.73019779
-15.898715 -10.049846 0.73194879
-15.981277 -9.9653225 0.7329216
-16.049782 -9.871788 0.73327178
-16.082714 -9.7565365 0.73202664
-16.130272 -9.6504889 0.73148185
-16.160784 -9.5345764 0.73019779
-16.218983 -9.4352369 0.73019779
-16.308641 -9.3539371 0.73163754
-16.379646 -9.2615623 0.73226011
-16.42831 -9.1565056 0.73190987
-16.482433 -9.0545692 0.73183209
-16.560526 -8.9656343 0.73284376
-16.650492 -8.8826666 0.73440021
-16.732985 -8.7952118 0.73564535
-16.810593 -8.7047815 0.73669595
-16.885052 -8.6123667 0.73762983
-17.092941 -8.5866537 0.74440032
-17.206209 -8.5117426 0.74704629
-17.271587 -8.412571 0.74762994
-17.336395 -8.3129168 0.74821359
-17.397017 -8.2110777 0.74864161
-17.501446 -8.1294365 0.75097626
-17.605524 -8.0468216 0.75331098
-17.625406 -7.92553 0.75206578
-17.75869 -7.8548269 0.75568455
-17.838623 -7.7596655 0.7570464
-17.911623 -7.6610675 0.75813591
-17.986847 -7.5630269 0.75934213
-18.075396 -7.470077 0.76113206
-18.176437 -7.381588 0.76346672
-18.281713 -7.293992 0.76599592
-18.400553 -7.2108498 0.76910883
-18.524651 -7.1286759 0.77245516
-18.663387 -7.0509005 0.77642411
-18.725037 -6.9432001 0.77720231
-18.873396 -6.8667846 0.78159928
-18.983875 -6.775372 0.78443974
-19.102427 -6.685832 0.7876305
-19.228153 -6.5976868 0.79113245
-19.354462 -6.5085669 0.79467338
-19.44623 -6.4068871 0.79681349
-19.579321 -6.3178282 0.80066568
-19.76445 -6.2439337 0.80665797
-19.894991 -6.1511774 0.81043231
-20.005049 -6.0509772 0.81338954
-20.088753 -5.9420042 0.81529623
-20.208345 -5.8427782 0.81868148
-20.529411 -5.7993603 0.83023804
-20.757261 -5.7264385 0.83802027
-20.901035 -5.6283307 0.84241718
-21.093674 -5.5416226 0.84879857
-21.257956 -5.4455695 0.85405159
-21.410215 -5.3448024 0.8588376
-21.507662 -5.2291498 0.86144465
-21.586016 -5.1081295 0.86331242
-21.879871 -5.0361085 0.8738184
-22.010799 -4.9242344 0.87782621
-22.106998 -4.8035154 0.88047218
-22.241653 -4.6900487 0.88467455
-22.308191 -4.561296 0.88619208
-22.330856 -4.4233589 0.88599753
-22.384075 -4.2913365 0.88704813
-22.492514 -4.16921 0.89031667
-22.446856 -4.0184398 0.88751507
-22.627649 -3.907675 0.89370191
-22.709356 -3.7784386 0.89599764
-22.760727 -3.6436067 0.89712608
-22.802406 -3.5069194 0.89790428
-22.819542 -3.3663568 0.89774865
-12.188703 -1.721427 0.47887155
-12.097039 -1.6328331 0.47486371
-12.047366 -1.550918 0.47252905
-12.083358 -1.40504 0.47322944
-12.071886 -1.328684 0.47245124
-12.11261 -1.2579954 0.4737353
-12.111151 -1.1827755 0.4733851
-12.102259 -1.1069834 0.47276253
-12.069994 -1.0293908 0.47124499
-12.067118 -0.95460165 0.47089478
-12.052815 -0.87908638 0.47011656
-11.976228 -0.7996518 0.46692586
-11.942009 -0.72379225 0.46540833
-11.949219 -0.65066701 0.46552506
-11.906078 -0.57506734 0.46369624
-11.999233 -0.50579458 0.46719825
-12.042054 -0.43359965 0.46875468
-12.042491 -0.35964304 0.46867687
-12.038478 -0.28560242 0.46844339
-12.084962 -0.21252343 0.4701944
-12.282876 -0.14063179 0.47785985
-12.622247 -0.067080818 0.49105069
-12.95317 0.010623452 0.50393027
-13.878138 0.096491508 0.53996187
-14.013169 0.1834165 0.54525375
-14.696136 0.28252161 0.57190782
-15.000795 0.38045436 0.58385348
-25.14846 0.79180831 0.97930616
-24.748705 0.9312703 0.96393627
-25.085938 1.0981317 0.97732168
-24.851183 1.2406814 0.96844995
-24.816166 1.3916322 0.96739936
-25.039534 1.5583307 0.97646564
-25.118227 1.7180073 0.97992873
-25.129133 1.8737315 0.98078477
-25.459789 2.0555391 0.99417013
-25.542265 2.2200227 0.99790561
-25.652529 2.3882809 1.0027695
-11.31569 1.1239507 0.44233412
-11.353299 1.1980777 0.44408509
-11.206704 1.2521913 0.43863755
-11.037054 1.3018608 0.43229505
-11.018941 1.3683276 0.43190596
-11.006375 1.4353962 0.4317503
-10.959739 1.4977638 0.43027169
-10.961224 1.5665377 0.43069971
-10.901001 1.6262487 0.42871526
-10.882918 1.6918778 0.42840394
-10.883017 1.8289427 0.42926002
-10.876512 1.8965431 0.42945457
-10.895153 1.9687508 0.43066078
-10.882868 2.0355651 0.43066078
-10.873116 2.1028719 0.43077752
-10.874707 2.1724839 0.4313612
-10.861172 2.2391689 0.4313612
-10.82768 2.3016155 0.43058297
-10.830923 2.3718562 0.43128338
-10.861981 2.4485941 0.4331122
-10.861354 2.5185809 0.43369585
-10.888465 2.5953691 0.43540794
-10.890777 2.6666448 0.43614724
-11.078691 2.7848065 0.44435748
-11.206535 2.8901541 0.45019412
-42.185169 11.989097 1.7072923
-43.536633 12.95264 1.7683048
-43.2747 13.16428 1.7609117
-43.343876 13.476433 1.7670597
-43.441368 14.093652 1.7779548
-43.386326 14.370619 1.7792778
-43.344662 14.652561 1.7812233
-43.663914 15.059637 1.7981107
-43.68663 15.368053 1.8028967
-43.495571 15.601411 1.7989278
-43.903931 16.052601 1.8198619
-43.433903 18.658873 1.8403292
-43.119526 19.471638 1.8418856
-72.54715 39.424465 3.2147441
-41.656178 23.304274 1.8582282
-72.003853 40.863617 3.2234602
-68.572899 41.1735 3.1141591
-59.439606 37.704571 2.7405355
-12.605128 8.3257656 0.58778346
-12.5455 8.3973942 0.58739436
-12.287819 8.3345566 0.5777055
-12.034683 8.271142 0.56817234
-11.908261 8.2923002 0.56459254
-11.581989 8.1710997 0.55147952
-11.566592 8.2669945 0.55315268
-11.412046 8.262805 0.54817206
-11.511813 8.4431763 0.55544841
-11.492679 8.5380831 0.55704379
-11.426499 8.5982275 0.5563823
-10.72261 8.1721382 0.5245142
-10.475297 8.0857553 0.51482534
-10.390846 8.1228018 0.51311326
-10.097146 7.9935269 0.50101191
-9.994112 8.012207 0.49832705
-9.7376184 7.9052339 0.48793781
-9.6318064 7.9178805 0.4850584
-9.4179163 7.839396 0.47669253
-9.2955198 7.8345742 0.47291815
-9.1492167 7.8077927 0.46789864
-8.9385672 7.7233334 0.45953277
-8.8391142 7.7326398 0.45684791
-8.6179514 7.6330328 0.44782054
-8.4519167 7.5790367 0.44159478
-8.3808384 7.6085906 0.44031072
-8.2398195 7.5733247 0.43533012
-8.1119909 7.5481887 0.43101099
-7.9447775 7.4840899 0.42455176
-7.8741183 7.5092521 0.4232288
-7.6711693 7.4061337 0.4147462
-7.6598845 7.4865866 0.41661391
-7.655715 7.5749092 0.41890967
-7.6288605 7.6415405 0.41999918
-7.5853372 7.6917634 0.42019373
-7.5540371 7.7546229 0.4210887
-7.5555086 7.8519468 0.42385137
-7.5367918 7.9293008 0.42552453
-7.529037 8.0191031 0.42785922
-7.520462 8.1091061 0.43019387
-7.4901395 8.176465 0.43132228
-7.4773755 8.2637606 0.4335013
-7.4531665 8.3392849 0.43505773
-7.4276495 8.4140739 0.43657526
-7.4159422 8.5054312 0.43894884
-7.4040442 8.5977173 0.44136134
-7.3628035 8.6566858 0.44206172
-8.2396164 9.808774 0.49836597
-8.1441832 9.8168516 0.49622586
-8.0400953 9.8133068 0.493541
-7.9175034 9.7855539 0.48968881
-7.7787142 9.7355919 0.48478603
-7.700881 9.7603893 0.4836576
-7.4215922 9.526062 0.46976638
-7.3173032 9.512023 0.46684805
-7.2569876 9.5543547 0.46673131
-7.1748443 9.5675259 0.46521378
-7.0928135 9.5800505 0.46369624
-7.0156169 9.5983839 0.46249002
-6.9396329 9.6177521 0.46136159
-6.8816485 9.6617794 0.4614394
-6.8297071 9.7144489 0.46194527
-6.769402 9.7553511 0.46190634
-6.7224045 9.8156652 0.46280131
-6.7918773 10.048789 0.47182864
-6.7899785 10.180051 0.47603104
-6.7630982 10.275774 0.47856027
-6.7265887 10.358141 0.4804669
-6.7054958 10.465685 0.48354086
-6.6924119 10.587715 0.48727632
-6.6669769 10.692172 0.49019465
-6.6452231 10.804372 0.49346319
-6.6238961 10.919268 0.49684843
-6.5870423 11.010296 0.4991442
-6.5549049 11.110749 0.50186795
-6.5117326 11.193945 0.50381351
-6.4851856 11.307365 0.50712097
-6.4565067 11.419139 0.51035058
-6.4184284 11.516146 0.51291871
-6.4101949 11.669163 0.51797712
-6.3817677 11.788239 0.52151805
-6.324368 11.855385 0.52276319
-6.2714982 11.932001 0.52443635
-6.2073569 11.988004 0.52521455
-6.1613803 12.080164 0.52758813
-6.2033253 12.349 0.53766608
-6.2266903 12.587452 0.54638219
-6.1559019 12.638896 0.54696584
-6.1128011 12.74851 0.55007869
-6.0566421 12.832767 0.55210209
-6.0001001 12.917718 0.55416435
-5.9560361 13.031539 0.55747181
-5.9144878 13.153504 0.56112945
-5.8383312 13.422096 0.56949532
-5.7994866 13.559645 0.57381445
-5.8691773 13.958815 0.58918428
-5.8059368 14.049049 0.59148002
-5.7508326 14.161251 0.59470963
-5.6756835 14.225969 0.59595478
-5.6258435 14.356353 0.59996265
-5.5387249 14.393399 0.60007936
-5.4481854 14.421505 0.59984589
-5.3752289 14.496823 0.60159689
-5.4197731 14.896686 0.6168111
-5.2963552 14.840257 0.61311454
-5.2633004 15.038466 0.61996287
-5.20401 15.166883 0.62393183
-5.1516213 15.319758 0.62891245
-5.3514762 16.243187 0.66548878
-5.2639842 16.313755 0.66704524
-5.1637859 16.345747 0.66704524
-5.0749054 16.414354 0.66856277
-8.3539257 28.242041 1.1463901
-8.1607704 28.224613 1.1436274
-7.965157 28.195303 1.1404366
-7.7731338 28.175255 1.137674
-7.5775008 28.138477 1.1342887
-7.3742318 28.068468 1.1296194
-7.1731009 28.000902 1.1251057
-6.9868741 27.987188 1.12281
-6.7968369 27.954769 1.1198138
-6.5968752 27.876345 1.1150278
-6.4073234 27.836449 1.111837
-6.2289834 27.842085 1.110514
-6.0302324 27.751865 1.1054168
-5.8363295 27.676884 1.1009809
-5.6561871 27.662245 1.0989964
-5.4828534 27.678785 1.098296
-5.1674061 28.863865 1.1413705
-1.3963441 8.0881224 0.31914183
-1.3338957 8.0196543 0.31610677
-1.2961954 8.0997152 0.31894726
-1.2461681 8.1055403 0.31886944
-1.194368 8.0991955 0.31832469
-1.1405959 8.0776787 0.31719628
-1.0887375 8.0676908 0.31653479
-1.0361513 8.0504332 0.31560093
-0.98515505 8.043745 0.31509507
-0.93508816 8.043684 0.3148616
-0.88319981 8.0264254 0.31396666
-0.83248806 8.0177784 0.31342191
-0.77929193 7.9819613 0.31182656
-0.72948116 7.9776368 0.31147635
-0.67550457 7.9232216 0.30918059
-0.62608731 7.9172554 0.30879149
-0.57640499 7.9059992 0.30820784
-0.52954954 7.9343123 0.30918059
-0.48097655 7.9394069 0.30925843
-0.43029433 7.9062891 0.30785763
-0.38346335 7.9437141 0.30921951
-0.33429304 7.9359336 0.30883041
-0.28512463 7.9248533 0.30832455
-0.23595536 7.9084754 0.30762416
-0.1865465 7.8728132 0.30618444
-0.13687924 7.7968798 0.30318829
-0.089817494 7.8655162 0.30583426
-0.041516364 7.8589253 0.30556187
0.0067227837 7.8810158 0.30641791
0.055072758 7.879827 0.30637902
0.10342143 7.8793397 0.30637902
0.15170872 7.8755603 0.30626228
0.19947299 7.8525052 0.30540624
0.24768272 7.8521318 0.30544513
0.29585785 7.8504639 0.30544513
0.34375978 7.8425112 0.30521166
0.39102748 7.8232884 0.3045502
0.43863147 7.8137584 0.30427781
0.48613322 7.8039384 0.30400544
0.53366733 7.7958245 0.30381089
0.58082312 7.7834344 0.30346069
0.62865078 7.7807202 0.30349958
0.67707258 7.7846804 0.30381089
0.72464049 7.7783895 0.30373305
0.77087355 7.7588811 0.3031494
0.81678975 7.7381058 0.30252683
0.95945382 7.7247348 0.30264354
1.0056714 7.709785 0.30229336
1.0493072 7.6767378 0.30124274
1.0932822 7.6483927 0.3003867
1.1403387 7.642529 0.30042562
1.5586911 10.025863 0.39462918
3.2287014 19.96427 0.78704679
3.3516357 19.947041 0.78716356
3.4729359 19.920193 0.78693008
3.5934999 19.889658 0.78657985
3.7158401 19.8692 0.78665769
3.2295711 16.700699 0.66190898
3.3057606 16.549263 0.65669489
3.1922252 15.485402 0.61521578
3.2844815 15.452816 0.61470991
3.378809 15.43042 0.61463207
3.4723263 15.404524 0.61443752
3.5654275 15.377088 0.61420405
3.6043525 15.122607 0.60490435
3.6894724 15.069148 0.60365915
3.7502053 14.920242 0.59860075
3.6084166 13.992248 0.56221896
3.6880736 13.946658 0.56128508
3.6175601 13.347981 0.53805518
3.6911089 13.295685 0.53684896
3.2410619 11.402325 0.46112812
2.8644896 9.8470411 0.3988705
2.5715444 8.6416588 0.35062084
2.3148181 7.6075854 0.30918059
2.2416029 7.207746 0.29346055
2.2839718 7.1881418 0.29322708
2.3289592 7.1768436 0.29334381
2.3786068 7.179493 0.29404423
2.4206946 7.1590829 0.29381076
2.4609928 7.1337042 0.29338273
2.5063758 7.1231823 0.29357728
2.5544214 7.1198969 0.29408312
2.6018345 7.1144128 0.29451114
2.6506717 7.11236 0.29509482
2.6953263 7.0987644 0.29521155
2.73595 7.074636 0.29490027
2.780772 7.0614347 0.2950559
2.8244195 7.045167 0.29509482
2.8709915 7.0360308 0.29544502
2.9190903 7.0302796 0.29595086
2.9676149 7.0251236 0.29649562
3.0153971 7.0177999 0.29696253
3.060801 7.0046597 0.297196
3.1077795 6.9948792 0.29758513
3.1514633 6.9775 0.29766294
3.1992188 6.9689293 0.29812989
3.2499442 6.9663739 0.29886919
3.2977631 6.9571376 0.29933611
3.3434234 6.9430742 0.2996085
3.3881574 6.9269166 0.29980305
3.4777105 7.0008616 0.3039276
3.53635 7.0106177 0.30528951
3.5961504 7.0216961 0.3067292
3.7465501 7.206079 0.31579548
3.7958245 7.1926765 0.3162235
3.844604 7.1780596 0.3166126
3.8871439 7.1517 0.31649587
3.9348125 7.1347146 0.31680715
3.9897368 7.1304941 0.31770211
4.0437708 7.1241298 0.31851923
4.0943866 7.1113071 0.31906399
4.143486 7.0955434 0.31949201
4.1930547 7.0803037 0.31995896
4.2446494 7.0681491 0.32058153
4.3076844 7.0744047 0.32206014
4.3520608 7.0495405 0.32213798
4.4042449 7.0371041 0.32279944
4.4516225 7.0166984 0.32311076
4.4962139 6.9917736 0.32322747
4.5488501 6.9791222 0.32392788
4.6070065 6.9744267 0.32501739
4.66083 6.962635 0.32579559
4.7085118 6.9413486 0.3261458
4.7640309 6.9312687 0.32704076
4.8230295 6.9256878 0.32816917
4.8792582 6.9155602 0.32910305
4.923923 6.8887439 0.32925868
4.9912963 6.8932047 0.33093187
5.0417709 6.8737307 0.33147663
5.0945783 6.8571038 0.33217701
5.1491728 6.8424826 0.33299413
5.2146816 6.8417554 0.33451167
5.2718267 6.8294053 0.33548445
5.3228621 6.8087387 0.33606812
5.3769436 6.7916198 0.33684632
5.4372644 6.7818894 0.33801368
5.4945192 6.7677951 0.33898643
5.5441909 6.743989 0.33949229
5.6097574 6.7390289 0.3409709
5.6574407 6.7121215 0.34136
5.7218695 6.7046466 0.3427608
5.7772722 6.6860466 0.34361684
5.8418722 6.6775484 0.34501764
5.8979721 6.658783 0.34591261
5.9487247 6.6336279 0.34649625
6.0040913 6.6132798 0.3473523
6.0891824 6.6248732 0.34992042
6.1542206 6.6137228 0.35132122
6.2138691 6.5962038 0.35241073
6.2742233 6.5789237 0.35353917
6.329741 6.5561185 0.35439521
6.3915 6.5393105 0.35560146
6.4497757 6.5184393 0.35661313
6.5221782 6.5112185 0.35840303
6.5883303 6.4970384 0.35984275
6.6366601 6.464859 0.36030969
6.7006822 6.4475737 0.36163265
6.7828474 6.4469571 0.36392841
6.856514 6.4373651 0.36575723
6.9435043 6.439342 0.36828643
6.9961467 6.4087663 0.36898685
7.0494156 6.3784575 0.36972615
7.0198798 6.2738185 0.36614633
7.0432615 6.2174006 0.3653681
7.102366 6.1924548 0.36645761
7.1553707 6.1618009 0.36723584
7.1511822 6.082171 0.36509573
7.1661801 6.0195379 0.3639673
7.2283578 5.9965096 0.36525136
7.2974777 5.9786434 0.36688563
7.3767481 5.9683256 0.36902574
7.4421134 5.9460306 0.37046546
7.5074816 5.9231572 0.37190515
7.5799422 5.905232 0.37369508
7.6580081 5.8909044 0.37575737
7.7234502 5.8661695 0.37719706
7.8000679 5.8492455 0.37918153
7.8904195 5.8417101 0.38182747
7.9624162 5.8197212 0.38357848
2.0787828 1.4992936 0.099333487
2.0651548 1.4702773 0.098243974
2.0643284 1.4506812 0.097777046
2.061698 1.4300113 0.09723229
2.0588918 1.4094287 0.096687533
2.0583949 1.3906134 0.096259512
2.0627325 1.3751847 0.096064962
2.0619504 1.3564588 0.095636941
2.0677207 1.3421484 0.095520206
2.0792823 1.3315923 0.095675848
2.0899475 1.3204108 0.095792584
2.0980101 1.3075622 0.095792584
2.1119514 1.2983294 0.096064962
2.1267126 1.2894926 0.096376248
2.1431594 1.2815497 0.096765354
2.1570067 1.2719297 0.097037733
2.1656344 1.2591733 0.097076647
2.1811206 1.2503362 0.097426847
2.1957099 1.2408643 0.097738132
2.172734 1.2103405 0.096376248
2.1722379 1.1926558 0.096026048
2.1742427 1.1764501 0.095792584
2.177012 1.1607352 0.095598027
2.1858623 1.1482854 0.095675848
2.2008526 1.1389872 0.096026048
2.2247124 1.1340885 0.096765354
2.2423439 1.1257997 0.09723229
2.269809 1.122211 0.098127246
11.057834 5.3857374 0.47848243
11.119504 5.3316126 0.4797276
11.142069 5.2585926 0.47929958
11.363528 5.2781129 0.48743197
11.528385 5.268939 0.49311298
11.620646 5.2251515 0.49568111
11.7722 5.2067046 0.50077844
11.835996 5.1483254 0.50214034
11.8398 5.0638146 0.50097299
11.849463 4.9821625 0.50007802
11.864111 4.9028735 0.49941656
11.968035 4.860065 0.50252944
12.061668 4.8120914 0.50521433
12.242614 4.7974253 0.5115568
12.373469 4.7613358 0.51579809
12.487514 4.717463 0.51933903
12.657695 4.6932149 0.52521455
12.800814 4.6571455 0.52996171
12.833854 4.580193 0.53015625
12.814559 4.4848533 0.5282107
12.785128 4.3866801 0.52587605
12.766341 4.2928596 0.52400833
12.761123 4.2041268 0.52272427
12.834227 4.1410909 0.52466983
12.943242 4.0887556 0.52809399
13.034911 4.0299239 0.53081775
13.088087 3.9585471 0.5319851
12.97415 3.8373482 0.52638191
12.960013 3.7468426 0.52486438
12.979875 3.666436 0.52474761
6.6860919 1.8440696 0.26960811
6.6953511 1.8024901 0.26953027
6.6908221 1.7573113 0.2689077
6.6627593 1.7063044 0.26735127
6.6575918 1.6615175 0.26672867
6.6472716 1.615678 0.26591155
6.6337228 1.5693375 0.26497769
6.6198568 1.5232241 0.26404381
6.6125011 1.4788677 0.26338235
6.6038747 1.4344467 0.26268193
6.5832205 1.3877131 0.2615146
2.5738683 0.52567416 0.10182379
2.5505798 0.50462824 0.10077319
2.5408704 0.48652247 0.10026735
2.5418429 0.47055852 0.10018953
2.528945 0.45213538 0.099566951
2.5169015 0.43405846 0.098983288
2.5126176 0.41745865 0.098710909
2.5141451 0.40187567 0.098671995
2.5145884 0.38613775 0.098594174
2.5129564 0.37011781 0.098438531
2.5082541 0.35371312 0.098166153
2.5034454 0.33738008 0.097893775
2.5015039 0.32150233 0.097738132
2.5044215 0.30626887 0.097777046
2.4973207 0.28985706 0.097426847
2.5258696 0.27748147 0.098477446
2.5324941 0.26249418 0.098671995
2.536046 0.24714451 0.098749816
2.539505 0.23176111 0.098827645
2.5408792 0.21617465 0.098827645
2.5451462 0.2008166 0.098944373
2.5443373 0.18505061 0.098866552
2.5593832 0.17036813 0.099411309
2.5813258 0.1559315 0.10022844
6.3926849 0.34779054 0.24882962
6.3847184 0.30807659 0.2484405
6.3665214 0.26805213 0.24766228
6.3081303 0.22682217 0.24532762
6.3683324 0.18987505 0.24762337
6.3184309 0.14958465 0.24563891
6.3162322 0.11075979 0.24552217
6.3087993 0.071910083 0.24521089
6.3051257 0.033177212 0.24505524
6.3224711 0.0029428559 0.13879335
6.3003759 -0.035725672 0.13830958
6.2930408 -0.074300513 0.13815567
6.3024621 -0.11309221 0.13837555
6.3056469 -0.15185766 0.13846351
6.2976017 -0.19033387 0.13830958
6.2813292 -0.22842613 0.13797975
6.2877994 -0.26730332 0.13815567
6.2800498 -0.30558777 0.13802372
6.267076 -0.3435134 0.13778184
6.2588625 -0.38159573 0.13764991
6.2544079 -0.41985819 0.13760592
6.2527113 -0.45829973 0.13762791
6.2507782 -0.49673626 0.13764991
6.2456207 -0.53491026 0.13760592
6.2531719 -0.57422864 0.13784781
6.2465463 -0.6122939 0.13778184
6.2396879 -0.65029943 0.13771588
6.2286248 -0.68780482 0.13756195
6.2342172 -0.72716862 0.13778184
6.2246766 -0.76479763 0.1376719
6.2307734 -0.80438554 0.13791378
6.2187858 -0.84166288 0.13775985
6.2045956 -0.87854296 0.13756195
6.2000766 -0.9167434 0.13758394
6.194335 -0.95476913 0.13758394
6.1893473 -0.99291724 0.13760592
6.1841245 -1.0310402 0.13762791
6.1658602 -1.0669198 0.13736404
6.1523089 -1.103497 0.13721012
6.147388 -1.1415912 0.1372541
6.1392865 -1.1791008 0.13723211
6.1319356 -1.2167486 0.13723211
6.1253343 -1.2545512 0.1372541
6.1175213 -1.2921119 0.1372541
6.1055698 -1.3287734 0.13716614
6.0924244 -1.3651183 0.13705619
6.0810108 -1.4018012 0.13699022
6.0742407 -1.4395484 0.13703421
6.0652933 -1.4767921 0.13703421
6.0638766 -1.5159203 0.13721012
6.0593028 -1.5543412 0.13732007
6.0525522 -1.5922544 0.13738604
6.0455642 -1.630143 0.13745201
6.0344849 -1.666941 0.13743001
6.0222187 -1.7033923 0.13738604
6.0087729 -1.7394776 0.13732007
6.0046964 -1.7783016 0.13747399
6.0013266 -1.8174306 0.13764991
