# .PCD v0.7 - Point Cloud Data file format
VERSION 0.7
FIELDS x y z
SIZE 4 4 4
TYPE F F F
COUNT 1 1 1
WIDTH 1448
HEIGHT 1
VIEWPOINT 0 0 0 1 0 0 0
POINTS 1448
DATA ascii
0.40025637 3.3170474 -0.78754365
0.42244062 3.32901 -0.79099697
0.44388708 3.3340721 -0.79283869
0.46487388 3.3351409 -0.79375958
0.48518887 3.3312628 -0.79352939
0.50050163 3.2945499 -0.78547168
0.52344573 3.308718 -0.78961563
0.54010302 3.2833588 -0.78432059
0.55319047 3.2387362 -0.77442116
0.56795847 3.2065344 -0.76751453
0.5809468 3.1666174 -0.75876623
0.59600872 3.1400478 -0.75324094
0.60458195 3.0819011 -0.74011844
0.61961532 3.0590587 -0.73551404
0.63259929 3.027575 -0.72883767
0.63599735 2.9532394 -0.71180141
0.65347373 2.9464314 -0.71111077
0.66894096 2.9309819 -0.7083481
0.68135172 2.9031374 -0.70259261
0.68842477 2.8544405 -0.69177228
0.70101142 2.8303268 -0.68693769
0.71212906 2.801451 -0.68095201
0.72119969 2.7659547 -0.67335474
0.72910768 2.7276335 -0.66506684
0.7409445 2.705276 -0.66069269
0.75358617 2.6866245 -0.65723938
0.76119131 2.6510844 -0.64964211
0.77524859 2.6388948 -0.64780039
0.78918511 2.6266327 -0.6459586
0.79242498 2.579881 -0.63559872
0.8239823 2.6251063 -0.64803058
0.8475045 2.643167 -0.65378606
0.86310095 2.6360674 -0.65332562
0.90055025 2.6944036 -0.66921079
0.9381187 2.750535 -0.68463552
0.95401841 2.7419698 -0.68394482
0.97049934 2.7351475 -0.68371463
0.98196572 2.7145 -0.68003112
0.99321538 2.6938152 -0.67634761
1.023761 2.725019 -0.6857866
1.0484641 2.7395887 -0.69108164
1.0740911 2.7557707 -0.69683713
1.0888257 2.7437015 -0.69545585
1.1038173 2.7324574 -0.6943047
1.1368474 2.7652338 -0.70443439
1.1474075 2.742945 -0.70052063
1.1546882 2.7134676 -0.69476515
1.1759554 2.7170482 -0.69752783
1.2008384 2.7284853 -0.70236242
1.2227256 2.7326128 -0.70535529
1.2354398 2.7162011 -0.70305306
1.2533079 2.7112193 -0.70374376
1.2666095 2.6964319 -0.70190197
1.2998995 2.723738 -0.71111077
1.3127662 2.70783 -0.70903879
1.3289263 2.6988509 -0.70880854
1.3241309 2.6479993 -0.69752783
1.3465228 2.6519718 -0.70075089
1.3681213 2.6540389 -0.7035135
1.3834778 2.6438701 -0.70305306
1.4024135 2.6404877 -0.70443439
1.4250541 2.6438251 -0.70765746
1.4412495 2.6350315 -0.70765746
1.4606966 2.6320946 -0.70926899
1.4706118 2.6120591 -0.70627612
1.4861288 2.6021414 -0.70604593
1.5015794 2.5921316 -0.70581573
1.5302747 2.6046834 -0.71180141
1.5472243 2.5969169 -0.71226186
1.5742017 2.6056979 -0.7173267
1.600328 2.6125855 -0.7219311
1.6240304 2.6151166 -0.72538435
1.6483423 2.6182783 -0.72906786
1.6785131 2.6302629 -0.73528379
1.6977919 2.6248164 -0.73666513
1.7085297 2.6062117 -0.73436296
1.7363377 2.6135104 -0.73942775
1.7545153 2.6060362 -0.74034864
1.7671819 2.5903986 -0.7389673
1.7802758 2.5755043 -0.73781621
1.8133529 2.5892408 -0.74495304
1.8370906 2.5891759 -0.7481761
1.8586235 2.5857565 -0.75047833
1.8675798 2.5648639 -0.74771565
1.889637 2.5619705 -0.75024807
1.8925064 2.5331776 -0.74518323
1.9221085 2.5401409 -0.75070852
1.9471306 2.5406566 -0.75439203
1.9596994 2.5248179 -0.75324094
1.9697416 2.5058606 -0.75116897
1.9850801 2.4937274 -0.75116897
2.0296621 2.5178642 -0.76221949
2.0536892 2.5159166 -0.76544255
2.0827289 2.5197685 -0.7705074
2.1075201 2.5181351 -0.77396071
2.1254482 2.5081255 -0.7748816
2.1547403 2.5112836 -0.77994639
2.1745765 2.5031571 -0.78155792
2.1796105 2.4780765 -0.77787441
2.2116024 2.4835503 -0.78386015
2.2372267 2.4814968 -0.78754365
2.2484741 2.4634106 -0.78616232
2.2714729 2.4581435 -0.78892499
2.2858481 2.4434493 -0.78869474
2.3222127 2.4519858 -0.79606175
2.331826 2.4320714 -0.79422003
2.3473828 2.4184163 -0.79445022
2.3949189 2.4372826 -0.80550081
2.3700202 2.3825295 -0.79214805
2.4122176 2.3953683 -0.80135685
2.4379859 2.3914244 -0.80504036
2.4463232 2.370326 -0.80296838
2.4727736 2.366709 -0.80688208
2.491492 2.3555026 -0.80826342
2.5371945 2.3693929 -0.81839305
2.518064 2.3227715 -0.80757278
2.5409014 2.3151414 -0.8103354
2.5811007 2.3229408 -0.8186233
2.5945783 2.3064134 -0.81839305
2.6181884 2.2987959 -0.82138592
2.6278327 2.2788627 -0.82000464
2.6321573 2.254467 -0.81701177
2.6556001 2.2464435 -0.82000464
2.6551437 2.2182536 -0.81563044
2.6687047 2.20192 -0.81563044
2.6987631 2.1990261 -0.82069528
2.706898 2.1781554 -0.81908375
2.7087827 2.1524251 -0.81563044
2.7089229 2.1255524 -0.81171674
2.7249913 2.1112745 -0.81263757
2.7603102 2.1116598 -0.81931394
2.7600136 2.0847132 -0.81540024
2.7633913 2.0607586 -0.81263757
2.7704978 2.0397258 -0.81102604
2.7609189 2.0066698 -0.80457991
2.7257361 1.9556572 -0.79076672
2.7090936 1.9186504 -0.78247881
2.7144341 1.8975316 -0.78063709
2.7332354 1.8858137 -0.78270906
2.7536037 1.8750317 -0.78524148
2.7537482 1.8505026 -0.78201836
2.7585623 1.8292691 -0.78017664
2.7770636 1.8171033 -0.78224862
2.7767146 1.7926409 -0.77902555
2.7925866 1.7787058 -0.78040683
2.8314645 1.7791384 -0.78823429
2.8646619 1.7755718 -0.79445022
2.8846362 1.763544 -0.79698265
2.8820682 1.7377722 -0.79329914
2.8884943 1.717569 -0.79214805
2.8821886 1.6899701 -0.78754365
2.9059839 1.6800455 -0.79122716
2.9255381 1.667483 -0.79375958
2.8788698 1.6175672 -0.77833486
2.9355645 1.6257998 -0.79099697
2.9557354 1.613351 -0.79375958
2.9621508 1.5933409 -0.79283869
2.9116809 1.5432395 -0.77672333
2.9668155 1.5492145 -0.78892499
3.0013618 1.5438882 -0.79560137
2.9994931 1.5197264 -0.7926085
3.0366271 1.5151945 -0.79997551
3.0013213 1.4746513 -0.78823429
3.0330906 1.467224 -0.79422003
3.0218275 1.4389644 -0.78892499
3.0420554 1.4257636 -0.7919178
3.0551651 1.4091085 -0.79306895
3.0486884 1.3835007 -0.78915519
3.0402358 1.3572323 -0.78478104
3.0128639 1.3229057 -0.77557224
3.1075885 1.3418062 -0.79790354
3.0763483 1.3059843 -0.78777385
3.0834055 1.2867088 -0.78754365
3.0615296 1.2555822 -0.77994639
1.3324969 0.53711402 -0.33700395
1.3556743 0.53680617 -0.34206876
1.3607566 0.52918285 -0.34252921
1.3712515 0.52359921 -0.34437096
1.3835514 0.51858944 -0.34667316
1.3766602 0.50639665 -0.34414074
1.3779106 0.49727973 -0.34368029
1.3781837 0.48784199 -0.34298965
1.3848287 0.48065209 -0.34391052
1.3877518 0.47214592 -0.34391052
1.4007784 0.4670057 -0.34644294
1.4202695 0.46383685 -0.35058689
1.4230888 0.45511353 -0.35058689
1.4286407 0.44724473 -0.35127756
1.4453157 0.4427433 -0.35473084
1.443344 0.43247095 -0.35357976
1.4534419 0.42579398 -0.35542151
1.4672544 0.4200801 -0.35818413
1.4632437 0.40923569 -0.3565726
1.466666 0.40050584 -0.35680282
1.4700361 0.39174941 -0.35703304
1.4629934 0.38027561 -0.35473084
1.4662426 0.37153056 -0.35496107
1.4628258 0.36112845 -0.35357976
1.4602829 0.35100961 -0.35242864
1.4690424 0.34359306 -0.35404018
1.4701741 0.33435708 -0.35380995
1.472198 0.32532999 -0.35380995
1.4760695 0.31669858 -0.3542704
1.4579772 0.30347478 -0.34943581
3.3162031 0.66871083 -0.79744309
3.3250194 0.64928257 -0.79859418
3.326072 0.62832665 -0.79790354
3.3375235 0.60930401 -0.79974526
3.3392823 0.58847624 -0.79928488
3.3332365 0.56634641 -0.79698265
3.3395298 0.54635453 -0.79767334
3.3351288 0.52464408 -0.79583156
3.3623409 0.50780141 -0.80158705
3.370209 0.48785755 -0.80273813
3.3875983 0.4691706 -0.80619144
3.3643649 0.44493309 -0.79997551
3.3322735 0.41990417 -0.79168761
3.3376858 0.39979681 -0.79237825
3.3468447 0.38007775 -0.79398978
3.3820119 0.36306378 -0.80181724
3.361907 0.3400546 -0.7965222
3.383306 0.32125822 -0.8011266
3.397815 0.30161014 -0.80411947
3.3782649 0.27899548 -0.79905462
3.3575962 0.25655809 -0.79375958
3.3474581 0.23513412 -0.79099697
3.3517511 0.21477653 -0.79168761
3.3520343 0.19415033 -0.79145741
3.3453877 0.17317714 -0.78961563
3.3084743 0.15092055 -0.78063709
3.3326755 0.13153653 -0.78616232
3.330502 0.11098813 -0.78547168
3.3291748 0.090497747 -0.78501123
3.3462069 0.070415333 -0.78892499
3.3339267 0.049694538 -0.78593212
3.3137338 0.029059459 -0.78109753
3.017379 0.008188786 -0.77608973
3.0231819 -0.01034432 -0.77758998
3.0453298 -0.029102201 -0.78334093
3.0383172 -0.047682505 -0.78159064
3.0340955 -0.066240646 -0.78059047
3.018146 -0.084426321 -0.77658981
3.0214419 -0.10307496 -0.77758998
3.0236549 -0.12172848 -0.7783401
3.0257528 -0.14041303 -0.77909023
3.005496 -0.15796375 -0.7740894
3.0006039 -0.17617597 -0.77308923
2.9733784 -0.19289713 -0.76633811
2.9837286 -0.21195865 -0.76933861
2.9147956 -0.22505942 -0.75183564
2.9886222 -0.24919966 -0.77133894
2.9908943 -0.26787746 -0.77233911
2.9940138 -0.28668463 -0.77358931
2.96908 -0.30269819 -0.76758832
2.9710174 -0.32132608 -0.76858848
2.9834197 -0.34119701 -0.77233911
2.9639666 -0.35741368 -0.76783836
2.9530725 -0.37449905 -0.76558799
2.9305632 -0.38993421 -0.76033705
2.9434597 -0.41004264 -0.76433778
2.9322648 -0.42684224 -0.76208735
2.9468217 -0.44743884 -0.76658815
2.9373262 -0.46445468 -0.76483786
2.9200895 -0.4801158 -0.76108718
2.9342687 -0.5009535 -0.76558799
2.8949089 -0.51254177 -0.75608635
2.9050431 -0.53273714 -0.75958693
2.8731804 -0.5451436 -0.75208569
2.8650305 -0.56183225 -0.75083548
2.898541 -0.58688694 -0.7605871
2.8617115 -0.59773934 -0.75183564
2.8456843 -0.6126408 -0.7485851
2.8872471 -0.64014018 -0.7605871
2.8738248 -0.65569222 -0.75808668
2.8612633 -0.67132467 -0.75583631
2.8523836 -0.68773466 -0.7545861
2.8565693 -0.70731628 -0.75683647
2.8784523 -0.73150229 -0.7638377
2.8776577 -0.75012648 -0.76483786
2.8599043 -0.76427245 -0.76133722
2.84302 -0.77848452 -0.75808668
2.8251374 -0.79225695 -0.7545861
2.8053315 -0.80530548 -0.75058544
2.8040538 -0.82359421 -0.7515856
2.789674 -0.83800048 -0.74908519
2.7576361 -0.8468647 -0.74183398
2.788419 -0.87506813 -0.7515856
2.7322829 -0.87591541 -0.73783332
2.7360594 -0.89567411 -0.74033374
1.6954911 -0.56682891 -0.45853633
1.5581741 -0.53162587 -0.42203021
1.5539682 -0.54085875 -0.42178017
1.5405818 -0.54682481 -0.41902971
1.536287 -0.55593824 -0.41877967
1.5319384 -0.56501955 -0.4185296
1.5275362 -0.57406843 -0.41827956
1.5266981 -0.58446789 -0.41902971
1.5357144 -0.59874362 -0.42253029
1.5383121 -0.61065352 -0.42428058
1.5372298 -0.6211682 -0.42503071
1.5387632 -0.63279623 -0.42653096
1.5375314 -0.64334619 -0.42728108
1.537119 -0.65428364 -0.42828125
1.5250772 -0.66024393 -0.42603087
1.513907 -0.666471 -0.42403054
2.5625196 -1.1464432 -0.72183061
2.6224282 -1.1925925 -0.74083382
2.5649588 -1.1855174 -0.72658139
2.5401068 -1.1930051 -0.72158056
1.9253508 -0.91890395 -0.54780138
1.4979352 -0.72638559 -0.426781
1.4960562 -0.73684549 -0.42753112
1.4915068 -0.74601126 -0.42753112
1.4834476 -0.75339651 -0.42653096
1.4701895 -0.75805062 -0.42403054
1.4560723 -0.76212192 -0.42128009
1.4496583 -0.77013403 -0.42078
1.4329714 -0.77258617 -0.41727939
1.4239558 -0.77904224 -0.41602919
1.4183022 -0.78729522 -0.41577914
1.4142885 -0.79645771 -0.41602919
1.4076931 -0.80416071 -0.4155291
1.3968667 -0.80938739 -0.41377881
1.3935441 -0.81892359 -0.41427889
1.376846 -0.8205241 -0.41077831
2.3564942 -1.4234767 -0.70782822
2.4435077 -1.4965487 -0.73683316
2.4647179 -1.5304048 -0.74608469
2.4438076 -1.5382806 -0.74258411
2.431874 -1.5516846 -0.74183398
2.4369438 -1.5760384 -0.74633473
2.4102197 -1.5798188 -0.74108386
2.4166131 -1.6052892 -0.74608469
2.3777981 -1.6006289 -0.7370832
2.3751321 -1.6200974 -0.73933357
2.3492141 -1.623634 -0.73433268
2.3106506 -1.6180308 -0.72533119
2.2990994 -1.6310581 -0.7248311
2.2725344 -1.6332717 -0.71958023
2.0111635 -1.4643086 -0.63931674
1.988112 -1.4662803 -0.63481599
1.9751984 -1.4755552 -0.63356578
1.9661074 -1.4876469 -0.63356578
1.9469497 -1.4920291 -0.63031524
1.9324028 -1.4997931 -0.62856495
1.9254479 -1.5134162 -0.62931508
1.915368 -1.5245992 -0.62906504
1.9361367 -1.5606204 -0.6390667
1.9632866 -1.6024616 -0.65131873
1.9481919 -1.6101613 -0.64956844
1.9338193 -1.6183577 -0.64806819
1.9290247 -1.6345732 -0.64981848
1.9138139 -1.6419667 -0.64806819
1.8956606 -1.6466962 -0.64531773
1.8782489 -1.6519042 -0.64281732
1.8731406 -1.6679037 -0.64456761
1.8585554 -1.6754769 -0.64306736
1.8539624 -1.6920695 -0.64506769
1.8342983 -1.6948737 -0.64181715
1.8146697 -1.6975005 -0.63856661
1.7978913 -1.7026129 -0.63631624
1.7930031 -1.7189716 -0.63831657
1.7650476 -1.7130867 -0.63206553
1.7503582 -1.7198141 -0.63056529
1.7459525 -1.7366656 -0.63281566
1.7263919 -1.7384168 -0.62956512
1.7184055 -1.7517411 -0.63056529
1.7042549 -1.7587763 -0.62931508
1.6961099 -1.7719975 -0.63031524
1.6858705 -1.7830746 -0.63056529
1.6748981 -1.7933853 -0.63056529
1.6651759 -1.8050516 -0.63106537
1.6488504 -1.8095108 -0.62906504
1.640956 -1.8231914 -0.63031524
1.6258773 -1.8288851 -0.628815
1.6216543 -1.8468282 -0.63156545
1.5855439 -1.8282228 -0.62181377
1.5692557 -1.8320355 -0.61981344
1.5511041 -1.8335005 -0.61706299
1.5416876 -1.845212 -0.61781311
1.5284874 -1.8523968 -0.61706299
1.5152569 -1.8594893 -0.61631286
1.4922817 -1.8544227 -0.61156207
1.4832854 -1.8665757 -0.61256224
1.4640315 -1.8657416 -0.6093117
1.4442506 -1.8639765 -0.60581112
1.4427912 -1.8858736 -0.61006182
1.4230195 -1.8838767 -0.60656124
1.4137496 -1.8956767 -0.60756141
1.392903 -1.891843 -0.60356075
1.3767127 -1.8940897 -0.60156041
1.3266675 -1.8490173 -0.58455753
1.3024211 -1.8389531 -0.57880658
1.2961078 -1.8540506 -0.58105695
1.2847071 -1.8619685 -0.58105695
1.2759842 -1.8738171 -0.58230716
1.2806709 -1.9057156 -0.5898084
1.2737714 -1.9207987 -0.59205878
1.3033308 -1.9917623 -0.61156207
1.2805772 -1.983456 -0.60656124
1.2715051 -1.9961752 -0.60806149
1.262325 -2.0088575 -0.60956174
1.2361963 -1.994349 -0.60281062
1.2335361 -2.0175893 -0.60756141
1.2161312 -2.01683 -0.60506099
1.35771 -2.2830303 -0.68282408
1.3701352 -2.3364134 -0.69632632
1.3499553 -2.3347194 -0.69332582
1.3312869 -2.3353891 -0.69107544
1.3164576 -2.3426697 -0.6908254
1.3100374 -2.3651001 -0.69507611
1.2857538 -2.3552494 -0.68982524
1.2767851 -2.3733251 -0.69282573
1.2576618 -2.372561 -0.69032532
1.256533 -2.4059772 -0.69782656
1.2315543 -2.393842 -0.69207561
1.2181562 -2.4039443 -0.69282573
1.2025179 -2.409641 -0.69232565
1.1757476 -2.3926454 -0.68532449
1.1551381 -2.3876135 -0.68182391
1.1483803 -2.4112637 -0.6865747
1.1331524 -2.417388 -0.68632466
1.1154578 -2.4181416 -0.68457437
1.1009997 -2.425822 -0.68482441
1.0884641 -2.4378362 -0.68632466
1.0645263 -2.4240811 -0.68057364
1.0542413 -2.4412329 -0.6835742
1.0369707 -2.4423089 -0.68207395
1.0212191 -2.4468386 -0.68157387
1.0091276 -2.4602244 -0.6835742
0.99546152 -2.4699619 -0.68457437
0.9877767 -2.4949267 -0.68982524
0.97315168 -2.5027454 -0.69032532
0.95881355 -2.5113828 -0.69107544
0.94270593 -2.5154054 -0.69057536
0.93327373 -2.5374982 -0.69507611
0.89959949 -2.4930894 -0.68132377
0.88137591 -2.4903483 -0.67907339
0.87052602 -2.5085144 -0.68257403
0.84357238 -2.4798954 -0.67332244
0.82895291 -2.4868617 -0.67382252
0.82360345 -2.5222723 -0.68207395
0.80102891 -2.5051465 -0.6760729
0.78274804 -2.5007746 -0.67357248
0.76767266 -2.5064561 -0.67382252
0.75617206 -2.5241034 -0.6773231
0.73767394 -2.5184753 -0.67457265
0.71980685 -2.5145772 -0.67232227
0.70358127 -2.5161493 -0.67157215
0.68455583 -2.5073433 -0.66807157
0.66840965 -2.5086896 -0.66732144
0.66982353 -2.5774002 -0.68457437
0.63971585 -2.5251501 -0.66957182
0.63233829 -2.5619266 -0.67832327
0.60868025 -2.5328102 -0.66957182
0.5971002 -2.5534668 -0.67407256
0.58937252 -2.5920136 -0.68332416
0.57115698 -2.5851817 -0.68057364
0.55284423 -2.5772779 -0.67757314
0.53208274 -2.5569246 -0.67132211
0.51523376 -2.5544467 -0.66982186
0.49992192 -2.5594606 -0.67032194
0.48402792 -2.5615287 -0.6700719
0.47248158 -2.5873089 -0.6760729
0.45659727 -2.5901592 -0.6760729
0.44167054 -2.5986392 -0.67757314
0.42743993 -2.6118107 -0.6803236
0.41276279 -2.622992 -0.68257403
0.39376327 -2.6063285 -0.67757314
0.37567884 -2.5943227 -0.67382252
0.36121753 -2.6071281 -0.67657298
0.34279644 -2.5910587 -0.67182219
0.32410094 -2.5710194 -0.66607124
0.31132066 -2.5979543 -0.67257231
0.29416919 -2.5892332 -0.66982186
0.28086713 -2.6150565 -0.6760729
0.26422983 -2.6109507 -0.67457265
0.24792895 -2.6096313 -0.67382252
0.23096707 -2.6004949 -0.67107207
0.21612601 -2.6153719 -0.67457265
0.19837116 -2.5944448 -0.66882169
0.18197133 -2.5888522 -0.6670714
0.16639401 -2.5947511 -0.66832161
0.15052605 -2.5966899 -0.66857165
0.13353316 -2.5772593 -0.66332078
0.1179833 -2.5838332 -0.66482103
0.10143457 -2.5670941 -0.66032028
0.085225865 -2.5541205 -0.6568197
0.070616119 -2.5933104 -0.66682136
0.054619927 -2.5898225 -0.66582119
0.038536791 -2.5775235 -0.66257066
0.022904878 -2.5980434 -0.66782153
0.006949001 -2.5932939 -0.66657132
-0.0089321779 -2.5836053 -0.6640709
-0.024648944 -2.568979 -0.66032028
-0.040261522 -2.5590982 -0.65781987
-0.055984031 -2.5597713 -0.65806991
-0.072307467 -2.5816402 -0.66382086
-0.088179566 -2.5821157 -0.6640709
-0.10282034 -2.5515347 -0.65631962
-0.118519 -2.5518231 -0.65656966
-0.13508555 -2.5684521 -0.66107041
-0.15016416 -2.5559759 -0.65806991
-0.16496983 -2.5414793 -0.65456933
-0.1829551 -2.574223 -0.66332078
-0.1992671 -2.5798097 -0.66507107
-0.2162163 -2.592047 -0.66857165
-0.2295316 -2.5617397 -0.66107041
-0.24460122 -2.5535362 -0.65932012
-0.2594808 -2.544281 -0.65731978
-0.2756069 -2.5474544 -0.65856999
-0.29090315 -2.5428293 -0.65781987
-0.30939299 -2.5650289 -0.6640709
-0.32147762 -2.534265 -0.65656966
-0.33816907 -2.5408831 -0.65882003
-0.35335305 -2.5358834 -0.65806991
-0.36807069 -2.5279186 -0.65656966
-0.38168788 -2.5131676 -0.65331906
-0.39861137 -2.5203421 -0.65581954
-0.41093075 -2.4987402 -0.65081865
-0.42706874 -2.5009439 -0.65206885
-0.43886569 -2.4782541 -0.64681798
-0.45441261 -2.4774194 -0.64731807
-0.46996576 -2.4764872 -0.64781815
-0.48571068 -2.4764073 -0.64856827
-0.50185621 -2.4781256 -0.64981848
-0.51804107 -2.4797387 -0.65106869
-0.53304315 -2.4755669 -0.65081865
-0.54696661 -2.4665775 -0.6493184
-0.56295168 -2.4669511 -0.65031856
-0.58117151 -2.4766479 -0.65381914
-0.58774072 -2.4372656 -0.64431757
-0.60803229 -2.4552312 -0.65006852
-0.62117964 -2.4439464 -0.64806819
-0.63738388 -2.4447739 -0.6493184
-0.64987493 -2.4314623 -0.64681798
-0.65941614 -2.4078166 -0.64156711
-0.66947556 -2.3869436 -0.63706636
-0.68838018 -2.397682 -0.64106703
-0.70007992 -2.3831935 -0.63831657
-0.71691656 -2.386272 -0.6403169
-0.73239708 -2.3846049 -0.64106703
-0.74556637 -2.3754468 -0.63981682
-0.7595371 -2.3689833 -0.63931674
-0.77195132 -2.3578365 -0.63756645
-0.79069763 -2.3659129 -0.64106703
-0.80676121 -2.3655992 -0.64231724
-0.82412231 -2.3688354 -0.64456761
-0.83281827 -2.3473074 -0.64006686
-0.84621811 -2.3394215 -0.63931674
-0.85821372 -2.3278253 -0.63756645
-0.87009895 -2.3161702 -0.63581616
-0.8804903 -2.3008397 -0.6330657
-0.89107776 -2.2863717 -0.63056529
-0.91044331 -2.2943618 -0.63431591
-0.92994028 -2.3022001 -0.63806653
-0.93926591 -2.2848079 -0.63481599
-0.95476121 -2.2825749 -0.63581616
-0.97026426 -2.2802377 -0.63681632
-0.98385292 -2.2733526 -0.63656628
-0.99856305 -2.2690458 -0.63706636
-1.0077243 -2.252269 -0.63406587
-1.0219256 -2.2469249 -0.63431591
-1.0332571 -2.2353382 -0.63281566
-1.0420165 -2.2184384 -0.62981516
-1.0597768 -2.2207425 -0.63231558
-1.0759159 -2.2194262 -0.63381582
-1.0792544 -2.1919324 -0.62781483
-1.095713 -2.1913319 -0.62956512
-1.1087 -2.1837039 -0.62931508
-1.1260687 -2.1846066 -0.63156545
-1.1416954 -2.181946 -0.63281566
-1.1546081 -2.1740446 -0.63256562
-1.1679261 -2.166919 -0.63256562
-1.1798068 -2.1571631 -0.63181549
-1.1897336 -2.1439562 -0.6300652
-1.2095132 -2.1484296 -0.63356578
-1.221233 -2.1384449 -0.63281566
-1.2382121 -2.137615 -0.63481599
-1.2527757 -2.1324821 -0.63556612
-1.2648461 -2.1230912 -0.63506603
-1.284355 -2.1260657 -0.63831657
-1.2872658 -2.1016293 -0.63331574
-1.3098378 -2.1093221 -0.63806653
-1.3243026 -2.1037037 -0.63881665
-1.3200048 -2.068599 -0.63056529
-1.3347752 -2.0637131 -0.63156545
-1.3505964 -2.0603435 -0.6330657
-1.3541085 -2.038305 -0.628815
-1.3676708 -2.0315647 -0.62931508
-1.3784742 -2.0207348 -0.62856495
-1.3919479 -2.0138319 -0.62906504
-1.4053887 -2.0068393 -0.62956512
-1.4148757 -1.9942292 -0.62831491
-1.4372536 -1.9996648 -0.63281566
-1.4443688 -1.9837624 -0.63056529
-1.4547904 -1.9725244 -0.62981516
-1.4639697 -1.9596816 -0.62856495
-1.4829748 -1.9599292 -0.63156545
-1.4961503 -1.9523304 -0.63206553
-1.5033538 -1.936993 -0.6300652
-1.5182014 -1.9315391 -0.63131541
-1.5336412 -1.9267335 -0.63281566
-1.5436122 -1.915025 -0.63206553
-1.5669626 -1.9197723 -0.63681632
-1.5811791 -1.9131073 -0.63781649
-1.5798426 -1.887773 -0.63256562
-1.5876415 -1.8736106 -0.63106537
-1.6035198 -1.8689789 -0.63281566
-1.6054357 -1.8481377 -0.62906504
-1.6378407 -1.8622503 -0.63731641
-1.6440868 -1.8463794 -0.63531607
-1.6430706 -1.8225898 -0.63056529
-1.6568331 -1.815335 -0.63156545
-1.6633422 -1.8001555 -0.62981516
-1.6849365 -1.8012317 -0.63381582
-1.6826453 -1.7767955 -0.628815
-1.7116028 -1.7853131 -0.63556612
-1.7070193 -1.7587929 -0.62981516
-1.7293119 -1.7600298 -0.63406587
-1.7441746 -1.7535056 -0.63556612
-1.7555878 -1.7434529 -0.63581616
-1.7683254 -1.7346827 -0.63656628
-1.7726796 -1.7177341 -0.63431591
-1.7810881 -1.7048157 -0.63356578
-1.7753375 -1.6785513 -0.62781483
-1.7877256 -1.6696097 -0.62856495
-1.8007826 -1.6612357 -0.62956512
-1.818097 -1.6566782 -0.63206553
-1.8073624 -1.6267018 -0.62481427
-1.8346727 -1.6310252 -0.63081533
-1.844646 -1.6197371 -0.63081533
-1.8516245 -1.60585 -0.62981516
-1.8607078 -1.5938282 -0.62956512
-1.8756255 -1.5867599 -0.63131541
-1.8853264 -1.5752214 -0.63131541
-1.8867431 -1.556843 -0.62856495
-1.8970107 -1.5458486 -0.628815
-1.9072143 -1.5347869 -0.62906504
-1.8991644 -1.5091963 -0.62331402
-1.9137199 -1.5017002 -0.62506431
-1.9420284 -1.5047605 -0.63131541
-1.9581444 -1.4981128 -0.63356578
-1.9572581 -1.4784803 -0.63031524
-1.9818133 -1.4780239 -0.63531607
-1.966679 -1.4480335 -0.62756473
-1.9700457 -1.4319524 -0.62581444
-1.9725027 -1.4153202 -0.62381411
-1.9937894 -1.4121478 -0.62781483
-2.0143178 -1.4082121 -0.63156545
-2.0237172 -1.396376 -0.63181549
-2.0138435 -1.371393 -0.62606448
-2.044718 -1.3741382 -0.6330657
-2.0361686 -1.3503242 -0.62781483
-2.0411754 -1.3356836 -0.6268146
-2.0468926 -1.3215578 -0.62606448
-2.0549631 -1.3089734 -0.62606448
-2.0555789 -1.2917013 -0.62381411
-2.0511239 -1.2714093 -0.62006348
-2.0712755 -1.266379 -0.62381411
-2.0740328 -1.2506448 -0.62231386
-2.0891562 -1.2423513 -0.62456423
-2.1109364 -1.2378387 -0.628815
-2.109273 -1.2195296 -0.62606448
-2.1167161 -1.2065644 -0.62606448
-2.1299875 -1.1968755 -0.62781483
-2.1440661 -1.1875384 -0.62981516
-2.1496129 -1.173432 -0.62931508
-2.1593304 -1.1615969 -0.6300652
-2.1672723 -1.1487793 -0.63031524
-2.1777129 -1.1372532 -0.63131541
-2.1665719 -1.1145636 -0.62606448
-2.1811419 -1.1051894 -0.62831491
-2.1852834 -1.0904877 -0.62756473
-2.1780312 -1.070223 -0.62356406
-2.1880429 -1.0585263 -0.62456423
-2.1892524 -1.0425814 -0.62306398
-2.2201531 -1.0406413 -0.6300652
-2.20364 -1.0164491 -0.62356406
-2.2257037 -1.0101154 -0.62806487
-2.2035711 -0.98380113 -0.62006348
-2.203361 -0.96753508 -0.61831319
-2.2048123 -0.95207685 -0.61706299
-2.2221975 -0.94345254 -0.62031353
-2.2243707 -0.928307 -0.61931336
-2.2479391 -0.92199409 -0.62431419
-2.235595 -0.90094066 -0.61931336
-2.2374804 -0.88577986 -0.61831319
-2.2600176 -0.87870514 -0.62306398
-2.2762203 -0.86896819 -0.62606448
-2.2833226 -0.85566515 -0.62656456
-2.2821693 -0.83929777 -0.62481427
-2.2863655 -0.82495004 -0.62456423
-2.2895589 -0.8102591 -0.62406415
-2.3191829 -0.80477202 -0.63081533
-2.3121617 -0.78647017 -0.62756473
-2.3151069 -0.77165538 -0.62706465
-2.3308423 -0.7610448 -0.6300652
-2.3400788 -0.74820423 -0.63131541
-2.3224506 -0.72688496 -0.62531435
-2.3222384 -0.71120214 -0.62406415
-2.3478897 -0.70333576 -0.62981516
-2.3261454 -0.6812892 -0.62281394
-2.3358667 -0.66860354 -0.62431419
-2.362303 -0.66052163 -0.63031524
-2.3457637 -0.64039904 -0.62481427
-2.3618107 -0.62923723 -0.62806487
-2.3684382 -0.61546487 -0.628815
-2.3637235 -0.59877872 -0.62656456
-2.3739328 -0.58588958 -0.62831491
-2.3737175 -0.57040656 -0.62731469
-2.3931997 -0.55958271 -0.63156545
-2.384315 -0.54209399 -0.62831491
-2.3734155 -0.52431732 -0.62456423
-2.3860545 -0.51177746 -0.62706465
-2.3986287 -0.49910218 -0.62956512
-2.4063911 -0.48533344 -0.63081533
-2.4055231 -0.46981558 -0.62981516
-2.4359498 -0.46026692 -0.63706636
-2.428251 -0.44339573 -0.63431591
-2.4252052 -0.42747799 -0.63281566
-2.4306459 -0.41307658 -0.63356578
-2.415936 -0.3953357 -0.62906504
-2.4230983 -0.38125807 -0.63031524
-2.4359229 -0.36797664 -0.6330657
-2.4371767 -0.35288414 -0.63281566
-2.4613538 -0.34098482 -0.63856661
-2.4538014 -0.32460356 -0.6360662
-2.453826 -0.30929855 -0.63556612
-2.4614453 -0.29492894 -0.63706636
-2.4381962 -0.27697235 -0.63056529
-2.4514019 -0.26325023 -0.63356578
-2.4433382 -0.24722654 -0.63106537
-2.430351 -0.23085272 -0.62731469
-2.421113 -0.21499121 -0.62456423
-2.4368606 -0.20133109 -0.62831491
-2.4689429 -0.1887446 -0.63631624
-2.4565327 -0.17263815 -0.63281566
-2.4546471 -0.15737532 -0.63206553
-2.4671657 -0.14298613 -0.63506603
-2.4602613 -0.12744251 -0.6330657
-2.4629314 -0.11243304 -0.63356578
-2.4945338 -0.098549582 -0.64156711
-2.4970269 -0.083306618 -0.64206719
-2.4868445 -0.06769108 -0.63931674
-2.4785008 -0.052244943 -0.63706636
-2.4952331 -0.037286267 -0.64131707
-2.5021923 -0.022036504 -0.64306736
-2.4867885 -0.0066376394 -0.6390667
-2.4906554 0.0086335754 -0.64006686
-2.4711916 0.02373476 -0.63506603
-2.4768083 0.038987212 -0.63656628
-2.5065308 0.054832779 -0.64431757
-2.5071149 0.070238397 -0.64456761
-2.5124428 0.0858173 -0.64606786
-2.4983244 0.10068929 -0.64256728
-2.4744468 0.11494447 -0.63656628
-2.4843309 0.13068199 -0.63931674
-2.449652 0.14394395 -0.63056529
-2.4670806 0.1601591 -0.63531607
-2.5075817 0.17823519 -0.64606786
-2.4842372 0.19190849 -0.6403169
-2.5052056 0.20899366 -0.64606786
-2.4816949 0.22237945 -0.6403169
-2.4696815 0.2365897 -0.63756645
-2.4797425 0.25291491 -0.64056695
-2.4896955 0.26937246 -0.64356744
-2.483186 0.28409481 -0.64231724
-2.5188866 0.30383879 -0.65206885
-2.5073693 0.31807259 -0.64956844
-2.512089 0.33434406 -0.65131873
-2.5320473 0.3528195 -0.65706974
-2.5422909 0.37015975 -0.66032028
-2.5361426 0.38517138 -0.65932012
-2.5509465 0.4034439 -0.66382086
-2.5140271 0.41344085 -0.65481937
-2.5381677 0.43341565 -0.66182053
-2.5259261 0.44729546 -0.65932012
-2.5345628 0.46487913 -0.66232061
-2.5364192 0.48132354 -0.66357082
-2.501112 0.49054971 -0.65506941
-2.5379138 0.51394862 -0.66557115
-2.5233386 0.52713817 -0.66257066
-2.4982851 0.53792894 -0.6568197
-2.5128984 0.55722618 -0.66157049
-2.5160403 0.57414079 -0.66332078
-2.5228395 0.59199876 -0.66607124
-2.5031574 0.60361278 -0.66182053
-2.5247838 0.62523842 -0.66857165
-2.5058846 0.63690597 -0.66457099
-2.4850638 0.64787722 -0.66007024
-2.4988155 0.66785884 -0.66482103
-2.5058775 0.68624485 -0.66782153
-2.5034845 0.7021302 -0.66832161
-2.5093668 0.72041452 -0.67107207
-2.5067573 0.7363435 -0.67157215
-2.491991 0.74864888 -0.66882169
-2.5030863 0.76875401 -0.6730724
-2.4789207 0.77801424 -0.66782153
-2.4759445 0.79380077 -0.66832161
-2.4645855 0.80687064 -0.66657132
-2.4632618 0.82320464 -0.66757149
-2.4563315 0.83767879 -0.6670714
-2.4593763 0.85559607 -0.66932178
-2.4604681 0.87293506 -0.67107207
-2.4550655 0.88801575 -0.67107207
-2.4404852 0.89971608 -0.66857165
-2.4539547 0.92181921 -0.67382252
-2.442826 0.93478417 -0.67232227
-2.4559913 0.95713401 -0.67757314
-2.4680731 0.97932357 -0.68257403
-2.4647114 0.99553621 -0.68332416
-2.4442267 1.0047541 -0.67932343
-2.446949 1.0234667 -0.68182391
-2.4174564 1.0286108 -0.67532277
-2.414654 1.044962 -0.67632294
-2.4064243 1.0589789 -0.67582285
-2.3875065 1.0681915 -0.67232227
-2.3870776 1.0856252 -0.67407256
-2.3663075 1.0937552 -0.6700719
-2.3674402 1.1119567 -0.67232227
-2.3797994 1.1356313 -0.67782319
-2.3823717 1.1548557 -0.68057364
-2.4091222 1.1861235 -0.69032532
-2.3732171 1.1866008 -0.68207395
-2.374526 1.2055213 -0.68457437
-2.3412619 1.2067666 -0.67707306
-2.3509734 1.230083 -0.68207395
-2.3254216 1.2349527 -0.67682302
-2.3357015 1.2588404 -0.68207395
-2.3100917 1.2633963 -0.67682302
-2.3175375 1.2859995 -0.68132377
-2.2910385 1.2897505 -0.67582285
-2.2990589 1.3129026 -0.68057364
-2.2993393 1.3318356 -0.68307412
-2.2978039 1.3498409 -0.68507445
-2.2811587 1.3589611 -0.68257403
-2.276093 1.3749342 -0.6835742
-2.2643104 1.386852 -0.68257403
-2.2565811 1.4012302 -0.68282408
-2.2503991 1.4165968 -0.6835742
-2.249012 1.4350638 -0.68582457
-2.2596796 1.4614515 -0.69182557
-2.2530994 1.476881 -0.69257569
-2.248028 1.4933559 -0.6938259
-2.2243629 1.4973922 -0.68932515
-2.2311332 1.5219209 -0.69432598
-2.2105999 1.5278778 -0.6908254
-2.2162549 1.5519618 -0.69557619
-2.2438121 1.591854 -0.70732814
-2.2135568 1.5909047 -0.70082706
-2.1920102 1.5959111 -0.69707644
-2.1697066 1.6001391 -0.69307578
-2.1761401 1.6255867 -0.69832665
-2.184659 1.6529251 -0.70432764
-2.1544905 1.6509914 -0.69782656
-2.1267238 1.6505306 -0.69207561
-2.120363 1.6665395 -0.69332582
-2.1237361 1.6903688 -0.69782656
-2.0907047 1.6851448 -0.69032532
-2.1028328 1.7163031 -0.69782656
-2.1042058 1.7390397 -0.70182723
-2.0994372 1.7568879 -0.70382756
-2.0908341 1.771614 -0.70457768
-2.0799243 1.7844098 -0.70457768
-2.0689361 1.7971382 -0.70457768
-2.0571432 1.80916 -0.70432764
-2.0308149 1.8082305 -0.69907677
-2.0369449 1.8362124 -0.70507777
-2.0463841 1.8675996 -0.71232903
-2.0427105 1.8873469 -0.71507949
-2.032506 1.9011676 -0.71557957
-1.9814239 1.8763304 -0.70157719
-1.9880501 1.90587 -0.70807827
-1.9721485 1.9139875 -0.70657802
-1.9403337 1.9063783 -0.69932681
-1.9409595 1.9305357 -0.70382756
-1.9345368 1.9479034 -0.70582789
-1.9388255 1.9763212 -0.71182895
-1.9232928 1.9847047 -0.71057874
-1.9110786 1.9964684 -0.71057874
-1.9041156 2.0137842 -0.71257907
-1.9075886 2.0424082 -0.71858007
-1.9048712 2.0647471 -0.72233069
-1.9006464 2.0856981 -0.72558123
-1.865136 2.0721383 -0.71682978
-1.8626823 2.095119 -0.72083044
-1.8696021 2.1290581 -0.72858173
-1.83937 2.1207445 -0.72183061
-1.8439646 2.1525757 -0.72883177
-1.823841 2.1557202 -0.72608131
-1.8080953 2.1638992 -0.72508115
-1.8021811 2.1839125 -0.72808164
-1.7997597 2.208437 -0.73258239
-1.7910329 2.225472 -0.73458272
-1.7719209 2.2295988 -0.73233235
-1.7570111 2.2389059 -0.73183227
-1.747393 2.2550011 -0.73358256
-1.7211646 2.2495348 -0.72833169
-1.7400221 2.3033097 -0.74233407
-1.720645 2.3069589 -0.74008369
-1.7156459 2.3299458 -0.74408436
-1.691636 2.3271172 -0.73983365
-1.6733726 2.3319473 -0.73808336
-1.6663103 2.3524408 -0.7413339
-1.6679388 2.3856294 -0.7485851
-1.6554698 2.3990059 -0.74958527
-1.6292696 2.3923154 -0.7443344
-1.6237447 2.4159267 -0.7485851
-1.6137083 2.4331052 -0.75083548
-1.5976878 2.4413409 -0.7503354
-1.585305 2.4551644 -0.7515856
-1.5696901 2.4640291 -0.75133556
-1.5499032 2.4662371 -0.74908519
-1.5444379 2.4913344 -0.75383598
-1.5190167 2.4842451 -0.74883515
-1.5167502 2.5150735 -0.75533623
-1.4943581 2.5126836 -0.75183564
-1.4872421 2.5360024 -0.75608635
-1.4832901 2.5651944 -0.76208735
-1.4871901 2.6087303 -0.77233911
-1.4498013 2.5798273 -0.76108718
-1.4522489 2.6217027 -0.77083886
-1.4305655 2.6203673 -0.76783836
-1.4080354 2.6171598 -0.76433778
-1.3983018 2.6377254 -0.76783836
-1.3758128 2.6342416 -0.76433778
-1.3777926 2.6779296 -0.77458948
-1.370968 2.7053318 -0.78009039
-1.3616959 2.7284191 -0.7843411
-1.3376662 2.721952 -0.78009039
-1.2977357 2.6821766 -0.76633811
-1.3024967 2.7346659 -0.77909023
-1.2745913 2.7189381 -0.77233911
-1.2562611 2.7231915 -0.77133894
-1.2319212 2.7140985 -0.76658815
-1.2393368 2.7755313 -0.78184068
-1.2179985 2.7733328 -0.77909023
-1.2055676 2.7914197 -0.78209072
-1.2039404 2.8353012 -0.79234248
-1.1693561 2.8015366 -0.78084052
-1.165012 2.840009 -0.78959203
-1.1374239 2.8219612 -0.78259081
-1.1268634 2.8459902 -0.78734159
-1.1093794 2.8528509 -0.78734159
-1.0873616 2.847846 -0.78409106
-1.072587 2.861717 -0.78609139
-1.0623652 2.8882346 -0.79159236
-1.0462676 2.8992522 -0.79284257
-1.0346003 2.9229581 -0.79759336
-1.0226814 2.9466298 -0.80234414
-0.99990141 2.9391005 -0.79859352
-0.97204357 2.9157894 -0.79059219
-0.95834512 2.9345834 -0.79409277
-0.94504255 2.9551632 -0.79809344
-0.9257344 2.9572103 -0.79709327
-0.9112609 2.9748693 -0.80034381
-0.8971616 2.9943163 -0.80409443
-0.87768233 2.9960482 -0.80309427
-0.85074854 2.9715919 -0.79509294
-0.83876246 2.9991341 -0.80109394
-0.81728142 2.9930162 -0.79809344
-0.80239427 3.0110719 -0.80159402
-0.78877878 3.0346797 -0.80659485
-0.77894974 3.074188 -0.81584638
-0.74962121 3.0366111 -0.80459452
-0.73844844 3.0722189 -0.81284589
-0.72223204 3.0880051 -0.81584638
-0.69940257 3.0753849 -0.81134564
-0.68010098 3.0777278 -0.81084555
-0.66770917 3.1121356 -0.81884694
-0.64603359 3.1038516 -0.81559634
-0.6329183 3.1371784 -0.82334769
-0.61421454 3.1438537 -0.82409781
-0.59545261 3.1504173 -0.82484794
-0.58116168 3.1816323 -0.83209914
-0.54950958 3.116487 -0.81409609
-0.53102672 3.1236181 -0.81509626
-0.51044112 3.1182182 -0.81284589
-0.49265513 3.1298993 -0.81509626
-0.4803949 3.1788154 -0.82709831
-0.45851812 3.1654139 -0.8228476
-0.43722335 3.1547408 -0.81934702
-0.41531351 3.1381676 -0.81434613
-0.39871955 3.1617901 -0.81984711
-0.38058144 3.1747518 -0.82259756
-0.36339459 3.1972294 -0.82784843
-0.34169734 3.1801457 -0.8228476
-0.32510948 3.211081 -0.83034885
-0.30530873 3.2120516 -0.83009881
-0.28490707 3.2061491 -0.82809848
-0.26602888 3.2174861 -0.83059889
-0.24702226 3.2287118 -0.83309931
-0.22489034 3.1973286 -0.8245979
-0.20464569 3.1889858 -0.82209748
-0.18507458 3.1901815 -0.82209748
-0.16710727 3.2221987 -0.83009881
-0.14644505 3.203819 -0.82509798
-0.12713021 3.2133646 -0.82734835
-0.10669535 3.192795 -0.82184744
-0.087474994 3.2069397 -0.82534802
-0.067878537 3.211288 -0.82634819
-0.047908351 3.1942179 -0.82184744
-0.028299326 3.1934836 -0.8215974
-0.008746407 3.2081206 -0.82534802
0.010894869 3.1945586 -0.82184744
0.030324131 3.1760359 -0.81709665
0.049781367 3.1738539 -0.81659657
0.069108307 3.1667128 -0.81484622
0.088645078 3.1701005 -0.81584638
0.10822602 3.1733675 -0.81684661
0.12699796 3.1552293 -0.8123458
0.14456843 3.1157026 -0.80234414
0.16474622 3.135062 -0.80759501
0.18109559 3.0846965 -0.7948429
0.20114411 3.100919 -0.79934365
0.21927793 3.0870709 -0.79609311
0.23881038 3.0933905 -0.79809344
0.25866932 3.1024809 -0.80084389
0.27640834 3.0863693 -0.79709327
0.29543284 3.0855792 -0.79734331
0.31445804 3.0846715 -0.79759336
0.33088556 3.0595806 -0.79159236
0.34866422 3.0488348 -0.78934199
0.36435643 3.0216444 -0.78284085
0.38422775 3.029918 -0.7855913
0.40332174 3.0313425 -0.78659147
0.42498201 3.050868 -0.79234248
0.44118693 3.030956 -0.78784168
0.46079224 3.0348928 -0.78959203
0.47532788 3.0061858 -0.78284085
0.49596089 3.0165889 -0.78634143
0.51201987 2.999172 -0.78259081
0.52636653 2.9730911 -0.77658981
0.54547137 2.9745677 -0.77784002
0.55704224 2.9359665 -0.76858848
0.56741571 2.8935359 -0.75833672
0.57882535 2.8586822 -0.75008535
0.58884001 2.8190594 -0.74058378
0.61284435 2.8466308 -0.74883515
0.6290431 2.8371449 -0.7473349
0.64450306 2.8247356 -0.74508452
0.66403288 2.8301547 -0.74758494
0.67276961 2.7902572 -0.73808336
0.68499482 2.7663388 -0.73283243
0.69385439 2.730176 -0.72433102
0.70302838 2.696821 -0.71657974
0.71057057 2.6587799 -0.70757818
0.72176093 2.6356914 -0.70257735
0.73661345 2.6265516 -0.70132715
0.75351667 2.6247745 -0.70207727
0.7704258 2.6228888 -0.70282739
0.78511328 2.6134753 -0.70157719
0.79658985 2.5937984 -0.69757652
0.80582672 2.5676129 -0.69182557
0.81447709 2.5404902 -0.68582457
0.83004987 2.5354447 -0.68582457
0.84497815 2.5284672 -0.68532449
0.8623504 2.528734 -0.68682474
0.87530684 2.5160785 -0.68482441
0.89558154 2.5243492 -0.68857503
0.92026907 2.5443027 -0.69557619
0.93987966 2.5495107 -0.69857669
0.9629913 2.5636382 -0.7040776
0.98043245 2.5622029 -0.70532781
0.99578398 2.5552368 -0.70507777
1.0107301 2.5472784 -0.70457768
1.0187304 2.5221739 -0.69932681
1.0319794 2.5105021 -0.69782656
1.0503514 2.5112693 -0.6998269
1.0740757 2.5243797 -0.70532781
1.0914664 2.5221853 -0.70657802
1.1073115 2.5163271 -0.70682806
1.1258923 2.5165565 -0.70882845
1.138508 2.5034306 -0.7070781
1.1664342 2.5236464 -0.71482944
1.1814855 2.5155654 -0.7145794
1.1981488 2.5108902 -0.71532953
1.2126886 2.5017488 -0.71482944
1.2301536 2.4986045 -0.71607965
1.2575799 2.5152607 -0.72308081
1.2690467 2.4997261 -0.72083044
1.2883513 2.4996388 -0.72308081
1.3014213 2.4873965 -0.72183061
1.3221062 2.4896274 -0.7248311
1.3410307 2.4882874 -0.72683144
1.3632392 2.4927564 -0.73058206
1.3597251 2.4504752 -0.7205804
1.3908777 2.4707766 -0.72908181
1.4026524 2.4563093 -0.72733152
1.4181827 2.4484944 -0.72758156
1.4410233 2.4531062 -0.73158222
1.4595157 2.4500415 -0.73333251
1.476523 2.4443555 -0.73433268
1.49301 2.437727 -0.73508281
1.5247885 2.4556684 -0.74333423
1.540343 2.4470859 -0.74358428
1.5600146 2.4449356 -0.74583465
1.5734103 2.432878 -0.74508452
1.5920228 2.4288473 -0.74683481
1.6090382 2.4222596 -0.74783498
1.6298162 2.4211776 -0.75058544
1.6277333 2.386332 -0.74283415
1.6500496 2.3874524 -0.74633473
1.6713301 2.3868017 -0.74933523
1.6926644 2.3859794 -0.75233573
1.7276089 2.4038579 -0.76133722
1.7394776 2.3892977 -0.76008701
1.7587013 2.3848145 -0.76208735
1.7553437 2.3499274 -0.75433606
1.7755697 2.3468354 -0.75683647
1.8070099 2.3581879 -0.76408774
1.8339081 2.363122 -0.76933861
1.8501678 2.3541088 -0.77008873
1.8742223 2.3548355 -0.7740894
1.8777021 2.3297193 -0.76958865
1.9207281 2.3534157 -0.7813406
1.9351321 2.3415861 -0.7813406
1.9625089 2.3452647 -0.78659147
1.993132 2.3523889 -0.79309261
2.0081587 2.3408499 -0.79334265
2.0250232 2.3314085 -0.79434282
2.0284231 2.3065767 -0.79009211
2.041894 2.293364 -0.78984207
2.0591679 2.2843885 -0.79109228
2.0881541 2.2881632 -0.79684323
2.1231759 2.298069 -0.80484456
2.1048348 2.2503424 -0.79259253
2.1166062 2.2352755 -0.7918424
2.1584172 2.2516081 -0.80234414
2.1843271 2.2508311 -0.80684489
2.2116649 2.2512026 -0.81184572
2.2199755 2.2320964 -0.80984539
2.2089031 2.1938651 -0.80084389
2.231997 2.1897652 -0.80434448
2.2321832 2.1632233 -0.79959369
2.2594001 2.1628799 -0.80459452
2.2852898 2.1609526 -0.80909526
2.312655 2.1601107 -0.81409609
2.3201737 2.1406264 -0.81209576
2.3053598 2.100909 -0.80234414
2.3412313 2.1074576 -0.81034547
2.3468838 2.0866175 -0.80784506
2.3538237 2.0670657 -0.80584472
2.3957148 2.0779667 -0.81584638
2.377542 2.0367649 -0.80534464
2.4106877 2.0396533 -0.8123458
2.4112716 2.0148873 -0.80834514
2.4258292 2.0019035 -0.80909526
2.4320638 1.9820864 -0.80709493
2.4554923 1.9762344 -0.81084555
2.4418042 1.9406431 -0.80234414
2.4536657 1.9256238 -0.80234414
2.4937479 1.9324819 -0.81159568
2.4863374 1.9024309 -0.80534464
2.4539349 1.8538629 -0.79109228
2.4489677 1.8266107 -0.78584135
2.4523339 1.8058071 -0.78334093
2.4688494 1.7947121 -0.78509122
2.4923997 1.7885646 -0.78909189
2.507277 1.7760369 -0.79034215
2.5189209 1.761174 -0.79059219
2.5145407 1.7352333 -0.78584135
2.5203397 1.7165006 -0.7843411
2.5308244 1.7010038 -0.7843411
2.5274987 1.6763422 -0.78009039
2.5296364 1.6554985 -0.77758998
2.573905 1.6620123 -0.78809172
2.5440459 1.6206886 -0.77583969
2.5572212 1.6071094 -0.77683985
2.581845 1.6005746 -0.7813406
2.5759244 1.5751023 -0.77658981
2.5996339 1.5677704 -0.78084052
2.6083724 1.5512948 -0.78059047
2.633709 1.5445706 -0.78534126
2.6557081 1.5356542 -0.78909189
2.6692858 1.5217286 -0.79034215
2.6676011 1.4991527 -0.78709155
2.6919932 1.4912045 -0.79159236
2.6891961 1.4681607 -0.78809172
2.6879232 1.4461255 -0.78509122
2.6779275 1.4196247 -0.77959031
2.6805809 1.4000275 -0.77784002
2.70806 1.3933027 -0.78334093
2.7277846 1.3823522 -0.78659147
2.7110941 1.3530449 -0.77934027
2.7080498 1.3308305 -0.77608973
2.7344658 1.3230488 -0.7813406
2.7486508 1.3091612 -0.78309089
2.7820532 1.3041948 -0.79034215
2.7776959 1.281419 -0.78684151
2.7907958 1.2667536 -0.78834176
2.7578509 1.2314378 -0.77683985
2.7759922 1.219167 -0.77984035
2.7709773 1.1967338 -0.77633977
2.7853973 1.1827378 -0.7783401
2.8194053 1.176819 -0.78584135
2.8185117 1.1561884 -0.78359097
2.8219612 1.1374239 -0.78259081
1.3661232 0.54055971 -0.3762725
1.3621956 0.52935833 -0.37427217
1.3618001 0.51960784 -0.373272
1.3631495 0.51056224 -0.37277192
1.3662567 0.50218844 -0.37277192
1.3729551 0.49511123 -0.37377208
1.3695784 0.48441479 -0.37202179
1.3734396 0.47631979 -0.37227184
1.383669 0.47037983 -0.37427217
1.3892846 0.46280012 -0.37502229
1.3994608 0.45667306 -0.37702262
1.4123803 0.45132372 -0.37977311
1.4271345 0.44641182 -0.38302365
1.4409554 0.44105193 -0.38602415
1.4454894 0.43275827 -0.38652423
1.4722749 0.43096289 -0.39302534
1.4786147 0.42298782 -0.3940255
1.4653314 0.40947083 -0.38977477
1.4622124 0.39894053 -0.38827452
1.4608905 0.38896304 -0.38727435
1.4576274 0.37852928 -0.38577411
1.4533529 0.36791226 -0.38402382
1.4527631 0.358291 -0.38327369
1.4577583 0.3500497 -0.38402382
1.458936 0.3408778 -0.38377377
1.4666646 0.33320892 -0.38527402
1.4696269 0.32441247 -0.38552406
1.476323 0.31640539 -0.38677427
1.5104647 0.3140555 -0.39527571
2.9834285 0.60186797 -0.78284085
3.0868397 0.603064 -0.80909526
3.0628927 0.57889193 -0.80184406
3.0559101 0.55817163 -0.7990936
3.0497427 0.53772724 -0.79659319
3.042485 0.51721716 -0.79384273
3.0456014 0.49853906 -0.79384273
3.0246921 0.47607368 -0.78759164
3.0543618 0.46156192 -0.79459286
3.0753424 0.44545287 -0.79934365
3.0607548 0.42417857 -0.7948429
3.075778 0.40704402 -0.79809344
3.0282664 0.38185453 -0.78509122
3.0440109 0.36488232 -0.7885918
3.0615847 0.34795031 -0.79259253
3.0549982 0.32822558 -0.79034215
3.0193861 0.3056632 -0.78059047
3.0414462 0.28905877 -0.78584135
3.0605221 0.27193743 -0.79034215
3.076607 0.2543529 -0.79409277
3.0636287 0.23435964 -0.79034215
3.0708041 0.2159659 -0.7918424
3.07497 0.19730633 -0.79259253
3.097388 0.17967285 -0.79809344
3.0906968 0.16026157 -0.79609311
3.0606711 0.13987353 -0.78809172
3.0953331 0.1224373 -0.79684323
3.0795753 0.10288939 -0.79259253
3.0830524 0.084071308 -0.79334265
3.0080049 0.063541614 -0.77383935
3.015115 0.045186628 -0.77558964
3.0463178 0.026966065 -0.78359097
2.8080299 0.005483198 -0.77326328
2.8003004 -0.011713641 -0.77113074
2.7876468 -0.028765215 -0.76766539
2.7556162 -0.045342885 -0.75886869
2.7620311 -0.062403236 -0.76073468
2.7779744 -0.079821795 -0.7652663
2.776469 -0.096831933 -0.76499969
2.7873785 -0.11434139 -0.76819849
2.7827735 -0.13126025 -0.76713222
2.7703664 -0.14771558 -0.76393348
2.7636352 -0.16436756 -0.76233405
2.7596896 -0.18113214 -0.76153433
2.7575645 -0.19799276 -0.76126778
2.7245884 -0.21243355 -0.75247115
2.7174714 -0.22866184 -0.75087172
2.7150571 -0.24524483 -0.75060517
2.7087045 -0.26143602 -0.74927235
2.7099257 -0.2783471 -0.75007206
2.7187064 -0.29611871 -0.75300425
2.7149231 -0.31257412 -0.75247115
2.712954 -0.3292267 -0.75247115
2.7194874 -0.34696555 -0.75487024
2.7001121 -0.36134258 -0.75007206
2.7140706 -0.38017794 -0.75460368
2.7097793 -0.39654469 -0.75407052
2.6863341 -0.40996307 -0.74820608
2.6942387 -0.42810318 -0.75113833
2.671592 -0.44132584 -0.74554044
2.6745331 -0.4586882 -0.74713981
2.666924 -0.474246 -0.74580699
2.6800773 -0.49357021 -0.75033861
2.6836257 -0.51126885 -0.7522046
2.6955686 -0.53070611 -0.75646961
2.7205961 -0.55299813 -0.76446658
2.721868 -0.57067031 -0.7657994
2.6853433 -0.5802328 -0.75646961
2.6742063 -0.59502339 -0.75433707
2.6385624 -0.6041041 -0.74527389
2.6460636 -0.6229341 -0.74847263
2.6534328 -0.6418789 -0.75167143
2.6326079 -0.6539638 -0.74687326
2.6238761 -0.6689139 -0.74554044
2.6467633 -0.69207466 -0.7532708
2.6126771 -0.70031363 -0.74474072
2.612978 -0.71760821 -0.74607354
2.5621357 -0.72057581 -0.73274529
2.5678542 -0.73921722 -0.73567748
2.5891566 -0.76258659 -0.74314135
2.5576665 -0.77039498 -0.73541093
2.558418 -0.78777635 -0.73701036
2.5553749 -0.80403847 -0.73754346
2.5302069 -0.81321263 -0.73167902
2.5361583 -0.83232993 -0.73487782
2.5163815 -0.84297591 -0.73061275
1.5353518 -0.52472192 -0.4453876
1.524823 -0.53159332 -0.44325507
1.5224404 -0.54126245 -0.44352165
1.5218089 -0.55157954 -0.44432133
1.52382 -0.56291157 -0.44592074
1.5194354 -0.57191128 -0.44565418
1.5167975 -0.58156884 -0.44592074
1.5203825 -0.59367055 -0.44805327
1.5238758 -0.60583806 -0.45018578
1.5299567 -0.61915576 -0.453118
1.5296935 -0.63000047 -0.45418426
1.5293546 -0.64086521 -0.45525053
1.5262799 -0.65061522 -0.45551708
1.5196065 -0.65881741 -0.4547174
1.4802613 -0.65257144 -0.44405478
2.3732686 -1.0638762 -0.71595168
2.3877444 -1.0880119 -0.72234923
2.3731527 -1.0989964 -0.71995014
2.3445637 -1.1032753 -0.71328598
2.1551535 -1.0303202 -0.65730721
1.5930824 -0.77357459 -0.48643869
1.4958215 -0.73770487 -0.4579162
1.5007457 -0.75161833 -0.46084842
1.4815018 -0.75338316 -0.4563168
1.4708568 -0.75936329 -0.45445085
1.463609 -0.76703143 -0.45365113
1.4520682 -0.7723754 -0.45151863
1.4439094 -0.77943867 -0.45045236
1.4399449 -0.78874683 -0.45071891
1.4342357 -0.79709899 -0.45045236
1.4267994 -0.8044638 -0.44965264
1.4126343 -0.80793816 -0.44672042
1.3618017 -0.78998315 -0.43205932
1.3702189 -0.80614626 -0.43632439
2.1903744 -1.3070236 -0.70209026
2.207875 -1.335909 -0.71035379
2.2119589 -1.3569925 -0.71435225
2.2265053 -1.3847945 -0.72181612
2.2220428 -1.4010006 -0.72314894
2.2255855 -1.4223952 -0.7271474
2.2151983 -1.4349763 -0.7266143
2.2200475 -1.4575353 -0.73114592
2.2110624 -1.4711298 -0.73114592
2.2051904 -1.4868245 -0.73221213
2.1832938 -1.4916267 -0.72794712
2.1828167 -1.5110302 -0.73087931
2.141943 -1.502255 -0.72021669
2.1256144 -1.5103441 -0.7178176
2.067812 -1.4884429 -0.70129055
2.0002372 -1.4585072 -0.68129814
1.9873743 -1.4678894 -0.67996532
1.9598098 -1.4661971 -0.67356771
1.9446315 -1.4735373 -0.67143518
1.9286726 -1.4801596 -0.66903609
1.9111841 -1.4854587 -0.6661039
1.9005189 -1.4959651 -0.66557074
1.887536 -1.504594 -0.66423792
1.8715193 -1.5106982 -0.66183883
1.8637069 -1.5233734 -0.66237199
1.846158 -1.5280193 -0.65943974
1.8433954 -1.5448909 -0.66183883
1.8294724 -1.5524305 -0.66023946
1.8147956 -1.5592295 -0.65837348
1.8008316 -1.5665395 -0.6567741
1.7817838 -1.5692773 -0.65330875
1.7606127 -1.569916 -0.64904368
1.743078 -1.5735842 -0.64611149
1.722008 -1.5738449 -0.64184642
1.7144407 -1.5863453 -0.64264613
1.6941248 -1.5869502 -0.63864762
1.6808593 -1.5939988 -0.6373148
1.6682663 -1.601612 -0.63624853
1.6632451 -1.616521 -0.63811451
1.6512343 -1.6246679 -0.6373148
1.6248475 -1.6184429 -0.63091725
1.6081004 -1.621538 -0.62825155
1.6062131 -1.6396376 -0.63145036
1.5793686 -1.6321445 -0.62478626
1.5699902 -1.6425014 -0.62505281
1.5585592 -1.650702 -0.62451965
1.5411712 -1.6524799 -0.62158746
1.5355735 -1.6668679 -0.62345338
1.5369912 -1.6890914 -0.62825155
1.5169353 -1.6877369 -0.62425309
1.5078306 -1.6984546 -0.62478626
1.49611 -1.706225 -0.62425309
1.4994923 -1.731403 -0.63011754
1.4675424 -1.7156661 -0.62105429
1.4688038 -1.7386287 -0.62611908
1.444526 -1.7313255 -0.62025464
1.4301986 -1.7356929 -0.6186552
1.4231712 -1.7489216 -0.62025464
1.4045658 -1.7478533 -0.61678928
1.3848294 -1.7451129 -0.61279076
1.3883605 -1.7717865 -0.61918837
1.369207 -1.769599 -0.61545646
1.3653436 -1.7871584 -0.6186552
1.3439063 -1.7816508 -0.61385703
1.3381293 -1.796821 -0.61625612
1.3476287 -1.8329552 -0.62585247
1.3505077 -1.8606917 -0.63251662
1.3261566 -1.8509219 -0.62638563
1.3069844 -1.8480065 -0.62265372
1.311617 -1.878912 -0.63038409
1.2891288 -1.8710496 -0.62505281
1.2787076 -1.8805187 -0.62558591
1.2692927 -1.8915308 -0.62665218
1.2480861 -1.8848174 -0.62185401
1.233335 -1.8875985 -0.62025464
1.2185969 -1.8902696 -0.6186552
1.1976669 -1.8830714 -0.61385703
1.1789199 -1.8789538 -0.61012512
1.1729472 -1.8951679 -0.61305732
1.1678237 -1.9130245 -0.61652267
1.1476139 -1.906116 -0.61199111
1.1629543 -1.9587061 -0.62665218
1.2380623 -2.1146991 -0.67436743
1.2583041 -2.1798558 -0.69276047
1.2511011 -2.198426 -0.69622582
1.220144 -2.1749578 -0.68636286
1.2184333 -2.2034914 -0.69302702
1.2030455 -2.2075405 -0.69196075
1.1867422 -2.2097857 -0.69036138
1.1722593 -2.215322 -0.68982822
1.1564171 -2.2181997 -0.6884954
1.1419042 -2.2235386 -0.68796229
1.1256298 -2.2253428 -0.68636286
1.1128135 -2.2339332 -0.68689603
1.0990853 -2.2407191 -0.68689603
1.0777733 -2.2317977 -0.68209785
1.090122 -2.293211 -0.69889146
1.0552047 -2.255332 -0.6852966
1.0542419 -2.2897809 -0.69382674
1.0417627 -2.2997184 -0.69489294
