# .PCD v0.7 - Point Cloud Data file format
VERSION 0.7
FIELDS x y z
SIZE 4 4 4
TYPE F F F
COUNT 1 1 1
WIDTH 1542
HEIGHT 1
VIEWPOINT 0 0 0 1 0 0 0
POINTS 1542
DATA ascii
12.677429 -1.5427626 1.895436
12.029973 -1.5389715 1.7999209
11.84874 -1.5897484 1.7742053
11.338216 -1.5921628 1.6991158
11.30866 -1.6588329 1.6961769
11.463514 -1.7534561 1.7210108
13.667048 -2.1762762 2.0541379
11.608983 -1.9217752 1.7462856
11.626218 -1.9979944 1.7506939
12.85341 -2.2900991 1.9377565
11.711717 -2.16097 1.7674458
11.387319 -2.1734664 1.720423
11.809505 -2.329212 1.7864019
11.945228 -2.4322112 1.8091786
11.625147 -2.4414387 1.7628905
11.801369 -2.5541406 1.7919859
11.756511 -2.6200511 1.7875775
11.557992 -2.6503644 1.7598046
10.925346 -2.5759926 1.665759
10.893952 -2.6392553 1.6634078
11.276873 -2.8053637 1.7245375
12.497725 -3.1905544 1.9143921
12.521764 -3.4433939 1.9274703
12.65274 -3.5630522 1.9509817
12.40728 -3.5762532 1.9164493
11.113756 -3.2774746 1.7195413
11.113325 -3.3516023 1.7226272
11.807169 -3.6399925 1.8337185
12.462013 -3.9257238 1.939226
10.434875 -3.35778 1.6266713
10.64911 -3.717483 1.673841
10.58967 -3.8431606 1.6717838
11.453525 -4.3968353 1.8207873
9.9576511 -3.9635639 1.5903755
11.754783 -4.7625208 1.8823578
10.099389 -4.1642537 1.6210873
9.7662525 -4.0972071 1.5715665
9.753665 -4.1624889 1.5736237
9.7134228 -4.2159576 1.5712725
9.8783169 -4.3597369 1.6022782
9.9515562 -4.4652081 1.6185893
9.9275713 -4.5278273 1.619177
11.302177 -5.3231568 1.8541441
11.390654 -5.4504638 1.8741288
11.356106 -5.5198207 1.8739818
9.3352003 -4.6086874 1.5448222
9.7090893 -4.8675599 1.6116828
9.6578836 -4.9162736 1.6081561
11.610909 -6.0002737 1.9398139
10.14255 -5.3206592 1.6997036
9.8591251 -5.2493896 1.65753
9.8806858 -5.3389359 1.6666406
9.8234549 -5.3861485 1.6625261
9.7176094 -5.4059343 1.6501827
11.297766 -6.3759346 1.925413
11.2198 -6.4230247 1.9188005
11.088647 -6.4386063 1.9030772
10.049962 -5.9183202 1.7308562
10.678435 -6.3769336 1.8459151
9.2617722 -5.7649188 1.6188831
9.6462965 -6.2534652 1.7060223
9.7640715 -6.5881782 1.7480489
8.7530785 -6.0637379 1.5800893
9.7043037 -6.8111067 1.7595108
9.6510429 -6.8624992 1.7574534
9.593504 -6.910604 1.7546614
8.6072235 -6.2808042 1.581118
8.4118147 -6.2176819 1.5521696
9.1471443 -6.8483162 1.6957361
9.2097816 -6.9837971 1.7152799
9.1024265 -6.9907746 1.7032303
9.0781002 -7.0610685 1.7067571
8.2311172 -6.4838033 1.5548146
43.133224 -36.171131 8.3609247
43.196999 -36.678391 8.4167643
43.133144 -37.082035 8.4485054
39.015663 -35.243851 7.8089948
38.622765 -35.321712 7.773581
31.754087 -31.262869 6.6181421
32.511677 -32.403961 6.8174014
32.975819 -33.272362 6.9574413
31.513714 -32.189812 6.6904397
40.48904 -42.909695 8.7626762
31.53974 -33.839153 6.8703022
18.566183 -22.831001 4.3698645
18.306206 -22.795645 4.3415036
18.24712 -23.009842 4.3609004
37.399372 -48.367359 9.081109
37.548481 -49.180855 9.1904364
6.7096663 -10.416134 1.8388617
6.6939116 -10.533073 1.8522338
6.5739827 -10.485955 1.8368045
6.602653 -10.676678 1.8631078
6.3757772 -10.598404 1.8356289
6.3626137 -10.724945 1.8507644
6.7453637 -12.208516 2.070302
5.0241375 -11.47388 1.8589933
4.9876785 -11.583529 1.8717777
4.9030108 -11.582035 1.8666346
4.8113294 -11.562588 1.8586994
4.7436624 -11.600131 1.8600219
4.6812477 -11.651047 1.8635486
4.6212921 -11.708993 1.868251
23.889753 -76.597534 11.918054
3.5382605 -11.856634 1.8363637
22.143847 -75.886742 11.742012
21.556274 -75.595032 11.67618
20.969141 -75.284698 11.608144
20.478775 -75.308868 11.592274
19.944759 -75.163498 11.550835
18.779179 -74.44445 11.404036
18.233757 -74.19902 11.349077
17.711161 -74.029564 11.306316
17.182587 -73.818924 11.257824
16.61207 -73.4049 11.178914
16.136501 -73.392418 11.161721
15.595017 -73.064415 11.097065
15.11733 -73.01828 11.075757
14.614332 -72.837143 11.034466
14.182606 -73.005066 11.046515
13.801431 -73.447487 11.100445
13.471025 -74.194534 11.200662
13.082792 -74.659668 11.258558
12.772559 -75.615356 11.390663
12.546505 -77.156776 11.611083
12.088578 -77.33297 11.626218
10.441254 -69.590897 10.452265
9.9186125 -68.989838 10.352634
9.3774662 -68.193924 10.224351
8.8590822 -67.49012 10.110467
8.3625774 -66.885597 10.012013
7.8686929 -66.234337 9.907094
7.3783603 -65.537292 9.7958555
6.8848476 -64.723633 9.6677179
6.4373932 -64.263695 9.5929222
5.9889016 -63.72686 9.5071058
5.5350447 -63.048023 9.4005699
5.0918374 -62.391682 9.2978544
4.6570444 -61.734272 9.1954327
4.2639427 -61.556435 9.1648684
3.8738222 -61.385971 9.1357727
3.4546797 -60.663982 9.0249758
1.0262864 -20.213951 3.0050273
2.6478927 -59.311462 8.818222
0.64684045 -20.006977 2.9719644
0.51952994 -19.837526 2.9462488
0.4016726 -20.033186 2.9749033
0.28031629 -20.148024 2.9916551
0.1550241 -19.936705 2.9600618
0.032953531 -20.093565 2.9832792
-0.086808458 -19.302082 2.8657222
-0.58071399 -54.73035 8.1293373
-0.33151332 -19.768353 2.9353747
-0.45872957 -20.025036 2.9738748
-1.5628645 -53.843273 8.0004663
-2.2149966 -53.614475 7.9699011
-2.4826541 -52.308517 7.7778425
-2.8018723 -52.260689 7.77314
-1.3597194 -20.617565 3.0677733
-1.4867697 -20.616726 3.068949
-1.4780482 -18.879515 2.8114991
-1.8205423 -21.554968 3.2117808
-1.8971567 -20.929668 3.1202333
-4.8121572 -49.70467 7.4167953
-2.2871289 -20.937416 3.1271396
-2.1810219 -18.890928 2.8232548
-2.741919 -22.535776 3.3707767
-2.8177905 -22.030893 3.2977443
-2.9289875 -21.834763 3.2710001
-6.6605062 -47.447079 7.1159964
-3.0778899 -20.125677 3.0228078
-7.376914 -46.337646 6.9687562
-7.8098412 -45.456913 6.8501706
-3.7876871 -21.261353 3.2064908
-8.2748556 -44.857666 6.7746401
-8.5263968 -44.682652 6.7559781
-8.7407036 -44.326714 6.7101307
-8.9734573 -44.08033 6.6810355
-9.1579924 -43.615929 6.6190238
-9.3756571 -43.328823 6.5840507
-9.623703 -43.191311 6.572001
-9.801012 -42.749653 6.5138106
-10.03681 -42.57703 6.4967647
-10.215675 -42.175285 6.4448924
-10.442513 -41.984142 6.4253488
-10.654182 -41.740055 6.3978701
-10.83194 -41.37534 6.3520226
-11.027159 -41.090279 6.3185186
-11.237646 -40.871151 6.2953014
-11.439962 -40.630047 6.2688508
-11.619751 -40.318623 6.2316737
-11.842306 -40.163071 6.2187424
-12.017418 -39.853844 6.1821527
-12.221814 -39.649857 6.1620212
-12.409007 -39.396744 6.1343951
-12.608703 -39.189922 6.1141167
-12.768051 -38.865608 6.0756168
-12.969493 -38.676807 6.058424
-13.130034 -38.372826 6.023304
-13.30559 -38.120632 5.9964128
-13.51868 -37.980499 5.9873018
-13.700186 -37.755501 5.9649663
-13.874983 -37.517651 5.9407201
-14.043542 -37.268898 5.9148574
-14.220562 -37.048126 5.8935504
-14.395402 -36.826591 5.8722429
-14.544654 -36.545486 5.8415313
-14.707712 -36.305202 5.8174319
-14.889861 -36.116428 5.8017087
-15.051501 -35.882092 5.7787852
-15.228296 -35.688072 5.7624741
-15.396979 -35.478722 5.7438121
-15.546897 -35.230644 5.7189779
-15.662771 -34.911671 5.6826825
-15.85535 -34.768112 5.6750412
-16.038855 -34.606449 5.664608
-16.199059 -34.397316 5.6465335
-16.402128 -34.281212 5.6438885
-16.507101 -33.963741 5.6081805
-16.659584 -33.749168 5.5895185
-16.830448 -33.574688 5.5776157
-17.011913 -33.423183 5.5696807
-17.135397 -33.160873 5.5433774
-17.321545 -33.022697 5.53794
-17.611694 -33.080814 5.5657129
-18.054596 -33.416828 5.6408029
-18.517971 -33.77726 5.7207413
-18.968645 -34.101261 5.7952433
-19.441 -34.451141 5.8748879
-19.951275 -34.854008 5.9643784
-20.469696 -35.256165 6.0546036
-20.981747 -35.632797 6.1413016
-21.53924 -36.071545 6.2396088
-22.134148 -36.556385 6.3468795
-22.612122 -36.833786 6.4190302
-23.210873 -37.293957 6.5239496
-24.1122 -38.217461 6.7113061
-24.435774 -38.208786 6.7359934
-25.22768 -38.918873 6.8883767
-25.649031 -39.041946 6.9378972
-24.434263 -26.717493 5.3768873
-24.55809 -26.52424 5.3682175
-24.677763 -26.327589 5.3589597
-24.973629 -25.996378 5.3535228
-25.072676 -25.78096 5.3407383
-25.217899 -25.613945 5.3380933
-25.347357 -25.431404 5.3323622
-25.490278 -25.262865 5.3297172
-25.642689 -25.103909 5.3292766
-25.777754 -24.928215 5.3254561
-25.910198 -24.750446 5.3213415
-26.052223 -24.582174 5.3194313
-26.196056 -24.415787 5.3181086
-26.338823 -24.248562 5.3167863
-26.46516 -24.066528 5.3123779
-26.596144 -23.889145 5.309145
-26.733347 -23.717627 5.3073816
-26.865725 -23.542067 5.3048835
-6.4988952 -5.5546999 1.2682693
-6.5857615 -5.5593863 1.2785555
-6.6417804 -5.5372424 1.282817
-6.6695228 -5.4913549 1.2816415
-27.675667 -22.506058 5.2975364
-27.817097 -22.338915 5.2982707
-6.8438721 -5.4266639 1.2957482
-6.1384087 -4.7456741 1.1508592
-6.4197807 -4.9006019 1.198029
-6.8833637 -5.188004 1.2787025
-7.0153241 -5.0877213 1.285609
-7.0793834 -5.0681906 1.2916338
-7.0667291 -4.9938278 1.2836987
-7.008812 -4.8886852 1.2676816
-7.0313439 -4.8405395 1.266359
-6.834722 -4.5825548 1.2206588
-6.9072552 -4.5700083 1.2285938
-6.3000922 -4.0579481 1.1114776
-6.2525792 -3.8663726 1.0903174
-6.5317011 -3.8206537 1.1223516
-6.3888006 -3.6846187 1.0938441
-8.2005825 -4.6629319 1.3996392
-6.5776243 -3.6867189 1.1183841
-6.5711188 -3.5778122 1.1097143
-6.0055132 -3.2221689 1.0106726
-5.9464731 -3.1436448 0.99744737
-8.4096403 -4.3803253 1.4068396
-6.021564 -3.0894034 1.0036191
-6.1463404 -3.1059427 1.0212526
-6.4787507 -3.2242088 1.0732716
-6.0125713 -2.9462626 0.99289203
-6.1534729 -2.9686389 1.0131706
-6.187655 -2.9384654 1.0158156
-6.3310156 -2.9590921 1.0363882
-6.2268429 -2.8639657 1.0164034
-6.1893296 -2.8008232 1.0074397
-7.590734 -3.3792026 1.2325613
-7.940227 -3.4766028 1.2859029
-5.6493216 -2.4321196 0.9119246
-7.5232162 -3.1845319 1.2118419
-5.9216571 -2.463706 0.95101231
-7.5315156 -3.0796142 1.2069927
-7.6191058 -3.0610054 1.2180138
-7.4482126 -2.9393818 1.1877428
-6.9311938 -2.6862559 1.1025139
-7.7351718 -2.9434671 1.2277122
-8.5416107 -3.190556 1.3527634
-8.7746258 -3.2163997 1.386561
-8.7941961 -3.1624992 1.386561
-8.7938471 -3.1015689 1.3834752
-8.0601969 -2.7872601 1.2651834
-8.0630951 -2.7329869 1.2629793
-35.917789 -11.931648 5.6208181
-36.056168 -11.732463 5.631104
-8.7481928 -2.7868154 1.362168
-36.326794 -11.329463 5.6512361
-36.455231 -11.124542 5.6604934
-8.9439716 -2.6688855 1.3847977
-8.9345417 -2.6064746 1.3808302
-36.936333 -10.532199 5.7041364
-8.76194 -2.4398396 1.3493837
-9.0735893 -2.4667549 1.395084
-9.7424965 -2.5845649 1.4955952
-9.8003054 -2.5356419 1.5020609
-7.8303485 -1.9746265 1.1978821
-7.8346324 -1.9246548 1.1967065
-9.8684053 -2.3603446 1.5055876
-7.8624778 -1.8294883 1.1974412
-8.0317736 -1.817018 1.2215405
-8.1635303 -1.7942537 1.2399087
-8.7412548 -1.8651285 1.3260192
-8.940443 -1.8503635 1.3545268
-8.8488274 -1.7748439 1.3389505
-8.4294033 -1.6369466 1.2738533
-39.325764 -7.3893313 5.9426303
-8.2610226 -1.499276 1.2454927
-8.172637 -1.4314854 1.230798
-8.1715126 -1.3796645 1.2293285
-7.721931 -1.2550366 1.1604108
-7.7245998 -1.2068682 1.1596761
-8.1965017 -1.2291667 1.2294755
-7.6340671 -1.0969222 1.1439527
-7.626935 -1.0481731 1.1418955
-7.8705602 -1.0325118 1.1774565
-11.30491 -1.2721603 1.6882418
-10.945621 -1.1637406 1.6334308
-11.181878 -1.1195318 1.6676693
-42.024727 -3.9491496 6.2688508
-13.191101 -1.1575099 1.9653825
-13.268938 -1.0823429 1.9759626
-13.192477 -0.99465472 1.9636191
-13.14998 -0.91033858 1.9564188
-11.689355 -0.73710716 1.7382035
-11.691683 -0.66525626 1.7379097
-11.686654 -0.59305316 1.736587
-10.099135 -0.45028991 1.5000036
-10.746152 -0.41313121 1.5958126
-10.307558 -0.33291554 1.5302745
-10.413231 -0.27238598 1.5457039
-10.446352 -0.20912208 1.5504062
-10.865807 -0.15085557 1.6125644
-10.152387 -0.078603595 1.5064692
-9.7659225 -0.015660649 1.4490132
-9.5492153 0.043295767 1.416832
-9.7980194 0.10452934 1.4538624
-10.350049 0.17389886 1.5360055
-11.453373 0.26266775 1.7001444
-10.504342 0.30545792 1.5593699
-10.484478 0.36928004 1.5567249
-9.6528292 0.39935887 1.433437
-9.5454655 0.45361063 1.4178606
-9.2234659 0.49507165 1.370397
-9.7406063 0.58275038 1.4478377
-12.790633 0.84379989 1.9024894
-11.780871 0.84987164 1.7528981
-8.9935627 0.70445549 1.3383627
-9.9609098 0.84167635 1.4832517
-10.047173 0.91108078 1.4969177
-9.7952576 0.9488858 1.4601811
-9.3681259 0.96559525 1.3972882
-7.8506937 0.85801673 1.1714318
-9.4705372 1.093753 1.4144809
-8.9481468 1.0891376 1.337334
-8.0023289 1.0239562 1.1967065
-11.525219 1.5463606 1.7257131
-11.514533 1.6169113 1.7255661
-9.3963184 1.3784356 1.4090439
-8.245636 1.2614467 1.2374107
-8.2045279 1.3067303 1.2324145
-8.2968702 1.3736812 1.2475499
-7.9997253 1.3749915 1.2040538
-8.7497425 1.5591706 1.318525
-9.3859062 1.7319664 1.4160973
-9.5946875 1.8314226 1.4493071
-9.1960564 1.8139123 1.3906755
-9.5637369 1.947448 1.4481316
-9.7326307 2.0440996 1.4756105
-9.7160387 2.1029427 1.4750228
-8.8890591 1.9811848 1.3511471
-9.1814022 2.1055341 1.3975821
-44.132847 10.403542 6.73423
-44.568085 10.795218 6.8106418
-45.455147 11.305781 6.9567065
-46.077858 11.761337 7.0629487
-46.739723 12.236226 7.1758032
-47.827374 12.835036 7.354784
-48.690983 13.387594 7.500114
-49.233471 13.862226 7.5966578
-50.354576 14.511914 7.7832794
-52.118851 15.715552 8.0852537
-55.727512 17.929089 8.6949339
-56.427444 18.537102 8.8217487
-57.917263 19.421032 9.0731735
-31.060541 16.292372 5.2087808
-30.955622 16.480326 5.208046
-30.845215 16.665255 5.2065763
-30.71896 16.841366 5.2026091
-30.591703 17.016554 5.1986413
-30.480688 17.200539 5.1976128
-30.370281 17.384785 5.196878
-30.263893 17.571301 5.1970248
-30.158918 17.758673 5.1976128
-30.035797 17.935276 5.1952615
-29.909952 18.110014 5.1926165
-29.784781 18.284918 5.1902652
-29.660269 18.460012 5.1882081
-29.548115 18.642714 5.1885018
-29.427334 18.819935 5.1874733
-29.312965 19.001219 5.1877675
-29.189211 19.176378 5.1865916
-29.064409 19.350733 5.1854162
-28.950047 19.532022 5.1862979
-28.824757 19.70594 5.1854162
-28.723631 19.896517 5.1890898
-28.619629 20.085455 5.1924696
-28.505522 20.267563 5.1942329
-28.383034 20.443823 5.1946735
-14.28379 10.422503 2.6250243
-14.256161 10.536995 2.6317837
-13.904589 10.409687 2.5785892
-13.804984 10.467916 2.5719767
-13.771091 10.575919 2.5777075
-13.669242 10.631677 2.570801
-13.57966 10.696378 2.5662458
-13.51764 10.782583 2.5669806
-13.452764 10.866567 2.5672743
-13.391193 10.953289 2.5683031
-13.339732 11.048499 2.571389
-13.283057 11.139676 2.5735931
-13.228028 11.232493 2.5762382
-13.156608 11.311513 2.5757973
-5.2745504 4.5919771 1.0371228
-5.0525875 4.4535651 0.99876988
-4.7336268 4.2243662 0.9407261
-4.5028262 4.0683432 0.89972806
-4.2785058 3.9136593 0.85961175
-4.1288433 3.8235822 0.83419001
-3.9414809 3.6952927 0.80083323
-3.8785512 3.6812797 0.79260427
-3.8437636 3.6933596 0.79010618
-3.8111014 3.7072206 0.78804892
-3.7974463 3.7395563 0.78995919
-3.7597165 3.7481234 0.78687334
-3.6774619 3.7114058 0.77438289
-3.6470082 3.7261255 0.77276647
-3.6240764 3.7484329 0.77276647
-3.6133068 3.7834737 0.77541155
-3.5940971 3.8098898 0.77629322
-3.5740242 3.835489 0.77702796
-3.5497532 3.8566186 0.77688098
-3.525357 3.8775952 0.77673405
-3.5153787 3.9146066 0.77981991
-3.4952319 3.9405425 0.78070158
-3.4618607 3.9514997 0.77864432
-3.4356077 3.9704232 0.77820349
-3.4201791 4.001955 0.78026074
-3.4089594 4.0387373 0.78334665
-3.3955164 4.0732527 0.78599167
-3.3685732 4.0917196 0.78555083
-3.3440275 4.1130791 0.78569776
-3.3329723 4.1512585 0.78907752
-3.3111258 4.1762815 0.78995919
-3.2982454 4.2128735 0.7930451
-3.2856452 4.2502465 0.79627788
-3.2703087 4.2844787 0.79892296
-3.2499123 4.3123627 0.80039239
-3.2245722 4.3338099 0.8006863
-3.2125618 4.3734412 0.80435997
-3.189151 4.3978753 0.80524164
-3.1695924 4.4278159 0.80715191
-3.1497858 4.4576812 0.80906224
-3.1331277 4.4923377 0.81185418
-3.1313083 4.548954 0.81861371
-3.1111207 4.5795355 0.82067096
-3.0961847 4.6182551 0.82419771
-3.0743396 4.6470647 0.82596105
-3.0495534 4.6716385 0.82698965
-3.0294025 4.7035666 0.82934082
-3.0158722 4.7462749 0.83360225
-3.00088 4.7873178 0.83756983
-3.0120327 4.8712578 0.84903163
-3.0011466 4.9208913 0.85446864
-2.9765053 4.9485364 0.85608506
-7.4331498 12.529233 2.1624374
-7.2951927 12.470447 2.14451
-7.2229867 12.522686 2.1458325
-7.4472289 13.096422 2.2363515
-7.4092965 13.217797 2.2492826
-7.4543519 13.491572 2.2880764
-7.6633182 14.073032 2.3787422
-7.4528728 13.888824 2.3398015
-7.4169874 14.027855 2.3555248
-7.6465673 14.679274 2.4570646
-18.424982 35.904655 5.9934735
-18.228424 36.064705 6.0014086
-18.036764 36.236088 6.0114012
-7.6688595 15.647669 2.5869651
-17.694767 36.67028 6.0469623
-17.522055 36.888954 6.0651836
-7.462903 15.964491 2.6162076
-7.340415 15.956965 2.6075377
-7.1995378 15.907085 2.5921082
-6.6543789 14.946145 2.428704
-6.7649155 15.448787 2.5036466
-6.7811079 15.748013 2.5453794
-6.4934525 15.338447 2.472641
-16.201693 38.931648 6.2626791
-5.417295 13.247169 2.1243782
-6.3188248 15.726125 2.51599
-5.8132658 14.728617 2.3505287
-15.539924 40.087627 6.3853793
-15.297175 40.191467 6.3868489
-5.5764866 14.927637 2.3655171
-5.4081755 14.752617 2.3324542
-5.1859803 14.419733 2.2747045
-5.130641 14.545495 2.289546
-5.5379524 16.012558 2.5152555
-5.2484002 15.482302 2.4267938
-5.0444684 15.186608 2.3755095
-4.9573121 15.236087 2.3784485
-4.8337011 15.171972 2.3637538
-4.5779428 14.680102 2.2826395
-5.0455847 16.535723 2.5665398
-4.9114938 16.457371 2.5496409
-4.7325597 16.220377 2.5083489
-3.6846366 12.92363 1.9946247
-4.4729056 16.06093 2.474992
-10.123045 37.227924 5.729558
-4.2206774 15.908102 2.4432518
-4.1170397 15.910717 2.4397249
-4.0544181 16.074749 2.4610322
-9.013752 36.681324 5.6096501
-8.7058821 36.390583 5.5568962
-4.0765128 17.515629 2.669843
-8.1599693 36.058613 5.4904766
-2.739712 12.463497 1.8939666
-7.6423197 35.80682 5.437429
-7.3562899 35.533401 5.3889365
-7.1149654 35.46246 5.3714499
-6.8789401 35.411263 5.3571963
-2.3190231 12.34433 1.8641365
-2.3368938 12.87414 1.942018
-2.2913201 13.079199 1.9708195
-2.9685738 17.577564 2.6464784
-2.8651097 17.622784 2.6505928
-2.7581463 17.647852 2.6517684
-2.6747611 17.830734 2.6767495
-5.0454054 35.096176 5.2656488
-1.9572692 14.237486 2.1331952
-1.8674266 14.230595 2.130403
-2.3173664 18.538797 2.7737339
-2.2048542 18.563473 2.7753503
-1.8580562 16.50856 2.4661753
-3.9243121 36.894806 5.5101676
-3.7088008 37.027435 5.5264783
-3.4901428 37.141083 5.5401444
-1.3424164 16.455257 2.4508929
-2.884342 38.23864 5.6950259
-2.6774154 38.65625 5.7546859
-2.4666557 39.091499 5.8171382
-2.237886 39.301434 5.8462334
-2.0082381 39.541634 5.8800311
-1.7777563 39.825943 5.9205885
-0.70758456 18.392506 2.732589
-1.3163507 40.693005 6.0466681
-0.43777093 16.719826 2.4829273
-0.8308692 41.402309 6.1501184
-0.58078659 41.691475 6.1924391
-0.32989815 42.326298 6.2863374
-0.07063482 42.597557 6.3264542
0.19269522 43.035381 6.391551
0.45992777 43.33308 6.4360757
0.44088179 26.303705 3.9063957
0.6009807 26.244139 3.8980198
0.84969443 29.262497 4.3472347
1.045181 29.710472 4.4146829
1.2196653 29.514732 4.3866162
1.3855052 29.185583 4.3388586
1.3560718 25.286863 3.7601843
1.9116818 28.991295 4.3144655
1.7467629 24.223679 3.6061845
1.905164 24.337744 3.6248467
2.0602868 24.394592 3.635133
2.1925242 24.189392 3.6064785
2.4385936 25.184641 3.7570984
2.5909495 25.148542 3.7540126
2.9740348 27.227579 4.0671549
6.2905746 54.497192 8.1479998
3.3361223 27.420763 4.1018343
3.9878352 31.18115 4.6681652
3.5837498 26.716991 4.0027924
3.5530212 24.227236 3.6358676
3.6510785 23.874491 3.5861998
3.807297 23.913179 3.5954576
4.5469422 27.472775 4.1350441
5.0922422 29.6378 4.4656734
4.5814056 25.717543 3.8789167
4.7175879 25.57222 3.8612833
4.8679185 25.508785 3.8561401
5.5830817 28.31218 4.2852235
5.1586843 25.339539 3.8398292
5.3004503 25.24255 3.8299837
0.71357977 3.294728 0.49900559
0.72560835 3.2535996 0.49342164
0.75174719 3.2760818 0.49753612
0.77160776 3.2704449 0.49738917
0.79166025 3.2656486 0.49738917
0.81454784 3.2722485 0.49915254
0.83803529 3.2806067 0.5012098
0.85789847 3.274446 0.50106281
0.87592304 3.2614777 0.49988726
0.89408308 3.2493656 0.49885863
0.91480815 3.2466748 0.4992995
0.93553388 3.2438519 0.49974033
0.95625937 3.2408967 0.50018114
0.96499079 3.198034 0.49445027
1.0204319 3.3083198 0.51252466
1.0466551 3.3208654 0.51546359
1.0727675 3.3322716 0.51825553
1.1141857 3.3895285 0.52824789
1.1403084 3.3985715 0.53074598
11.896577 34.767815 5.4572668
12.077742 34.602642 5.4428658
12.684736 33.662697 5.3423548
13.631986 34.873505 5.5607171
15.943274 40.059898 6.4034538
14.183695 35.011631 5.6100907
17.101479 38.753635 6.2910399
19.30068 40.983654 6.7280583
20.52051 40.936245 6.8009434
23.091599 41.513695 7.0553074
23.359499 41.395348 7.059422
23.614038 41.252953 7.0597157
23.826986 41.038849 7.0479603
24.121006 40.964329 7.0604506
24.375961 40.822346 7.061626
24.59166 40.615318 7.0517807
23.032835 37.519131 6.5384974
25.130032 40.377666 7.0635366
2.3160594 3.6697459 0.64286602
2.2490034 3.5154693 0.61817902
2.2646134 3.4924734 0.6165626
2.2756813 3.4628046 0.6137706
2.2793446 3.4224284 0.60906833
2.2383425 3.31654 0.59261036
2.1598449 3.1582098 0.56660086
2.1763666 3.1408322 0.56586617
2.2825322 3.2512975 0.58834893
2.3545966 3.3105915 0.60172105
2.3841152 3.3089235 0.60407215
2.3991263 3.2870412 0.60274965
2.4210138 3.2746449 0.60319048
2.4452102 3.2652712 0.60421914
2.4675903 3.2533588 0.6048069
2.4881082 3.2389414 0.60495383
2.5097568 3.2259562 0.60539472
2.4805419 3.1483305 0.59363902
29.78688 37.344429 7.0946889
30.042187 37.194046 7.1010079
30.232265 36.96307 7.0921907
30.494459 36.820293 7.1005669
30.809427 36.739361 7.1212864
31.014429 36.526253 7.1167312
31.457727 36.139919 7.1161432
31.681501 35.949188 7.1167312
31.929144 35.785118 7.1229029
32.311886 35.769833 7.1591983
32.518078 35.55703 7.1564064
32.745045 35.366993 7.158464
32.995937 35.202213 7.1659579
33.22765 35.016312 7.1694846
33.513149 34.88596 7.1847672
33.7514 34.705196 7.1900573
34.023388 34.558067 7.2026944
34.234097 34.347954 7.2025476
34.473011 34.165798 7.2085724
34.747025 34.017296 7.2220917
34.976425 33.824078 7.2265
35.27343 33.694923 7.2450151
35.49678 33.494148 7.2485418
35.737083 33.308758 7.2557421
35.964802 33.110962 7.2605915
36.326092 33.034077 7.2924786
36.892254 32.730888 7.324954
37.063381 32.478481 7.3192229
37.377892 32.350792 7.3419995
37.88015 31.980919 7.3630128
38.129608 31.792866 7.373446
38.406429 31.626219 7.3893166
38.577507 31.371866 7.3850551
38.856422 31.204556 7.40166
40.199741 30.302813 7.4768963
25.617876 19.065222 4.7422261
25.716991 18.653006 4.717833
18.648964 12.839764 3.3618128
42.576599 28.931475 7.6454439
42.78043 28.687868 7.6502929
42.997719 28.452671 7.6577873
43.33382 28.2943 7.6865888
43.650471 28.120552 7.7120104
43.969952 27.946104 7.7380199
44.231945 27.733055 7.7540369
44.408848 27.465815 7.7553596
44.734447 27.289141 7.7828383
45.146843 27.162024 7.8254528
45.448765 26.965254 7.8489642
45.624462 26.692371 7.8508744
20.953495 11.9156 3.5791464
18.497322 10.369075 3.1484468
20.091261 11.101193 3.4082479
18.46855 10.057096 3.1222904
21.354654 11.459529 3.5985434
18.640888 9.7104197 3.1206741
48.692337 24.987436 8.1287498
18.775419 9.4894133 3.123466
49.059059 24.419762 8.1393299
18.767885 9.1982183 3.1031876
18.810608 9.0764399 3.1009831
20.007797 9.5032454 3.2887807
19.774513 9.2441521 3.2410231
19.221607 8.8423491 3.1413934
20.048666 9.074213 3.2674735
19.562321 8.5664043 3.1707828
19.877068 8.5592794 3.2132502
20.133245 8.5235405 3.2461662
20.168728 8.3930035 3.2435212
19.753841 8.0784988 3.1687255
16.554928 6.5341883 2.6422169
14.741876 5.7142024 2.347002
14.315362 5.4480586 2.2736757
14.78031 5.5214424 2.3421526
14.82877 5.4360962 2.3445039
14.858123 5.343667 2.3439159
14.938204 5.2691813 2.3514104
14.819751 5.1253648 2.3277519
14.764737 5.0051165 2.3142328
16.058661 5.3341761 2.5120225
15.011285 4.8841581 2.3433282
15.357635 4.8928614 2.3927021
16.900906 5.1570296 2.623261
16.273493 4.8566098 2.5211332
16.059904 4.6857324 2.483515
16.243402 4.6313167 2.5074673
16.279137 4.5336852 2.5086429
16.380144 4.4536991 2.5199578
16.404295 4.3523474 2.5195169
14.200454 3.6744168 2.177279
16.089136 4.0580473 2.4632363
15.15605 3.7238989 2.316731
15.767354 3.7716916 2.4066622
14.737216 3.4297645 2.2460499
14.783992 3.2499323 2.2469316
14.751417 3.1480081 2.2389965
16.344435 3.3833194 2.4777842
16.217474 3.2533894 2.4554484
16.580824 2.9049511 2.4989443
14.216908 1.9544392 2.1301093
12.540109 0.09725292 1.8611976
12.224437 0.026800368 1.6012758
13.19243 -0.21395513 1.7284226
12.28981 -0.27474055 1.6102462
13.021315 -0.37105489 1.7064514
12.974201 -0.44939998 1.7006011
12.864205 -0.52463454 1.6865604
13.322514 -0.78919071 1.7483138
13.105689 -0.85707146 1.7204922
13.204027 -0.94490308 1.7341429
11.468053 -0.89140725 1.5066307
13.250719 -1.1118408 1.7419434
11.518464 -1.0376765 1.5148211
11.713217 -1.1277207 1.5413425
12.143027 -1.244354 1.5989356
12.548176 -1.3637313 1.6534085
13.091188 -1.5040851 1.7262125
13.140773 -1.5915366 1.734013
13.677625 -1.7417856 1.8062968
11.349586 -1.587054 1.5010403
11.366123 -1.6605344 1.5045505
11.420413 -1.7401026 1.5131309
11.933427 -1.893272 1.5826848
11.543965 -1.904164 1.5325021
11.328789 -1.9401445 1.5054605
11.851649 -2.1046314 1.5767044
11.847288 -2.1789262 1.5778744
11.805449 -2.2462039 1.5741043
11.323489 -2.2265747 1.5115709
11.318358 -2.2977879 1.512741
11.196326 -2.3446329 1.4983102
11.04701 -2.3842101 1.4802392
11.077664 -2.46206 1.4863495
11.101011 -2.5388277 1.4915497
10.895084 -2.562176 1.4659384
12.099288 -2.9238493 1.6305274
11.99836 -2.9774954 1.6193467
11.482151 -2.9242923 1.552003
12.306273 -3.214731 1.6661493
10.623642 -2.8449013 1.440457
12.343596 -3.6324193 1.6855203
11.510386 -3.618722 1.5804746
11.799572 -3.8693843 1.6266271
11.099582 -3.7154105 1.5331521
11.2782 -4.0856419 1.5712441
11.687157 -4.4788284 1.6394979
11.252123 -4.3914742 1.5821648
10.965124 -4.3571763 1.5455027
11.392182 -4.6895633 1.6137564
11.807188 -5.0307269 1.6812301
10.007846 -4.4834547 1.4362968
11.217267 -5.1081662 1.6145364
10.294901 -4.7646008 1.4858295
9.9720745 -4.6896935 1.4433172
9.8026543 -4.6836796 1.422906
10.443617 -5.0688872 1.5205413
10.399868 -5.1267352 1.5187212
9.7404947 -4.876193 1.4266763
9.7042046 -4.9327226 1.4257662
11.466274 -6.0066285 1.6956608
9.6450319 -5.1281981 1.4307065
9.9248953 -5.3553777 1.477119
9.8814125 -5.4104605 1.4755589
9.7266855 -5.4035759 1.4573579
9.5007277 -5.3545918 1.4283663
9.5133715 -5.5949121 1.4455273
9.4430981 -5.6318483 1.4400669
9.3116426 -5.6311908 1.4252462
10.281929 -6.3044772 1.5798246
9.2999411 -5.7811542 1.4342166
9.3878918 -5.9967937 1.459048
9.8577814 -6.3824663 1.5382223
9.3517275 -6.1365695 1.4650284
9.2536287 -6.1537538 1.4555378
9.2420073 -6.2281489 1.4596981
9.1757784 -6.265728 1.4552778
9.105361 -6.2999091 1.4502076
8.7580166 -6.1393809 1.4008049
8.6377268 -6.1344423 1.3875442
8.6152163 -6.1983299 1.3900143
8.8065119 -6.7553945 1.4537177
9.0552206 -7.2147799 1.5165111
39.0214 -35.212299 6.8900928
38.80534 -35.451733 6.890223
32.066746 -30.772797 5.8258553
32.502434 -31.576277 5.9401312
32.444508 -31.909298 5.9652228
32.151142 -32.01123 5.9472818
33.066547 -33.329182 6.1543827
31.209723 -31.846052 5.8449659
31.204422 -32.632248 5.91855
30.358599 -32.9408 5.8721375
19.847706 -21.802732 3.8643086
20.202831 -22.74745 3.9875553
20.07399 -22.883656 3.9897654
19.80234 -23.430265 4.0208373
19.773201 -23.689106 4.0443683
17.98835 -21.821545 3.70648
18.3286 -22.51436 3.8050253
18.487062 -22.995779 3.8671687
18.189644 -22.912312 3.8342769
17.997536 -23.250626 3.8536479
17.652925 -23.392963 3.8410373
17.930828 -24.066952 3.9336023
18.229897 -24.784349 4.0325379
6.7276936 -10.572845 1.641578
6.6152506 -10.538345 1.6298773
6.5431566 -10.566936 1.6280572
6.5272913 -10.687272 1.6404079
6.3633671 -10.56405 1.6154466
6.3364053 -10.666829 1.6251971
5.0196104 -11.63935 1.660429
4.917522 -11.597816 1.6501584
4.8298655 -11.588416 1.6445681
4.7549109 -11.608658 1.643268
4.6817412 -11.633017 1.6426179
4.6255841 -11.700251 1.6480783
4.5727248 -11.7774 1.6549686
23.953213 -76.662659 10.52964
23.37801 -76.466843 10.482838
22.809525 -76.278267 10.437595
3.4922528 -11.94453 1.6301373
21.611359 -75.641014 10.313309
21.039148 -75.38636 10.260786
20.535788 -75.365761 10.240635
19.970032 -75.103226 10.188112
19.44038 -74.960411 10.15236
18.904247 -74.778366 10.111797
18.31892 -74.380775 10.042634
17.728552 -73.934479 9.9674902
17.245279 -73.916344 9.9505892
16.706743 -73.647522 9.9004059
16.156582 -73.304207 9.8407335
15.659189 -73.180908 9.8110914
15.155255 -73.01252 9.7758598
14.681357 -72.976799 9.7588282
14.184959 -72.817337 9.7256765
13.812989 -73.301521 9.7788496
13.416958 -73.681435 9.8183718
13.167994 -74.919579 9.9724302
12.800476 -75.544464 10.044974
12.263748 -75.17437 9.9855614
11.813009 -75.316772 9.9946613
10.50568 -69.775665 9.2505007
9.9513226 -68.965416 9.1347952
9.4047327 -68.132355 9.0166187
8.9124022 -67.626488 8.9422541
8.3889647 -66.817116 8.8282385
7.9574442 -66.688148 8.8045769
7.4488187 -65.857887 8.6887407
6.9821949 -65.318703 8.6117764
6.4726057 -64.281052 8.4695482
6.0688286 -64.221832 8.4566784
5.6292157 -63.743282 8.3889446
5.1759844 -63.021652 8.2896185
4.6907477 -61.756088 8.1191797
4.3090391 -61.745132 8.114109
3.9238646 -61.672447 8.1012383
1.0349227 -20.166719 2.6461425
2.684463 -59.441204 7.8002725
2.3199201 -59.462505 7.8010521
0.66067779 -20.095146 2.6347017
1.5550557 -58.177174 7.629313
0.41966221 -20.37534 2.6705837
0.82372504 -56.995239 7.4723945
0.16532476 -19.86537 2.6032403
0.043896113 -20.080175 2.6313217
-0.22049296 -55.733608 7.3062453
-0.55572718 -55.06395 7.2187505
-0.8882882 -54.733337 7.1759782
-0.44749007 -20.011765 2.6230011
-1.5249006 -53.491322 7.0150294
-1.8461177 -53.2798 6.9886384
-2.1557431 -52.844448 6.933125
-0.89332098 -19.033056 2.4967644
-1.0096157 -19.018305 2.4955943
-3.0652611 -51.735764 6.7938876
-1.3541099 -20.704271 2.7189465
-1.4724873 -20.574917 2.7030857
-1.8308842 -23.551844 3.0958369
-4.2054725 -50.113495 6.5923767
-1.9198253 -21.308662 2.8037109
-4.7640533 -49.475815 6.5156727
-5.0301375 -49.0807 6.4675698
-5.2923036 -48.691105 6.4203773
-5.5580292 -48.371067 6.3825455
-2.3188396 -19.145113 2.527056
-2.8095651 -22.06156 2.9144771
-6.3349171 -47.418324 6.2711291
-6.5834537 -47.076122 6.2310872
-6.8151298 -46.644363 6.1793442
-7.0865684 -46.505608 6.1666036
-3.458873 -21.800478 2.8926358
-7.5361753 -45.684361 6.0694885
-7.7899003 -45.482845 6.0489473
-8.0284348 -45.20673 6.0186558
-8.2484493 -44.845543 5.9771833
-8.490099 -44.618763 5.9537821
-8.7114849 -44.300232 5.9182901
-8.9342155 -44.004967 5.8860483
-9.1621895 -43.749405 5.8592668
-9.3810883 -43.463631 5.8285851
-9.5899429 -43.145859 5.7937431
-9.8060865 -42.874531 5.7652717
-10.009274 -42.559711 5.7310801
-10.235057 -42.351963 5.7114487
-10.40589 -41.930382 5.6630864
-10.615252 -41.678383 5.6377349
-10.850486 -41.53476 5.6272044
-11.014334 -41.128349 5.581182
-11.240774 -40.96629 5.5684409
-11.443645 -40.724728 5.5450397
-11.598753 -40.325005 5.5001874
-11.815172 -40.148445 5.4858866
-12.028149 -39.965057 5.4708056
-12.213078 -39.695282 5.4440246
-12.385636 -39.394482 5.4130826
-12.572551 -39.147816 5.3896813
-12.77977 -38.97007 5.3759007
-12.921389 -38.600388 5.3357286
-13.124019 -38.420918 5.3219476
-13.330482 -38.25634 5.3103771
-13.492259 -37.969219 5.2819057
-13.676009 -37.750546 5.2630544
-13.860678 -37.539421 5.2453737
-14.052698 -37.352516 5.2312026
-14.20782 -37.073006 5.2041612
-14.382395 -36.850277 5.1851802
-14.572717 -36.671959 5.1725698
-14.700786 -36.342869 5.1387677
-14.882364 -36.152046 5.1245971
-15.042236 -35.912811 5.1036658
-15.2215 -35.72406 5.0900149
-15.394284 -35.523544 5.0748043
-15.559586 -35.309563 5.0577736
-15.698924 -35.041504 5.033072
-15.885696 -34.883156 5.0242314
-16.017811 -34.608665 4.9987502
-16.19948 -34.445129 4.9893899
-16.357092 -34.233253 4.9731388
-16.532633 -34.061775 4.9628682
-16.654076 -33.782719 4.9369969
-16.828648 -33.615173 4.9275064
-16.977079 -33.398144 4.9108653
-17.131666 -33.196426 4.8965645
-17.298685 -33.021297 4.8862939
-17.600124 -33.101006 4.9139857
-18.044445 -33.440025 4.980679
-18.517391 -33.818302 5.0538731
-18.940271 -34.092342 5.1121163
-19.427572 -34.469559 5.1864805
-19.80603 -34.642361 5.2306828
-20.012251 -34.509888 5.2291226
-20.420521 -34.238716 5.2256126
-20.654631 -33.684635 5.1793299
-20.788685 -33.441063 5.1613889
-20.991371 -33.309521 5.1608691
-21.127571 -33.073975 5.1443582
-21.50737 -32.774914 5.1385078
-21.655907 -32.563896 5.1261573
-21.855309 -32.430405 5.1261573
-21.943731 -32.134388 5.1005459
-22.021454 -31.827097 5.0731144
-22.258444 -31.751457 5.0827346
-22.35984 -31.483324 5.0616736
-22.541016 -31.329439 5.0590734
-22.708298 -31.156885 5.0536132
-22.871954 -30.98027 5.0476327
-23.026581 -30.7925 5.0399623
-23.152828 -30.56843 5.0264416
-23.315817 -30.394323 5.0212412
-23.443476 -30.175524 5.0087609
-23.607344 -30.004616 5.0043406
-23.727362 -29.779325 4.9909496
-23.880375 -29.59691 4.9848394
-24.025145 -29.405293 4.9772992
-24.131802 -29.168703 4.9622183
-24.282309 -28.986643 4.9564977
-24.453938 -28.830297 4.955328
-24.548336 -28.584181 4.938817
-24.712852 -28.421045 4.9367371
-24.844843 -28.221245 4.9284163
-24.974657 -28.020159 4.9199657
-25.178663 -27.902458 4.9263363
-25.292551 -27.685219 4.9152856
-25.429632 -27.494564 4.9090452
-25.58227 -27.321367 4.906055
-25.748747 -27.163166 4.9059253
-25.901203 -26.990355 4.9033251
-26.070469 -26.835186 4.9041052
-26.189445 -26.628765 4.8956547
-26.369833 -26.485134 4.8989048
-26.493837 -26.285126 4.8918843
-26.612131 -26.080427 4.8840837
-26.746723 -25.892509 4.8795338
-26.883596 -25.70735 4.8756337
-27.006227 -25.509232 4.8693933
-27.144842 -25.326811 4.8662729
-27.293901 -25.1544 4.8652329
-27.423534 -24.964428 4.8609428
-27.579884 -24.799006 4.8615928
-27.735977 -24.633263 4.8623729
-27.879894 -24.45673 4.8612027
-28.040672 -24.294941 4.863153
-22.803581 -19.513817 3.9337323
-28.276871 -23.898449 4.8528824
-28.418411 -23.720682 4.8521023
-28.537411 -23.52442 4.847682
-28.674297 -23.343241 4.8465118
-6.6936116 -5.3813939 1.1245399
-28.946947 -22.980358 4.8445621
-29.079603 -22.796194 4.8432617
-6.1313486 -4.7462568 1.0150739
-6.1477513 -4.6989121 1.0129938
-7.2219782 -5.4500599 1.1847332
-6.9197493 -5.1556616 1.1298702
-7.3554077 -5.4103737 1.1956537
-7.5088134 -5.4525256 1.2151548
-7.5550222 -5.4155922 1.2172348
-6.9753928 -4.9356112 1.1188196
-7.2437253 -5.0590568 1.1569116
-30.461126 -20.996559 4.8493719
-30.603323 -20.818737 4.8515821
-30.757654 -20.648806 4.8558726
-30.895346 -20.467358 4.8576927
-6.9830256 -4.5648518 1.0922982
-6.2326527 -4.0199852 0.97087151
-6.6093793 -4.2057562 1.0256045
-6.2353272 -3.9142058 0.96372116
-6.2617559 -3.877439 0.96411115
-6.4089718 -3.914396 0.98309219
-8.1069145 -4.8833394 1.2393361
-8.1853161 -4.8623676 1.2467465
-7.2610564 -4.2532945 1.1017886
-32.021008 -18.232065 4.8298712
-8.3609743 -4.6930256 1.255587
-6.6145182 -3.659595 0.98959255
-6.3643756 -3.4703753 0.94890034
-6.6108913 -3.5523376 0.98244214
-6.8700356 -3.6374321 1.0176741
-7.7572699 -4.0464172 1.145601
-7.6064525 -3.9085684 1.1197296
-6.8146248 -3.449023 0.99986309
-6.7957263 -3.3872414 0.99401277
-6.8413048 -3.3577113 0.99765295
-6.8965964 -3.3324938 1.0027232
-6.9321356 -3.2973542 1.0049334
-7.0150967 -3.2841835 1.0140339
-8.1220818 -3.7418091 1.1709524
-8.4112968 -3.8126526 1.2093045
-7.1226392 -3.1237781 1.0181941
-5.4582295 -2.3540416 0.77781105
-6.2795329 -2.6626465 0.89273727
-6.4952683 -2.7072175 0.9210788
-6.1511664 -2.5196207 0.86998606
-6.5307608 -2.628417 0.92146885
-5.7251949 -2.2635105 0.80563253
-6.6817575 -2.5943687 0.93823975
-6.6966243 -2.5529683 0.93810976
-6.5607963 -2.4551907 0.91691858
-8.2780695 -3.0400016 1.1547015
-7.0344553 -2.5344598 0.97880197
-8.7737713 -3.1003809 1.2185349
-8.7645235 -3.0367501 1.2146348
-8.1708603 -2.7750347 1.1298702
-8.0945959 -2.6938534 1.1169995
-36.016594 -11.740509 4.9654684
-36.240028 -11.567836 4.9863997
-36.31979 -11.348209 4.9876995
-36.448471 -11.143405 4.9958901
-9.0179272 -2.6968164 1.2325758
-9.0257387 -2.6389287 1.2314056
-9.3544655 -2.6728399 1.274048
-9.0593529 -2.5285034 1.2316657
-9.1244421 -2.486423 1.2384261
-8.3489971 -2.2201893 1.1311703
-9.7646761 -2.532568 1.3211105
-7.9055519 -1.9987348 1.0675968
-7.9195929 -1.9506639 1.0678568
-9.9166632 -2.3780658 1.3355414
-6.7137475 -1.5665557 0.90235782
-38.322075 -8.6933565 5.1508584
-8.2081156 -1.8092856 1.1004885
-8.5603504 -1.8319148 1.1462511
-9.417984 -1.9550726 1.2596172
-9.4502163 -1.9013548 1.2623473
-8.5011368 -1.6562157 1.1340303
-8.3659582 -1.576665 1.1146593
-8.5715446 -1.5610055 1.1407907
-8.2450304 -1.449339 1.0960683
-8.2312851 -1.3949115 1.0930781
-39.93874 -6.515594 5.3043966
-7.7599721 -1.2172869 1.0283346
-8.7212849 -1.3132833 1.1548315
-40.34042 -5.8209791 5.3426189
-8.0371933 -1.0593861 1.0613564
-9.0578299 -1.1373928 1.1953937
-9.1768751 -1.0951856 1.2102145
-11.194281 -1.2662876 1.4755589
-10.601428 -1.1333983 1.3963846
-41.951515 -3.9643989 5.5235887
-42.107395 -3.7186019 5.5410094
-42.310261 -3.4750175 5.5648007
-42.476124 -3.2263796 5.5839119
-42.658321 -2.9770794 5.6053629
-42.818275 -2.7243421 5.624084
-42.920303 -2.4665115 5.6353946
-43.151489 -2.2142377 5.6638665
-43.32373 -1.9566249 5.6847973
-43.416164 -1.693928 5.6954579
-10.411309 -0.34239283 1.3642728
-10.217956 -0.27328524 1.3386614
-10.284866 -0.21193081 1.347242
-10.169978 -0.14714405 1.3320311
-9.5857172 -0.079876989 1.255327
-9.6028824 -0.021095313 1.2575371
-9.8130312 0.038659595 1.2850986
-10.44417 0.10524672 1.3679131
-10.483974 0.16998878 1.3732433
-10.242847 0.22894751 1.3417816
-10.540565 0.30032593 1.3810438
-8.1603203 0.28258362 1.0690268
-9.2125254 0.37565383 1.2073543
-9.6200829 0.45142311 1.2611773
-9.9894161 0.53020948 1.3100599
-11.287532 0.66861355 1.4810193
-11.743287 0.76795405 1.5414726
-9.527977 0.6817835 1.2509067
-9.6590433 0.7507624 1.2687176
-9.9121332 0.83165699 1.3026495
-9.6046648 0.86523306 1.2628673
-8.995162 0.86598682 1.183303
-13.356233 1.3686968 1.7588443
-7.9616799 0.86519992 1.0484858
-11.887481 1.3657691 1.567344
-9.9476442 1.2047545 1.31227
-9.8662977 1.2563744 1.3025196
-8.4638367 1.1305743 1.1180395
-9.7843456 1.3681535 1.2938091
-8.5248699 1.2453914 1.1280501
-11.468443 1.7474217 1.5195013
-11.739533 1.8625069 1.5569433
-9.5971661 1.5830079 1.273788
-9.4905205 1.6252941 1.2609173
-10.935939 1.9420029 1.4547578
-10.134917 1.8639618 1.3495821
-10.437902 1.9859798 1.3915744
-16.374681 3.219897 2.1865675
-16.401258 3.3297791 2.1928079
-16.400898 3.4346209 2.195538
-16.351408 3.5291235 2.1917677
-16.242336 3.6100252 2.1800671
-16.152222 3.6941435 2.1709666
-16.13311 3.79409 2.1714866
-45.170021 10.916101 6.0915895
-9.3327322 2.3159518 1.2592272
-47.060429 12.294031 6.3760448
-47.831726 12.809557 6.4911013
-48.579311 13.329756 6.6035571
-49.329926 13.861748 6.7170534
-50.374054 14.489231 6.871242
-51.223015 15.074332 6.9995589
-52.065708 15.670103 7.1277456
-53.338909 16.410896 7.3157358
-54.242668 17.053988 7.4539337
-55.111233 17.699379 7.5881009
-58.744102 20.066227 8.1379004
-60.347343 21.028246 8.3777637
-61.371014 21.808153 8.5383224
-64.635139 23.865379 9.032609
-66.516113 25.024742 9.3168049
-31.056561 16.269417 4.5954685
-30.949146 16.455946 4.5944281
-30.844101 16.643652 4.5939083
-30.73357 16.82831 4.5927382
-30.616734 17.009348 4.5907879
-30.495378 17.187637 4.5883179
-30.379873 17.369017 4.5868878
-23.736864 13.764914 3.5962341
-23.649395 13.908792 3.595844
-23.537209 14.037896 3.5918138
-23.433661 14.171793 3.5892136
-23.346264 14.315311 3.5892136
-23.248724 14.452533 3.5877836
-23.140314 14.582754 3.5847933
-23.0504 14.724466 3.5847933
-22.9746 14.875324 3.5871336
-22.885382 15.017646 3.5875235
-22.78042 15.149549 3.5855734
-22.714991 15.307881 3.5899937
-22.610809 15.440259 3.5884337
-22.508307 15.573628 3.5872636
-22.426126 15.72112 3.5894737
-22.345409 15.86991 3.5920739
-22.248417 16.007299 3.5922039
-22.128946 16.128328 3.5888236
-12.875459 9.5054836 2.0968626
-12.813716 9.5819321 2.0963426
-12.768908 9.6711512 2.0986826
-12.719553 9.757163 2.1003728
-12.65788 9.8338079 2.1001129
-12.590289 9.9057732 2.0989428
-12.533923 9.9865456 2.0997229
-12.481672 10.070736 2.1012828
-12.422715 10.149642 2.1018028
-12.367844 10.231996 2.1031029
-12.246305 10.258664 2.0930924
-5.7786241 4.901238 0.99193269
-5.3588076 4.6019778 0.92458898
-4.9862919 4.3354974 0.86478573
-4.7735443 4.2022171 0.83228397
-4.5848327 4.0862875 0.80368245
-4.364604 3.938314 0.76923054
-4.2246976 3.8593557 0.74868947
-4.0051317 3.7041032 0.71371758
-3.8947535 3.6466074 0.69798672
-3.8629506 3.6615689 0.69629663
-3.8289647 3.6742182 0.69421649
-3.8106148 3.7017884 0.69499654
-3.7920706 3.7292719 0.69577658
-3.7311749 3.7146921 0.68875623
-3.6747923 3.7037303 0.68251586
-3.6492214 3.723376 0.68199581
-3.625617 3.7449846 0.68186581
-3.5991437 3.7635777 0.68121582
-3.5732598 3.7827072 0.68069577
-3.5574226 3.8125358 0.68212587
-3.5400097 3.8408539 0.68329591
-3.5297251 3.877167 0.68589604
-3.5244315 3.9193962 0.68953627
-3.4831977 3.9216728 0.68615603
-3.4610307 3.9452078 0.68654609
-3.4439001 3.974613 0.68797618
-3.3980663 4.0203619 0.68862617
-3.3796873 4.0487485 0.68992627
-3.3655026 4.0824161 0.69213641
-3.3516574 4.1168303 0.69447649
-3.3269548 4.1380911 0.69460654
-3.3119819 4.1716285 0.69681662
-3.2948868 4.2027965 0.69863671
-3.27632 4.2323432 0.7001968
-3.2617285 4.267334 0.70266694
-3.2557895 4.314177 0.70708722
-3.2334037 4.3396382 0.70799726
-3.2055404 4.3577991 0.70773721
-3.1769931 4.374979 0.70734721
-3.1541326 4.4000316 0.70825726
-3.1425376 4.4411559 0.71176744
-3.1248791 4.474174 0.71397758
-3.1063707 4.5063252 0.71605766
-3.0948348 4.5490751 0.71982789
-3.0873117 4.5984383 0.72463816
-3.0705378 4.6346531 0.7273683
-3.0436697 4.6558962 0.72775835
-3.0118198 4.6694846 0.7269783
-3.0155809 4.738905 0.7349087
-3.0096405 4.7942696 0.74062902
-3.0114853 4.8632259 0.74842942
-3.0053608 4.9205365 0.75440979
-2.9781818 4.9439807 0.75518984
-2.938169 4.9459643 0.7527197
-7.3001518 12.462811 1.8922316
-7.2929659 12.627576 1.9104326
-7.6657104 13.46307 2.029779
-20.193836 35.978153 5.4081426
-19.285368 34.85899 5.2219725
-8.1622734 14.969478 2.23402
-8.0679216 15.014912 2.2333701
-18.551552 35.56617 5.2581143
-18.45396 35.914803 5.2928262
-7.6844711 15.183616 2.2297299
-8.0148706 16.080612 2.3542767
-7.6976357 15.684439 2.289273
-17.780966 36.799679 5.3573098
-7.1988044 15.134827 2.1959281
-7.5169291 16.056946 2.3230748
-17.320051 37.597126 5.4260836
-17.107042 37.742424 5.4318037
-7.2451339 16.248734 2.3311353
-6.8187652 15.548295 2.2245295
-6.7515039 15.655395 2.2338901
-6.5810056 15.521258 2.2089288
-6.4002056 15.356339 2.1798072
-6.7639666 16.513794 2.3382857
-6.7010102 16.650648 2.3518064
-15.72077 39.766415 5.6052332
-5.9708161 15.378457 2.1614761
-15.311408 40.165726 5.6346149
-5.5846257 14.924037 2.0877621
-5.4960246 14.966399 2.0889323
-14.488839 40.216873 5.6034131
-14.167146 40.093739 5.5740314
-4.9407892 14.260249 1.9772562
-4.7017508 13.844342 1.9155028
-5.0431128 15.154287 2.0925725
-4.9549494 15.20003 2.0946524
-4.9586735 15.534295 2.1365149
-5.0389075 16.126587 2.2137389
-4.9630527 16.233057 2.2241395
-4.863071 16.262255 2.2240095
-4.6251955 15.819755 2.1595261
-10.902348 38.158497 5.201951
-4.5453219 16.28598 2.2154291
-4.4424396 16.30304 2.213999
-4.3099647 16.208298 2.1974881
-4.2164049 16.257473 2.2006083
-9.4611015 37.424297 5.0598536
-9.0959044 36.931915 4.9856195
-4.2734103 17.821026 2.4013393
-8.1998272 36.146446 4.8583426
-1.9789461 8.9778938 1.2038442
-1.9151078 8.9491453 1.1983839
-1.834972 8.8393755 1.182133
-1.7605585 8.7503481 1.1687423
-1.7009572 8.7308168 1.1647121
-1.6385406 8.6943197 1.1584717
-1.5633146 8.5842266 1.1424809
-1.4460948 8.5333567 1.1332504
-1.3954638 8.5528336 1.1346804
-1.332665 8.4956055 1.1259699
-1.2731309 8.4545994 1.1194696
-1.1596582 8.3998489 1.110239
-1.1035616 8.3724012 1.1056888
-1.0500691 8.3622904 1.1034787
-0.99509758 8.3380556 1.0994484
-0.93990594 8.3085365 1.0947683
-0.88448197 8.2727404 1.0893079
-0.83529401 8.2937956 1.0913881
-0.78429526 8.2977781 1.091258
-0.73772722 8.3518171 1.0977584
-0.68890226 8.3858328 1.1016586
-0.64081389 8.434392 1.1075089
-0.5916723 8.4757509 1.1124492
-0.54122877 8.5039597 1.1156994
-0.49137142 8.5477057 1.1210296
-2.0507939 39.965981 5.2456336
-0.81740952 18.096594 2.3736477
-1.5779363 40.442894 5.3053069
-1.3395576 40.750099 5.344439
-1.0982096 41.083641 5.3872113
-0.36717325 17.825708 2.3362057
-0.60339326 41.746372 5.4727559
-0.34892046 41.952541 5.4994073
-0.092220776 42.286049 5.5429597
0.11426449 28.906448 3.7886446
0.26446241 26.214373 3.4358053
0.42599782 26.254885 3.4413958
0.58522397 26.168512 3.430475
0.74414098 26.106945 3.4229345
0.90596443 26.14945 3.4291749
1.0352755 25.380569 3.3290696
1.1954519 25.468821 3.3415501
1.3702611 25.810518 3.3874428
1.4999275 25.317623 3.3238692
1.8367631 25.664223 3.3721018
2.2509744 28.955149 3.8064554
2.1223769 25.29196 3.3263395
2.2479839 24.950607 3.2831771
2.4007506 24.933382 3.2827871
2.4645309 24.048223 3.1681209
2.579149 23.73004 3.1282086
3.1678367 27.570164 3.6371863
3.3291945 27.486227 3.6287358
3.9433603 30.963835 4.0911708
3.4419816 25.764711 3.4066837
7.5433755 53.939999 7.1398363
7.8535604 53.751419 7.1211152
3.640358 23.890488 3.1670806
4.6810856 29.503359 3.9152713
4.5405483 27.525326 3.6562972
4.7475185 27.719765 3.6859388
5.0461612 28.414482 3.7824042
5.1068759 27.765713 3.7001097
5.349061 28.11178 3.7505524
5.2178297 26.534468 3.5442312
5.0800805 25.022072 3.3462305
0.68414414 3.2676756 0.43615249
0.70982951 3.2895844 0.43966267
0.72870982 3.2793598 0.43888265
0.74682826 3.2661278 0.43771258
0.76617378 3.2585883 0.43732256
0.78778404 3.260572 0.4382326
0.80682051 3.2518277 0.43771258
0.82675809 3.2468159 0.43771258
0.84491032 3.2349668 0.43680254
0.86474377 3.2297215 0.43680254
0.88297057 3.2186177 0.43602249
0.90136182 3.2083669 0.43537244
0.91856426 3.1941998 0.43420237
0.93422723 3.1751869 0.43238229
0.95312077 3.167496 0.43212226
0.97487086 3.1691694 0.43316233
0.98864776 3.1451566 0.4306922
1.0076243 3.138087 0.4305622
1.0256244 3.1280768 0.43004215
1.0551852 3.1527524 0.4343324
1.0764333 3.1518483 0.43511245
1.0807445 3.1021144 0.4291321
1.0997584 3.0954247 0.4291321
1.1221081 3.0979407 0.43043217
1.1517421 3.1198313 0.4344624
13.348784 34.831528 4.8894143
16.108675 38.458858 5.4656057
16.308594 38.275375 5.4536448
17.22567 39.090378 5.5995126
17.40196 38.842789 5.5792317
18.894728 40.824551 5.8968391
19.491747 40.793587 5.9264808
19.604872 40.39135 5.8853984
18.994354 38.5299 5.6309743
19.146076 38.244171 5.6062732
19.429802 38.223198 5.620574
21.037203 40.764175 6.013195
20.464762 38.488533 5.7140489
20.741032 38.437283 5.7252297
22.603188 41.280098 6.1693339
22.969692 41.345181 6.2000155
23.298409 41.337345 6.2201667
23.58852 41.258167 6.229917
23.937727 41.279053 6.2551384
24.202122 41.151054 6.2581286
24.455179 41.003483 6.2583885
22.81399 37.723667 5.7789226
23.048136 37.588047 5.7797027
2.2272761 3.5831711 0.55159873
2.2360044 3.5484664 0.54834861
2.1547177 3.3734136 0.5232572
2.1764538 3.3617935 0.52351725
2.2084641 3.3657839 0.52624738
2.242801 3.3728101 0.52949756
2.1997306 3.2644291 0.51454675
2.2051814 3.2295814 0.51116657
2.2266488 3.2184358 0.51155657
2.2480624 3.2071486 0.51194662
2.274014 3.2021863 0.51337665
2.2994103 3.1962214 0.51467675
2.3306589 3.1980777 0.51727688
2.4073622 3.2610912 0.52988756
2.4202008 3.2367301 0.52832747
2.4400158 3.2218189 0.52832747
2.4844816 3.2390413 0.53365779
2.5067422 3.2268679 0.53417784
2.5215902 3.2051923 0.53313774
2.5473878 3.1974142 0.53443784
2.5713172 3.1871252 0.53534788
30.259647 37.035858 6.269309
30.50655 36.873936 6.2734694
31.008062 36.557289 6.2838697
31.32869 36.479168 6.303371
31.471907 36.194221 6.2873802
31.65081 35.952057 6.2789297
31.883348 35.77124 6.2813997
32.56134 35.641548 6.3283324
32.788845 35.451275 6.3301525
33.072845 35.321072 6.3430233
33.264393 35.091572 6.3383431
33.530575 34.940456 6.3480935
33.848656 34.841446 6.3677244
34.054852 34.626026 6.3664246
34.299553 34.449444 6.3725348
34.52718 34.255096 6.3756552
34.796906 34.101585 6.3867054
35.287292 33.743271 6.4002261
35.56575 33.594204 6.4132271
35.724091 33.331375 6.4047766
35.941059 33.123646 6.4071164
36.276337 33.0233 6.4306479
