# .PCD v0.7 - Point Cloud Data file format
VERSION 0.7
FIELDS x y z
SIZE 4 4 4
TYPE F F F
COUNT 1 1 1
WIDTH 1460
HEIGHT 1
VIEWPOINT 0 0 0 1 0 0 0
POINTS 1460
DATA ascii
6.6231551 8.8889141 -0.77235287
6.679975 8.8512936 -0.77263123
6.7596016 8.8434286 -0.77555364
6.8485413 8.8467512 -0.77951986
6.9193125 8.8257608 -0.78139859
6.9950447 8.8104849 -0.78383398
7.09835 8.8288202 -0.78933096
7.2021427 8.8462172 -0.794828
7.2937236 8.8472748 -0.79893333
7.3555427 8.8115454 -0.79976833
7.4970441 8.8698673 -0.80923152
7.635644 8.9222336 -0.81827724
8.6537514 9.9873066 -0.92091119
8.6740828 9.8875246 -0.91659713
8.7186909 9.8162136 -0.91492712
8.7587471 9.7402773 -0.91283965
8.8022308 9.6686468 -0.91116971
8.8478699 9.5997839 -0.90977806
8.9229403 9.5628185 -0.911448
14.748422 15.613493 -1.4972619
10.047567 10.506704 -1.0131774
10.13405 10.467792 -1.0154041
10.168064 10.374777 -1.0124121
10.22029 10.300859 -1.0112987
10.250784 10.205578 -1.0080979
10.257025 10.087227 -1.0026009
10.333751 10.038699 -1.0040622
10.999747 10.555318 -1.0625113
11.017972 10.443704 -1.058058
11.05199 10.347945 -1.0552052
11.104291 10.269776 -1.0541614
11.147211 10.183281 -1.0522827
17.091362 15.422562 -1.6049058
12.526885 11.164842 -1.1695986
12.577934 11.072606 -1.1679982
12.62757 10.979511 -1.1663282
12.656863 10.869326 -1.1628491
12.730165 10.797267 -1.1634753
17.463913 14.629278 -1.5882061
2.1856015 1.8074102 -0.19697632
2.1734753 1.7750301 -0.19488886
2.1928658 1.7685512 -0.19565426
2.2106979 1.7606577 -0.19628049
2.2198913 1.7458262 -0.19614133
2.2329252 1.7340086 -0.19635008
2.2371907 1.7154174 -0.19579342
2.242903 1.6980439 -0.19537593
17.248535 12.898053 -1.5014368
17.281607 12.758203 -1.4974706
17.379719 12.666614 -1.4992102
18.988361 13.661482 -1.6307905
2.2866149 1.6232455 -0.19474968
2.2728434 1.5925778 -0.1927318
2.2719078 1.5712228 -0.19182722
2.285625 1.5600659 -0.19217514
2.3116994 1.5571626 -0.19356678
2.3212104 1.5429488 -0.19356678
2.3222938 1.523204 -0.19287096
2.3265722 1.5056729 -0.19245347
19.08968 12.194101 -1.5791603
19.131227 12.055997 -1.5764467
19.207382 11.939962 -1.5766554
19.181635 11.761394 -1.5685838
19.141619 11.575847 -1.5594685
19.051783 11.20454 -1.5408205
19.20647 11.137474 -1.5477787
18.977402 10.849581 -1.523912
19.233068 10.839716 -1.539081
19.063768 10.59069 -1.5202937
18.404779 10.077284 -1.4627491
18.37233 9.9134731 -1.4553038
18.427526 9.7977457 -1.4548863
18.569479 9.7275457 -1.4613575
18.94529 9.7767515 -1.4861983
18.602081 9.4555397 -1.4546775
18.694538 9.3586388 -1.4573913
19.056721 9.3941736 -1.4811188
18.952465 9.1986561 -1.468594
18.989647 9.0731611 -1.4671328
19.023296 8.9462824 -1.4654628
19.057915 8.8201714 -1.4639319
19.091703 8.6939716 -1.4624012
19.130123 8.570138 -1.4612879
19.172306 8.4481707 -1.4605224
19.255817 8.3442564 -1.4629579
19.312162 8.2282944 -1.4633753
19.301559 8.0842047 -1.4587829
19.522377 8.0362558 -1.4717252
2.6608381 1.0756695 -0.19934213
2.6655343 1.058586 -0.19920295
2.661757 1.0382208 -0.19843756
2.6662145 1.0211549 -0.19829839
2.6742971 1.0054786 -0.19843756
2.6860311 0.99112386 -0.19885504
2.7005033 0.97768229 -0.19948129
2.7083316 0.96176189 -0.19962046
2.6670809 0.92871255 -0.19614133
2.6245842 0.8958838 -0.19259264
2.6167881 0.87532932 -0.19161849
2.6107352 0.85552603 -0.1907835
2.6064374 0.83644027 -0.19008768
2.6191337 0.82282549 -0.19064432
2.629854 0.80849946 -0.19106182
2.6404967 0.79407281 -0.19147933
2.6960402 0.79278338 -0.19516718
20.618036 5.9300799 -1.495592
20.556076 5.7759304 -1.4884945
20.31407 5.5736647 -1.4684548
19.863188 5.3191028 -1.4334549
19.62327 5.1260157 -1.4138327
18.840384 4.7981858 -1.3552443
18.485092 4.5870962 -1.3276201
18.394592 4.4449964 -1.319131
18.194288 4.2786012 -1.3028488
17.792315 4.0690122 -1.2722325
17.555967 3.901752 -1.2535845
17.564951 3.7907999 -1.2525407
17.162172 3.5937917 -1.2222029
16.951225 3.4411759 -1.2056422
18.940441 3.7242148 -1.3455724
18.960978 3.6075552 -1.3454332
18.985699 3.4916866 -1.345642
19.011677 3.3759987 -1.3459898
19.074314 3.2665238 -1.3489819
19.188488 3.1650133 -1.3556619
19.19277 3.0448704 -1.3546181
19.282095 2.9378693 -1.359628
19.298771 2.8193569 -1.3595585
19.303852 2.6992309 -1.3587234
19.155912 2.5588028 -1.3471727
19.186096 2.4431071 -1.3482165
19.188841 2.3238976 -1.3473815
19.20274 2.2061133 -1.3473815
19.205006 2.0870602 -1.3466161
19.224398 1.9698932 -1.3471032
19.242079 1.8524714 -1.3475207
19.239174 1.7331157 -1.3465465
19.249447 1.6150337 -1.3465465
19.253027 1.4964269 -1.3461291
19.259855 1.3781219 -1.3459898
19.291838 1.2614827 -1.3476598
19.322121 1.1444439 -1.3492602
15.915894 0.8446129 -1.1108711
15.921772 0.74698573 -1.1109407
15.896153 0.64805728 -1.1088532
15.829045 0.5480544 -1.1039128
3.5040886 0.099298477 -0.24366608
3.4986479 0.077661991 -0.2432486
3.4781122 0.055852976 -0.24178736
3.4604342 0.034329157 -0.24053489
3.4585845 0.013087763 -0.24039572
3.5955801 -0.0044863508 -0.31035799
3.5636051 -0.026310811 -0.30759683
3.5374761 -0.047824267 -0.3053534
3.4404964 -0.067623116 -0.2969836
3.4390206 -0.088706575 -0.29689732
3.4394076 -0.1098382 -0.2969836
3.4237356 -0.13037026 -0.29568931
3.4218757 -0.15133138 -0.29560304
3.4298382 -0.17277651 -0.2963796
9.2734442 -0.52461886 -0.80339831
9.2611017 -0.58094817 -0.80262172
9.2424545 -0.63673478 -0.80132741
9.2294312 -0.69276208 -0.80055088
9.1684065 -0.74478042 -0.79563254
9.1398449 -0.79893994 -0.79356164
9.1020365 -0.85194123 -0.7907142
9.0857334 -0.90668571 -0.78976506
9.0691004 -0.96126223 -0.78881592
9.0016489 -1.0100021 -0.78346616
8.9527397 -1.0601772 -0.77975583
8.9510088 -1.1157064 -0.78018725
8.8778086 -1.1619436 -0.77440608
8.8389273 -1.212063 -0.77164489
8.8106146 -1.2633047 -0.76983291
8.7987556 -1.316752 -0.76948774
8.7826357 -1.3694872 -0.76879746
8.757349 -1.4206381 -0.76733059
8.7101536 -1.4678874 -0.76396543
8.6499519 -1.5123804 -0.75947851
8.6238441 -1.5624073 -0.7580117
8.6229076 -1.6169455 -0.75878823
8.5560961 -1.6588246 -0.75378364
8.4617462 -1.6944668 -0.74636298
8.4033823 -1.7364751 -0.74213499
8.3584652 -1.7807379 -0.73911494
8.298727 -1.8213112 -0.73480064
8.2261734 -1.8583646 -0.72936457
8.1942377 -1.9040685 -0.72755259
8.1572056 -1.9482933 -0.72530913
8.1286488 -1.9942724 -0.72384226
8.066988 -2.0317008 -0.71944165
8.0321846 -2.0754275 -0.71745706
7.9923344 -2.117528 -0.71504104
7.9465013 -2.1576512 -0.7121073
7.8927999 -2.1951563 -0.70848328
7.8466039 -2.2342668 -0.70554954
7.8308339 -2.2818131 -0.70537698
7.780405 -2.3190043 -0.70209813
7.7202854 -2.3527586 -0.69795638
7.7114115 -2.4018629 -0.69847405
7.6623521 -2.4382572 -0.69536775
7.6178746 -2.4756804 -0.69269288
7.5675545 -2.5107672 -0.68950027
7.5312462 -2.5501235 -0.68760198
7.5050993 -2.5927076 -0.68665284
7.4796534 -2.6353981 -0.68579
7.4455276 -2.6748426 -0.68415052
7.418684 -2.7167084 -0.68320137
7.3794742 -2.7538168 -0.68113053
7.347538 -2.7933795 -0.67974991
7.3191118 -2.8340933 -0.67871451
7.2821212 -2.8712745 -0.67690247
7.2366295 -2.9047682 -0.6743139
7.1956134 -2.9396963 -0.67215675
7.1480021 -2.9715533 -0.66939557
6.635066 -2.8061693 -0.62288719
6.5591516 -2.82163 -0.61736488
6.5453658 -2.8634205 -0.61771005
6.5440578 -2.9108169 -0.61926317
6.5478606 -2.9607677 -0.62133408
6.5531063 -3.0117066 -0.62357754
6.5462379 -3.0573399 -0.62469923
6.5570574 -3.1115451 -0.62754667
6.8429646 -3.2988238 -0.65688407
6.8234892 -3.3411877 -0.65697032
6.7975073 -3.3803308 -0.6564526
6.7143869 -3.3905387 -0.65041256
6.6739526 -3.4216735 -0.64851427
6.6386924 -3.4552 -0.64713371
6.5715609 -3.4716685 -0.64264679
6.5115027 -3.4912107 -0.63885021
6.4733315 -3.5220516 -0.63721079
6.4437494 -3.5573711 -0.6364342
6.394855 -3.581749 -0.63375932
6.3424406 -3.6036928 -0.63073927
6.3400621 -3.6539841 -0.63272387
6.3166623 -3.6923144 -0.63263756
6.2587509 -3.7101724 -0.62909985
6.2230601 -3.7408063 -0.62780553
6.1880803 -3.7716603 -0.62659752
6.1436338 -3.7964649 -0.62444037
6.121068 -3.834619 -0.62452668
6.0503278 -3.842195 -0.61969465
6.0165863 -3.8727756 -0.6186592
5.9810286 -3.9019985 -0.61745119
5.9478326 -3.9325793 -0.61650205
5.9177976 -3.9651184 -0.61589801
5.8743992 -3.9884825 -0.61391342
5.8391457 -4.0171113 -0.61279172
5.81357 -4.0522943 -0.61270541
5.7462792 -4.0580029 -0.60821855
5.7091184 -4.0844898 -0.60692424
5.6984692 -4.1299672 -0.60847741
5.6513376 -4.1489348 -0.60614765
5.6041894 -4.1674809 -0.60381794
5.5506606 -4.180809 -0.60079789
5.5177751 -4.2093496 -0.6000213
5.4863248 -4.2388635 -0.59941733
5.45472 -4.2681494 -0.5988133
5.4198394 -4.2947321 -0.59786415
5.3747373 -4.3129411 -0.59579331
5.3358016 -4.3357859 -0.59441274
5.3021736 -4.3627467 -0.59363616
5.2714777 -4.3920097 -0.59320474
5.2307229 -4.4127083 -0.59165156
5.1952157 -4.437602 -0.59070241
5.1656289 -4.4674406 -0.59044355
5.1268773 -4.4892073 -0.58914924
5.0761256 -4.500092 -0.58647436
5.0447111 -4.5278263 -0.58604294
5.0160966 -4.5580249 -0.58595663
4.9836359 -4.5846701 -0.58543891
4.9546814 -4.6144838 -0.58535266
4.9110527 -4.630445 -0.58354062
4.8558846 -4.6350384 -0.58034801
4.8223386 -4.6599002 -0.57974404
4.7979274 -4.6935821 -0.58026177
3.1706948 -3.1399288 -0.38542715
3.1323733 -3.1402791 -0.38309741
3.0920701 -3.138149 -0.38050881
3.0838737 -3.1684861 -0.3818894
3.117538 -3.2426522 -0.38853344
3.0982687 -3.2624424 -0.38861972
3.0502479 -3.2515993 -0.38508201
2.7289286 -2.9450424 -0.34668455
2.6428735 -2.8875012 -0.33796963
2.4941621 -2.7588062 -0.3210575
2.4831593 -2.7807465 -0.32183409
2.4805474 -2.8123691 -0.32373238
2.4449222 -2.8065019 -0.32131636
2.4536455 -2.8516603 -0.32476783
2.4348116 -2.8651435 -0.32459524
2.4056578 -2.8662925 -0.32304209
2.3823037 -2.8740957 -0.32226551
2.4889336 -3.0405378 -0.33926392
3.008198 -3.7213185 -0.41338393
2.8460906 -3.5652902 -0.39405578
2.4288454 -3.0811412 -0.33874622
2.3003631 -2.9552543 -0.32330096
2.2330143 -2.9053276 -0.31631175
2.2006924 -2.8999264 -0.31424087
2.1482124 -2.8671296 -0.30923629
2.1240628 -2.8714457 -0.30828711
2.095829 -2.8699417 -0.30673397
2.0717719 -2.873857 -0.30578482
2.0471683 -2.8767741 -0.30474937
2.02547 -2.883574 -0.30414537
2.0049007 -2.8918538 -0.30371395
1.9792434 -2.8925898 -0.30250594
1.9608999 -2.9038539 -0.30241966
1.9380738 -2.9083693 -0.30164307
1.9086982 -2.9027245 -0.29983106
1.881092 -2.8993368 -0.29827791
1.8632667 -2.9108245 -0.29827791
1.8437754 -2.9196751 -0.29801905
1.8316197 -2.9402356 -0.2989682
1.8109368 -2.9471745 -0.29853678
1.7990147 -2.9684553 -0.2995722
1.7782114 -2.975162 -0.29914078
1.7568879 -2.9808671 -0.29862306
1.7375636 -2.9898682 -0.29845047
1.7216614 -3.0047956 -0.29888192
1.7125005 -3.0317852 -0.30052134
1.6952949 -3.089256 -0.30414537
1.6881543 -3.1215091 -0.30630255
1.6696339 -3.1799209 -0.31001285
1.6656512 -3.2201934 -0.31294659
1.6413391 -3.2214758 -0.31208372
1.6492409 -3.286696 -0.31743348
1.6391927 -3.3172975 -0.31941807
1.6445198 -3.3801506 -0.32450897
1.65473 -3.4548736 -0.33072159
1.6453938 -3.4901948 -0.3331376
1.6432325 -3.5417984 -0.33710676
1.6566328 -3.6288517 -0.34444112
1.6412734 -3.6543984 -0.34590799
1.6791993 -3.8010998 -0.35885093
1.6439365 -3.7839181 -0.35626236
1.7165611 -4.0184031 -0.37740251
1.7285128 -4.1161256 -0.3855997
1.7381884 -4.21138 -0.39353806
2.4202828 -5.9678297 -0.55670559
2.3799324 -5.9733129 -0.5558427
2.3388796 -5.9766698 -0.55480731
2.2928729 -5.9667287 -0.55256385
2.2446151 -5.949924 -0.54971635
2.2021847 -5.9477015 -0.54824948
2.1680298 -5.9676566 -0.54885352
2.1367226 -5.995863 -0.55023408
2.1097515 -6.037076 -0.55282271
2.0781574 -6.0659304 -0.55428958
2.0370939 -6.0672336 -0.55325413
1.9842643 -6.032299 -0.54893982
1.9475188 -6.0453086 -0.54902607
1.9178796 -6.0808983 -0.55118322
1.8799443 -6.0906482 -0.55101067
1.8347627 -6.0763173 -0.54868096
1.7915206 -6.0673952 -0.54686892
0.74423033 -2.6388395 -0.23641059
0.71400857 -2.5924482 -0.23183741
0.68697023 -2.5554087 -0.22812709
0.66672987 -2.5422289 -0.22657393
0.64322317 -2.5153847 -0.22381277
0.62296087 -2.4999495 -0.22208704
0.60596561 -2.4969475 -0.22148304
0.58559698 -2.4792871 -0.21958473
0.57037336 -2.4828336 -0.21958473
0.53972077 -2.4172499 -0.2134584
0.53310907 -2.4584889 -0.21682358
0.51596344 -2.4519641 -0.21596071
0.49812177 -2.4414175 -0.2147527
0.4815875 -2.4366088 -0.21406241
0.46587935 -2.4356039 -0.21371727
0.44820997 -2.4237216 -0.21242297
0.43192944 -2.4185798 -0.21173269
0.41437662 -2.4054754 -0.21035209
0.39765301 -2.3961782 -0.20931666
0.37980339 -2.3788967 -0.20759094
0.36550149 -2.3831518 -0.20776351
0.35174119 -2.3912637 -0.20828122
0.33664554 -2.3904173 -0.20802237
0.32436192 -2.4102111 -0.20957552
0.31121442 -2.4250021 -0.21069725
0.2974149 -2.4357665 -0.21147382
0.28269291 -2.4395249 -0.21164639
0.27119124 -2.4729044 -0.21440756
0.25181299 -2.4338913 -0.21086982
0.23745228 -2.4413402 -0.21138753
0.22219725 -2.4397748 -0.21112868
0.20663367 -2.4341433 -0.21052468
0.19114761 -2.4284129 -0.20992066
0.17703538 -2.4404705 -0.21086982
0.16212349 -2.4425046 -0.2109561
0.14545953 -2.4156082 -0.20854008
0.12999071 -2.4045174 -0.20750464
0.11585292 -2.4182065 -0.20862637
0.10014204 -2.3979681 -0.20681436
0.085285053 -2.3945549 -0.20646921
0.07120502 -2.415946 -0.20828122
0.055616077 -2.3834693 -0.20543377
0.041041419 -2.386754 -0.20569263
0.026472216 -2.3939345 -0.20629664
0.011753991 -2.3880742 -0.20577893
-0.0029096548 -2.3960714 -0.20646921
-0.017544815 -2.3870423 -0.20569263
-0.047071945 -2.3986001 -0.20672807
-0.061788596 -2.3982661 -0.20672807
-0.077076562 -2.4157658 -0.20828122
-0.10795034 -2.4425061 -0.21069725
-0.13656439 -2.4171252 -0.20862637
-0.1523914 -2.4321508 -0.21000695
-0.18013747 -2.4022803 -0.20759094
-0.19430935 -2.3941789 -0.20698693
-0.223675 -2.391614 -0.20698693
-0.24052246 -2.4120061 -0.20888524
-0.31879386 -2.4370797 -0.21181896
-0.34994948 -2.4418597 -0.21259554
-0.36507332 -2.4406519 -0.21268183
-0.37620398 -2.4137566 -0.21052468
-0.39260301 -2.421237 -0.21138753
-0.40563056 -2.4079759 -0.21043839
-0.41885346 -2.3966093 -0.20966181
-0.43568251 -2.4057579 -0.21069725
-0.4498848 -2.4001017 -0.21043839
-0.46308589 -2.3894715 -0.20974809
-0.48282549 -2.4119837 -0.21199153
-0.50406849 -2.4401968 -0.2147527
-0.52152318 -2.4487505 -0.21578814
-0.53333473 -2.430908 -0.21449384
-0.55790114 -2.4703479 -0.21829045
-0.66083544 -2.558176 -0.22778195
-0.69139516 -2.5469894 -0.22752309
-0.70540833 -2.5369403 -0.22700536
-0.72532725 -2.547895 -0.22838596
-0.74707943 -2.5644391 -0.23028424
-0.76621568 -2.5712638 -0.23131968
-0.77878326 -2.556031 -0.23037054
-0.79741502 -2.5607164 -0.2312334
-1.9019805 -5.9772482 -0.54220945
-1.9340013 -5.9512529 -0.54091519
-1.9667161 -5.927927 -0.53987974
-2.003052 -5.9157481 -0.53987974
-2.0373607 -5.8976965 -0.53936201
-2.0715232 -5.8794465 -0.53884429
-2.1058757 -5.8619375 -0.53841287
-2.139406 -5.8423567 -0.53780884
-2.1793938 -5.8403206 -0.53884429
-2.2194371 -5.8380127 -0.53987974
-2.253058 -5.8187103 -0.53936201
-2.289084 -5.8057032 -0.53944832
-2.3313448 -5.8081903 -0.54100144
-2.3752291 -5.8140659 -0.54289973
-2.4135361 -5.8058219 -0.54350376
-2.4440691 -5.778975 -0.54238206
-2.4786947 -5.7620392 -0.54220945
-2.5144026 -5.7476344 -0.54229575
-2.5536714 -5.7412009 -0.54315859
-2.5876193 -5.7227006 -0.54289973
-2.6289253 -5.720294 -0.54419404
-2.668191 -5.7130818 -0.54505694
-2.7078941 -5.7065034 -0.54600608
-2.7519436 -5.7086267 -0.54781806
-2.788672 -5.6952124 -0.54816324
-2.8266699 -5.6842384 -0.54876721
-2.86374 -5.6712337 -0.54919869
-2.8957567 -5.6482363 -0.54868096
-2.9202397 -5.61092 -0.54678267
-2.9453046 -5.5752788 -0.54505694
-2.9865203 -5.570272 -0.54635119
-3.0273092 -5.5640936 -0.5475592
-3.0647635 -5.5515189 -0.54816324
-3.0987694 -5.5326095 -0.54816324
-3.1356115 -5.5186882 -0.54868096
-3.1649373 -5.4915767 -0.54790437
-3.184998 -5.4488311 -0.54557461
-3.2280242 -5.4454679 -0.54721409
-3.2731826 -5.4451976 -0.54919869
-3.2971985 -5.409699 -0.54764551
-3.3266633 -5.3834333 -0.54704148
-3.3744431 -5.3865595 -0.54945755
-3.4031579 -5.3590245 -0.54876721
-3.4284265 -5.3263144 -0.5475592
-3.4702985 -5.3193626 -0.54902607
-3.4995749 -5.2929826 -0.54850835
-3.5303226 -5.2689276 -0.54824948
-3.5592275 -5.2422209 -0.54773182
-3.5879383 -5.2153587 -0.54721409
-3.6551945 -5.2439175 -0.55256385
-3.6786807 -5.2091842 -0.55126953
-3.703618 -5.1767917 -0.55023408
-3.7358973 -5.1547756 -0.55032039
-3.7633286 -5.1261339 -0.54971635
-3.7911441 -5.0981493 -0.54919869
-3.8199563 -5.0716085 -0.54885352
-3.8497946 -5.0464902 -0.54868096
-3.8959157 -5.0424824 -0.55083811
-3.9366059 -5.0310359 -0.55221868
-3.9612141 -4.9989781 -0.55135584
-3.9874475 -4.9691401 -0.55075181
-4.0291724 -4.9584966 -0.55230498
-4.0569892 -4.9306035 -0.55195981
-4.0673962 -4.8818903 -0.54928493
-4.1004863 -4.8606486 -0.54971635
-4.1412339 -4.8482747 -0.55118322
-4.1637354 -4.8144846 -0.55023408
-4.1899166 -4.7850981 -0.54980266
-4.2244859 -4.7652631 -0.55049294
-4.2609658 -4.7474079 -0.55144209
-4.3201661 -4.7543526 -0.55532497
-4.3452101 -4.7233558 -0.55480731
-4.3476281 -4.6681728 -0.55144209
-4.3591027 -4.6232872 -0.54928493
-4.4066501 -4.6166315 -0.55170095
-4.4612026 -4.6167293 -0.55497986
-4.4831762 -4.5828595 -0.55420327
-4.5056033 -4.549602 -0.55351299
-3.8992841 -3.8893857 -0.47594154
-3.8748159 -3.8178411 -0.47007406
-3.9088786 -3.8044164 -0.47136837
-3.9091651 -3.7582662 -0.46860719
-3.919148 -3.7218609 -0.46705404
-3.8895926 -3.64867 -0.46084142
-3.9206769 -3.6328607 -0.46187687
-4.5631948 -4.1764145 -0.53470254
-3.8910558 -3.5176659 -0.45324823
-3.8925016 -3.4758093 -0.4509185
-3.8659341 -3.4096861 -0.44539616
-3.8852804 -3.3845923 -0.4452236
-3.9354289 -3.386029 -0.44858876
-3.9887774 -3.3895569 -0.45229906
-4.0171313 -3.3714228 -0.45316193
-4.8799868 -4.0447454 -0.54790437
-5.0959105 -4.1712179 -0.56930339
-5.1183095 -4.1373663 -0.56895822
-5.1249123 -4.0909672 -0.56688738
-5.1522646 -4.0612946 -0.56714624
-5.2053909 -4.0516324 -0.57025254
-4.6969361 -3.6098456 -0.51200926
-4.1578794 -3.1551952 -0.45100477
-4.1604166 -3.1170797 -0.44919276
-4.1522307 -3.0713508 -0.44625902
-4.1943316 -3.0628529 -0.44876134
-5.3089666 -3.8269987 -0.56576562
-5.4882069 -3.905247 -0.58233261
-5.5104346 -3.8703532 -0.58216006
-5.3482146 -3.7076294 -0.56257308
-5.3585296 -3.6663055 -0.56127876
-5.3792734 -3.632242 -0.5611062
-5.3799028 -3.5848045 -0.55886275
-5.3951373 -3.547348 -0.55817246
-5.4259958 -3.5201414 -0.55912161
-5.45085 -3.48893 -0.55946672
-5.7897406 -3.6559432 -0.59199673
-5.8365879 -3.6356237 -0.59449899
-5.8842516 -3.6153884 -0.59708762
-5.9242177 -3.5900576 -0.5988996
-5.9350162 -3.5469956 -0.5977779
-5.9583855 -3.511524 -0.59795046
-6.0039392 -3.4889131 -0.60036647
-6.0382004 -3.4594359 -0.60166079
-6.0463014 -3.4149725 -0.60036647
-6.1541886 -3.4262676 -0.60899514
-6.1672354 -3.3841286 -0.60821855
-6.1703568 -3.3367462 -0.60649282
-6.2021446 -3.304913 -0.60761452
-6.2461233 -3.2792983 -0.60994428
-6.2723217 -3.2441146 -0.61054826
-6.3196287 -3.2195861 -0.61322314
-6.3312502 -3.1767282 -0.61244655
-6.341691 -3.1334076 -0.61158371
-6.3975296 -3.1123047 -0.61512142
-6.442564 -3.0854702 -0.61762375
-6.4586716 -3.0446069 -0.61736488
-6.4962101 -3.0137241 -0.61917692
-6.5345187 -2.9829085 -0.62107521
-6.5590606 -2.9456141 -0.62167919
-6.5870357 -2.9097407 -0.62262833
-6.6321793 -2.8811767 -0.62521696
-6.6579781 -2.84395 -0.62599355
-6.6587687 -2.7961016 -0.62444037
-6.6905346 -2.7612722 -0.62582093
-6.7138147 -2.7227886 -0.62642497
-6.7831502 -2.702559 -0.63134331
-6.8079548 -2.6641548 -0.63211983
-6.8474231 -2.6312649 -0.63427705
-6.8606429 -2.5881457 -0.63401818
-6.8735914 -2.5449631 -0.63375932
-6.9059329 -2.5088623 -0.63531244
-6.9033661 -2.4600875 -0.63367301
-6.9634752 -2.4334574 -0.63781476
-7.0150332 -2.403276 -0.64117992
-7.030592 -2.3605044 -0.64126623
-7.0364261 -2.3145196 -0.64048964
-7.0723057 -2.2783267 -0.64247423
-7.117507 -2.244777 -0.64532167
-7.1368585 -2.2028253 -0.64583939
-7.1464252 -2.157841 -0.64549422
-7.169086 -2.1167717 -0.64635712
-7.1905546 -2.0752292 -0.64713371
-7.1973991 -2.0294476 -0.64661598
-7.2356505 -1.9923873 -0.64894569
-7.2477388 -1.9479527 -0.64894569
-7.2547364 -1.9021814 -0.64851427
-7.2624102 -1.8566445 -0.6481691
-7.2775331 -1.8130115 -0.64851427
-7.3417706 -1.7812408 -0.65325999
-7.367106 -1.739593 -0.65455431
-7.3698735 -1.6925728 -0.65386403
-7.362618 -1.6434141 -0.65231085
-7.3852205 -1.6009505 -0.65343261
-7.4348774 -1.5640129 -0.65697032
-7.4472628 -1.5189611 -0.65722919
-7.463284 -1.4745885 -0.65783322
-7.4976344 -1.4336308 -0.66007662
-7.5239239 -1.3908585 -0.6616298
-7.5440855 -1.3467671 -0.66266525
-7.5227523 -1.2953811 -0.66007662
-7.5669241 -1.2552291 -0.66326922
-7.5813704 -1.2098745 -0.66387326
-7.5975142 -1.1646917 -0.66464984
-7.6084599 -1.118632 -0.66499496
-7.6102476 -1.0712321 -0.66456354
-7.6048298 -1.0229229 -0.66352808
-7.6070094 -0.97573441 -0.66318297
-7.6286769 -0.93097079 -0.66456354
-7.6886768 -0.89044672 -0.66930926
-7.7019181 -0.84412116 -0.6699996
-7.7059617 -0.79674476 -0.66991329
-7.7037644 -0.74877244 -0.66930926
-7.7230964 -0.70284289 -0.67060357
-7.7014532 -0.65325308 -0.66836011
-7.7639155 -0.61059231 -0.67345101
-7.7814279 -0.56395012 -0.67465901
-7.8006468 -0.51724768 -0.67603964
-7.8066573 -0.46955344 -0.6762985
-7.8064065 -0.4214828 -0.67603964
-7.7939191 -0.37286204 -0.67474532
-7.792078 -0.32486653 -0.67440021
-7.7809815 -0.27658942 -0.67327845
-7.7606239 -0.2281975 -0.67138016
-7.7439504 -0.18015838 -0.66982698
-7.7439132 -0.13262196 -0.66974074
-7.7505589 -0.085169218 -0.67025846
-7.7429652 -0.037572648 -0.66956812
-7.7291021 0.0099196667 -0.66836011
-7.712956 0.0572256 -0.66697955
-7.7094717 0.10450973 -0.66672069
-7.6797986 0.15124241 -0.66421837
-7.6607985 0.19789827 -0.66266525
-7.655458 0.24477282 -0.66232008
-7.6567984 0.29185516 -0.66257894
-7.6200275 0.33728787 -0.65955895
-7.587965 0.38253137 -0.65697032
-7.5735383 0.42840749 -0.65593487
-7.5767331 0.47524416 -0.6564526
-7.5826201 0.52234167 -0.65722919
-7.580265 0.56893247 -0.65731549
-7.557765 0.6139003 -0.65567607
-7.5429387 0.65930778 -0.65472686
-7.5278397 0.70455635 -0.65377772
-7.5025568 0.74865502 -0.65196574
-7.4829612 0.79310018 -0.65067142
-7.4373622 0.83444422 -0.64713371
-7.4400163 0.88100082 -0.64782399
-7.4473228 0.92823756 -0.64894569
-7.4474134 0.97469193 -0.64946342
-7.4304361 1.018881 -0.64851427
-7.41221 1.0627569 -0.64747882
-7.3986526 1.107185 -0.64687485
-7.3641577 1.1482629 -0.64445883
-7.3333712 1.1895975 -0.64238793
-7.3377228 1.2365588 -0.64342338
-7.332942 1.2820739 -0.64368224
-7.3053312 1.3234911 -0.64195651
-7.273572 1.3638834 -0.6398856
-7.2650661 1.4084876 -0.6398856
-7.2592177 1.4536256 -0.64014447
-7.2501616 1.49814 -0.64014447
-7.2349863 1.5413522 -0.6396268
-7.2098231 1.5822988 -0.63824618
-7.1863737 1.6234336 -0.63703817
-7.1675434 1.6654682 -0.63626158
-7.1116462 1.6985369 -0.63220614
-7.1088305 1.7440405 -0.63289642
-7.1347075 1.7968737 -0.63617533
-7.1167955 1.8388728 -0.6355713
-7.0822659 1.8763816 -0.63350046
-7.0658116 1.9184968 -0.63306904
-7.0462284 1.95968 -0.6323787
-7.0254478 2.0004222 -0.63160217
-7.0053892 2.0412619 -0.63091183
-6.9994159 2.0861998 -0.63151586
-6.9912481 2.1305606 -0.63194728
-6.9723363 2.1716402 -0.63142955
-6.9474883 2.2107551 -0.63039416
-6.9337921 2.2533426 -0.63039416
-6.925509 2.2977276 -0.63091183
-6.8971257 2.3353851 -0.62961757
-6.8685412 2.372781 -0.62832326
-6.8820424 2.4248142 -0.63091183
-6.8529706 2.4619431 -0.62961757
-6.8367996 2.5036032 -0.62953126
-6.8231759 2.5462024 -0.62970382
-6.7925243 2.5823557 -0.62832326
-6.7338161 2.6074357 -0.62435406
-6.7297387 2.6534555 -0.62547582
-6.7271991 2.7002659 -0.62677008
-6.7105041 2.741492 -0.62677008
-6.6953959 2.7833803 -0.62694269
-6.6791091 2.8247983 -0.62702894
-6.6662264 2.8676958 -0.62746042
-6.6092572 2.8913739 -0.62375009
-6.5877509 2.9302533 -0.62340492
-6.5705552 2.9710305 -0.62349123
-6.5404329 3.0058818 -0.62236953
-6.4920783 3.0320432 -0.61952204
-6.4787526 3.0743835 -0.62003976
-6.4768176 3.1222992 -0.62167919
-6.4450107 3.1558473 -0.62047118
-6.4219575 3.1935589 -0.62012607
-6.4066877 3.2351489 -0.62055749
-6.3760786 3.268944 -0.61952204
-6.3417606 3.3006456 -0.61814147
-6.3249125 3.3413575 -0.61848664
-6.3271198 3.392344 -0.62073004
-6.3228126 3.44015 -0.62236953
-6.3164124 3.4870672 -0.6238364
-6.2905512 3.523324 -0.62340492
-6.2731447 3.5643167 -0.6238364
-6.2433882 3.5982635 -0.62305981
-6.2220521 3.6370075 -0.62314606
-6.1944766 3.6720681 -0.62262833
-6.1513362 3.6976886 -0.62055749
-6.1140704 3.7265477 -0.61909062
-6.0817671 3.7582312 -0.61814147
-6.0636582 3.7986512 -0.6186592
-6.0637836 3.8507407 -0.62107521
-6.0526075 3.8959637 -0.62236953
-6.0160728 3.9248629 -0.62107521
-5.9636221 3.9430196 -0.61814147
-5.9285564 3.9723279 -0.61701977
-5.9189072 4.0187039 -0.61857289
-5.8933167 4.0543814 -0.61848664
-5.8495312 4.0773621 -0.61650205
-5.8162646 4.10743 -0.61563915
-5.7990551 4.1488376 -0.61650205
-5.7968822 4.2012978 -0.61900431
-5.7854495 4.2474003 -0.62055749
-5.7592788 4.2828193 -0.62055749
-5.7424407 4.3252697 -0.62159294
-5.7205462 4.3640494 -0.62211066
-5.6707993 4.381403 -0.61960834
-5.6234088 4.4001527 -0.61736488
-5.5955234 4.4339557 -0.61727864
-5.5472326 4.4513693 -0.61494887
-5.56002 4.5179949 -0.61943579
-5.5360394 4.5551906 -0.61986721
-5.5056891 4.5871601 -0.61960834
-5.4797235 4.6227837 -0.61986721
-5.4489827 4.6543779 -0.61960834
-5.3939481 4.6649141 -0.61658829
-5.3817124 4.7123628 -0.61848664
-5.3683519 4.7591748 -0.62029862
-5.357584 4.8086619 -0.62245578
-5.3383002 4.8508253 -0.62366378
-5.2886395 4.8652768 -0.62133408
-5.254313 4.8935614 -0.62081635
-5.2227378 4.9243422 -0.62064379
-5.2003517 4.9638629 -0.62159294
-5.1783929 5.0039859 -0.62262833
-5.1511521 5.0391498 -0.62305981
-5.1293378 5.0797753 -0.62418151
-5.0966654 5.1097417 -0.62400895
-5.0603223 5.1359501 -0.62340492
-5.0287132 5.166903 -0.62340492
-5.0155568 5.2170534 -0.62573469
-5.003346 5.2686815 -0.62823695
-4.9750128 5.3036418 -0.62875468
-4.9430542 5.3347988 -0.62884098
-4.9061913 5.3606191 -0.62832326
-4.8705344 5.3876653 -0.62797809
-4.8400393 5.4204216 -0.62832326
-4.8080072 5.4515123 -0.62849581
-4.7751212 5.4816623 -0.62858212
-4.7647867 5.5380468 -0.63168842
-4.7532949 5.5937514 -0.63470846
-4.7272081 5.6327329 -0.63583016
-4.6792073 5.6455235 -0.63401818
-4.6533132 5.6849217 -0.63522619
-4.6239796 5.7203407 -0.63600272
-4.5744991 5.7306967 -0.63401818
-4.5540509 5.7774358 -0.63608903
-4.5185156 5.8052697 -0.63608903
-4.484024 5.8344655 -0.63626158
-4.4698195 5.8904409 -0.63936794
-4.444942 5.9329062 -0.64100736
-4.4031229 5.9528589 -0.64023077
-4.3612266 5.9725227 -0.63945419
-4.3309054 6.0080605 -0.64040333
-4.3095541 6.0564389 -0.6427331
-4.2854805 6.1015191 -0.64471769
-4.2513676 6.1326122 -0.64523536
-4.2114081 6.1552939 -0.64489025
-4.1685433 6.1735873 -0.64411366
-4.1344514 6.2048526 -0.64471769
-4.1099839 6.250916 -0.64687485
-4.0796843 6.2885537 -0.6481691
-4.0114841 6.2673163 -0.64342338
-3.9724209 6.2909698 -0.64333707
-3.9442797 6.332139 -0.6450628
-3.9163041 6.3740473 -0.64687485
-3.9127448 6.456749 -0.65282857
-3.8413672 6.4276128 -0.64747882
-3.8059022 6.4579287 -0.6481691
-3.7762163 6.4983878 -0.64989483
-3.750138 6.5456409 -0.65231085
-3.7099044 6.5685282 -0.65231085
-3.664685 6.5824633 -0.65144801
-3.6266229 6.6091924 -0.65187943
-3.5983222 6.6541061 -0.65412289
-3.5658581 6.6918864 -0.65567607
-3.5312135 6.7259893 -0.65688407
-3.5004032 6.7678833 -0.65886861
-3.4637849 6.7989988 -0.65981776
-3.4278097 6.8317008 -0.66093951
-3.3897982 6.8606434 -0.6617161
-3.3480742 6.8822093 -0.66180235
-3.3036311 6.8981304 -0.66137093
-3.2578447 6.9110622 -0.66068065
-3.2208281 6.9426708 -0.66180235
-3.1901648 6.9885859 -0.66430467
-3.1476316 7.0089378 -0.66439098
-3.0993335 7.0162721 -0.66326922
-3.057018 7.0369849 -0.66344184
-3.0204346 7.0711851 -0.66490871
-2.983161 7.1042824 -0.66628927
-2.9414139 7.1270576 -0.66672069
-2.8942583 7.1366625 -0.6659441
-2.8681123 7.1987123 -0.67008585
-2.8238881 7.2161751 -0.67008585
-2.7824159 7.2408061 -0.67077613
-2.7400444 7.2633357 -0.67129385
-2.6975012 7.2856174 -0.67181158
-2.6551278 7.3085861 -0.67241561
-2.6082268 7.3191094 -0.67189789
-2.5583389 7.320868 -0.67060357
-2.5185363 7.3515081 -0.67198414
-2.477186 7.3781567 -0.67301959
-2.4331129 7.3970032 -0.67336476
-2.3876798 7.4117928 -0.67336476
-2.3565392 7.471911 -0.67750651
-2.3106482 7.4862299 -0.67750651
-2.2600627 7.4850068 -0.67612588
-2.2124004 7.493 -0.67560822
-2.1710784 7.522707 -0.67707509
-2.1281233 7.5473938 -0.67811048
-1.666049 6.0503564 -0.54246831
-1.5769234 5.8670759 -0.52512479
-1.540136 5.8737502 -0.52486593
-1.4974047 5.857028 -0.52253616
-1.4546959 5.8390374 -0.52012014
-1.4153179 5.8333306 -0.51882589
-1.7975103 7.6124182 -0.67638475
-1.7766318 7.73594 -0.68639398
-1.7243575 7.7253041 -0.68449569
-1.3206948 6.0921969 -0.53884429
-1.283289 6.1001859 -0.53884429
-1.2458348 6.1079454 -0.53884429
-1.5591567 7.8913774 -0.69562662
-1.5129516 7.912539 -0.69666207
-1.2365358 8.0662651 -0.70572215
-1.186874 8.0727148 -0.70563585
-1.1385679 8.0887241 -0.70641243
-1.0906411 8.1083946 -0.70753413
-1.0332652 8.0556431 -0.70235693
-0.66770303 5.4708157 -0.47628668
-0.70791429 6.1121497 -0.53185511
-0.64988923 5.929203 -0.51554698
-0.51898187 5.3387971 -0.46351629
-0.50760597 5.5770259 -0.48396617
-0.47876346 5.643569 -0.48948848
-0.64416659 8.1909943 -0.71055418
-0.59598303 8.223609 -0.71305645
-0.42672068 6.4347677 -0.55748218
-0.38310447 6.3686461 -0.55152839
-0.34262428 6.3450117 -0.54928493
-0.3037807 6.3489847 -0.54945755
-0.26602098 6.3795958 -0.55195981
-0.2284274 6.4249163 -0.55575645
-0.17864555 6.0736694 -0.52521104
-0.14021784 6.0248513 -0.52089673
-0.10648286 6.2148614 -0.53729117
-0.066262163 6.0251222 -0.52081043
-0.028743869 5.9118414 -0.51097381
0.0076999823 6.0404253 -0.52210474
0.045290191 6.1109977 -0.52823108
0.084910743 6.267005 -0.54177803
0.1674515 8.5015621 -0.73540467
0.21981904 8.5083408 -0.73609495
0.27227604 8.5147991 -0.73678523
0.32455471 8.5139637 -0.73687148
0.37714201 8.5197735 -0.73756182
0.4305155 8.5391903 -0.73946011
0.48560512 8.5841312 -0.74360186
0.54107517 8.6257343 -0.74748474
0.5923475 8.5983992 -0.74541384
0.64330482 8.5707588 -0.743343
0.69612402 8.5696287 -0.74360186
0.75129664 8.5949717 -0.74619043
0.80652773 8.6169815 -0.7485202
0.86136448 8.6316977 -0.75024587
0.91557175 8.6381388 -0.75128132
0.96922386 8.638299 -0.75179905
1.0224435 8.6341667 -0.7519716
1.075156 8.6257544 -0.75179905
1.1275451 8.6150427 -0.75145394
1.179708 8.6030273 -0.75102246
1.1966912 8.3461227 -0.72919202
1.0697255 7.1483879 -0.6249581
1.0997502 7.0530963 -0.61719233
1.1205087 6.9075546 -0.60502595
1.1623747 6.8976021 -0.60476708
1.1736135 6.7127109 -0.58914924
1.2131811 6.6965604 -0.58837265
1.2547985 6.6919284 -0.58863151
1.3007667 6.7095318 -0.59087497
1.3473892 6.7287769 -0.59329098
1.4017574 6.7838001 -0.5988996
1.463287 6.8686132 -0.6071831
1.896283 8.6402864 -0.76508713
1.9501413 8.6323757 -0.7654323
2.0032973 8.6212177 -0.76551861
2.0575473 8.6145773 -0.76603633
2.1125033 8.6104984 -0.76681286
2.1679735 8.6080008 -0.76776201
2.2242401 8.6080408 -0.76897001
2.2859476 8.6279373 -0.77199006
2.3448493 8.6358624 -0.77397466
2.4194193 8.6990585 -0.78096384
2.481209 8.7137527 -0.78363872
2.5432699 8.7280149 -0.78631359
2.6055984 8.7418432 -0.78898847
2.6995618 8.8581562 -0.8009823
2.7749004 8.9089594 -0.80710864
2.8437126 8.9363852 -0.81116408
2.9185083 8.9803543 -0.8167727
2.9867337 9.0019922 -0.82039672
2.5645032 7.57371 -0.69148487
2.5751395 7.4542499 -0.68199337
2.5999699 7.3791118 -0.67655736
2.6037638 7.2476959 -0.6659441
2.6608624 7.2661967 -0.6691367
2.6768324 7.1731958 -0.66206121
2.7137146 7.138011 -0.66033548
2.7783284 7.1751103 -0.66534013
2.8212054 7.1551471 -0.66508126
3.6221974 9.0237961 -0.84110546
3.6842806 9.0180016 -0.84265858
3.757138 9.0375423 -0.84662777
3.8222232 9.0372581 -0.84878492
3.8917768 9.0465813 -0.85189122
3.9655817 9.064517 -0.85586041
4.0308442 9.061861 -0.85793126
4.0917077 9.0487585 -0.85905302
4.1612988 9.0542593 -0.86198676
4.2155113 9.0258474 -0.86172789
4.2665424 8.9908123 -0.860865
3.7583072 7.7960238 -0.7485202
3.7745249 7.7083945 -0.74230754
3.8009005 7.6431632 -0.7382521
3.8144927 7.5538893 -0.7318669
3.8312247 7.4727173 -0.72625828
3.8650448 7.4260917 -0.72401482
3.9100723 7.4013557 -0.72392857
3.9610622 7.3877606 -0.72496396
4.0167937 7.3825693 -0.72686231
4.9682603 8.9992085 -0.88925326
5.0345831 8.9885464 -0.8912378
5.0980086 8.9722109 -0.89270467
5.1619201 8.9562979 -0.89425784
5.2298503 8.9468184 -0.8965013
5.2846484 8.9145603 -0.8965013
5.3546472 8.9075823 -0.89908987
5.4289069 8.9068851 -0.90236878
5.499692 8.8996792 -0.90504366
5.5674195 8.8868723 -0.90720081
5.1790676 8.1553535 -0.8356694
5.2042046 8.0848875 -0.83170021
5.2319393 8.0194283 -0.8282488
5.2651114 7.9630742 -0.82574648
5.2939076 7.9008236 -0.82264018
5.3327723 7.8541799 -0.82117331
5.3944173 7.8410091 -0.82324415
6.152307 8.826108 -0.93075699
6.2138181 8.7987709 -0.93187869
6.2723274 8.7669601 -0.93256897
6.3312645 8.735569 -0.93334556
6.4047923 8.7238607 -0.9362793
6.4700913 8.700386 -0.93800503
6.5245523 8.6621141 -0.93817759
6.5727453 8.6155806 -0.9374873
6.6327958 8.584549 -0.93852276
6.703764 8.5672274 -0.94111133
6.7691994 8.5423298 -0.94292337
6.8364515 8.5192823 -0.94499421
6.9017906 8.4934111 -0.94680625
6.9556746 8.4532099 -0.94706511
7.0137892 8.418026 -0.94792795
7.0743032 8.3854923 -0.94913596
7.1385641 8.3570766 -0.95086169
7.2033939 8.3289423 -0.95267373
7.2661781 8.2980776 -0.95422685
7.3427334 8.2824106 -0.95759201
7.4173727 8.2638912 -0.96069837
7.4846897 8.2366562 -0.96285552
7.5485787 8.2052393 -0.96458125
7.6055732 8.1660576 -0.96544409
7.6589532 8.1228619 -0.96587551
7.7175932 8.085083 -0.96699727
7.8106732 8.0827103 -0.97243327
7.9068007 8.082346 -0.9782145
8.0172367 8.0952625 -0.98572141
8.0653467 8.0445108 -0.98554879
8.1372652 8.0172453 -0.98830998
8.2034407 7.9838409 -0.99038088
8.2666378 7.9471641 -0.99210656
8.3246374 7.9052095 -0.99322832
8.37008 7.8512549 -0.99288315
8.4224815 7.8038125 -0.99340087
8.4702063 7.751986 -0.99340087
8.5420008 7.7219143 -0.9962483
8.6204338 7.6972256 -0.99987239
8.6675005 7.6441865 -0.99987239
8.714241 7.5908599 -0.99987239
8.7878428 7.560638 -1.0029787
8.8424196 7.5136704 -1.0039278
8.9051456 7.473362 -1.0058261
9.0014601 7.4605389 -1.011521
2.2150784 1.7907252 -0.24564323
2.2306962 1.7808292 -0.24616094
2.2454932 1.7701919 -0.24659237
2.2563126 1.7563804 -0.24659237
2.2686272 1.7437171 -0.24676494
2.2800772 1.7303663 -0.24685124
2.2882597 1.7145517 -0.24659237
9.4828272 7.0139408 -1.0204948
9.528904 6.957973 -1.0208399
9.5908146 6.9133554 -1.0229108
9.6143837 6.8410926 -1.0209262
2.2949355 1.6120603 -0.24184662
2.3096964 1.6013541 -0.24236435
2.3285234 1.5933399 -0.24331349
2.3481643 1.5857121 -0.24434893
2.3657818 1.5556825 -0.24417636
9.9242144 6.3519669 -1.0194594
9.9554205 6.2861662 -1.0186828
9.9912672 6.223382 -1.0184239
10.011439 6.1510081 -1.0166119
10.038768 6.0832677 -1.0155765
10.069919 6.0179787 -1.0149724
10.128113 5.9687228 -1.0171297
10.202448 5.9284892 -1.0209262
10.269753 5.8836045 -1.0240326
10.306528 5.8209701 -1.0241188
10.368165 5.7721581 -1.0267074
10.42435 5.7199335 -1.0287783
10.463633 5.6582327 -1.0292097
10.507825 5.5990758 -1.0301589
10.560507 5.54422 -1.0319709
10.63061 5.4980817 -1.0355086
10.663257 5.4322977 -1.0354223
10.704402 5.3707881 -1.036199
10.746981 5.3098598 -1.0371481
10.759649 5.23423 -1.0352497
10.796056 5.1702628 -1.0356812
10.806849 5.0941525 -1.0336967
10.849652 5.0331974 -1.0348183
10.884863 4.9685988 -1.0352497
10.926051 4.9066143 -1.0362852
10.98238 4.8511543 -1.0387875
11.099663 4.8217821 -1.047071
11.115296 4.747715 -1.0457767
11.13044 4.6736383 -1.0444824
11.14233 4.5984144 -1.0429293
11.16572 4.5280876 -1.0424979
2.7219307 1.0846328 -0.25271872
2.6951349 1.0548418 -0.24961239
2.6969063 1.0364982 -0.24918096
2.6985548 1.0181727 -0.24874952
2.7056856 1.0019414 -0.24883582
2.7061641 0.98327988 -0.24831811
2.7018232 0.9629783 -0.24736895
2.6766443 0.9355371 -0.2445215
2.6182439 0.89714146 -0.23865403
2.6076436 0.87566924 -0.23718716
2.6016107 0.85591733 -0.23615173
2.602072 0.83841074 -0.23572029
2.6195192 0.82632416 -0.23684201
2.6388197 0.81464249 -0.23813631
2.6523523 0.80102712 -0.23891288
11.825234 3.4914014 -1.0668306
11.87228 3.4262354 -1.0691603
11.883491 3.3506207 -1.0682975
11.939366 3.2874267 -1.07149
12.000684 3.2252243 -1.0752003
12.005792 3.1477389 -1.0739061
12.020054 3.0727799 -1.0734746
12.058017 3.0037847 -1.0752003
12.093648 2.9339688 -1.0767535
12.128876 2.8638291 -1.0783067
12.168552 2.7944822 -1.0802913
12.202 2.7234538 -1.0817581
12.263269 2.6582401 -1.0857273
12.343695 2.5964777 -1.0914222
12.385752 2.5260644 -1.0937519
12.412746 2.4523363 -1.0947874
12.428539 2.3763139 -1.0948737
12.450724 2.3014576 -1.0955639
12.428322 2.2185411 -1.0923713
12.362173 2.1285489 -1.0853821
12.346498 2.0479288 -1.0828799
12.291931 1.9614593 -1.0770124
11.989593 1.837853 -1.049487
11.737468 1.7255666 -1.0264486
11.507116 1.6196381 -1.0053947
11.453646 1.5405033 -0.99987239
11.365052 1.4576508 -0.99133003
11.127538 1.3578458 -0.9698447
11.108938 1.2864492 -0.96751499
11.042347 1.2101235 -0.96104348
10.903889 1.1272888 -0.94835937
10.793591 1.0489936 -0.93817759
10.735334 0.97687858 -0.93256897
10.730206 0.91006351 -0.93161982
10.699833 0.84139621 -0.92851353
10.674985 0.77356791 -0.92592496
10.664618 0.70706457 -0.92463064
10.677707 0.64215243 -0.92540723
10.728202 0.57914621 -0.92946267
10.940532 0.5232994 -0.94758284
10.970412 0.45727938 -0.94991255
11.045693 0.39253896 -0.95621145
11.053869 0.32493201 -0.95672917
3.6035714 0.083963215 -0.31113458
3.5920649 0.06164619 -0.31009912
3.5953646 0.039637286 -0.31035799
3.592551 0.017561387 -0.31009912
3.5540645 -0.010195225 -0.37602267
3.5360363 -0.031844407 -0.37412241
7.1987777 -0.10834587 -0.76304179
3.4628034 -0.073703282 -0.3664158
3.4424055 -0.094407715 -0.36430439
3.4318225 -0.11519638 -0.36324871
3.4231021 -0.13593729 -0.36240414
3.4162433 -0.15666628 -0.36177072
3.4191899 -0.17783086 -0.36219302
7.0653791 -0.41026947 -0.75005668
7.0518126 -0.452914 -0.74889541
7.0250936 -0.49450096 -0.74636173
7.0367999 -0.53873408 -0.74794531
7.02246 -0.58100003 -0.74678403
6.9741902 -0.62011892 -0.74203336
6.9504552 -0.66101891 -0.73992199
6.9373636 -0.70275247 -0.73897183
6.927978 -0.74477512 -0.73844403
6.9035168 -0.78502518 -0.7363326
6.8827724 -0.82547635 -0.73464352
6.8657384 -0.86620015 -0.73337668
6.8543787 -0.90752864 -0.73274326
6.8486814 -0.94956923 -0.73274326
6.8476472 -0.99228662 -0.73327106
6.8473291 -1.0351757 -0.73390448
6.8290606 -1.0753156 -0.73263764
6.8076134 -1.1147885 -0.73105413
6.7957439 -1.1557051 -0.73052627
6.7797108 -1.1958276 -0.72957617
6.716486 -1.2272216 -0.72355866
6.6990585 -1.2665638 -0.72250295
6.6716413 -1.3038318 -0.72039157
6.6683893 -1.3457268 -0.72091943
6.6561127 -1.3858075 -0.72049713
6.6328998 -1.4234941 -0.71891356
6.5997658 -1.4588027 -0.71627432
6.5751758 -1.4957428 -0.71458524
6.5629697 -1.5353799 -0.71426851
6.5601931 -1.5772473 -0.71500748
6.5378408 -1.6143723 -0.71363509
6.5239563 -1.6534805 -0.71321279
6.5165753 -1.6942298 -0.71352953
6.4897223 -1.7298306 -0.71173483
6.4329395 -1.7570461 -0.70666748
6.3626618 -1.7798815 -0.70012218
6.3439727 -1.816699 -0.69927758
6.326026 -1.8536341 -0.6985386
6.2964344 -1.8869927 -0.69653279
6.2714262 -1.9215143 -0.69505477
6.2376904 -1.9531268 -0.69262671
6.2208533 -1.9898494 -0.69209886
6.1915112 -2.0224264 -0.6901986
6.1648345 -2.0556614 -0.68861502
6.1568122 -2.0950508 -0.68914288
6.1475992 -2.134093 -0.68956518
6.1240773 -2.1681242 -0.6884039
6.0760498 -2.1931717 -0.68449783
6.0232801 -2.2159956 -0.68006384
5.9834967 -2.2431407 -0.67710793
5.9519696 -2.2730734 -0.67510211
5.9277153 -2.3055871 -0.67394084
5.904211 -2.3382549 -0.67288512
5.8915973 -2.3751819 -0.67309624
5.8851924 -2.4146838 -0.6740464
5.8445702 -2.4400249 -0.67109042
5.8166738 -2.4703994 -0.66961247
5.7995806 -2.505255 -0.66940129
5.7786365 -2.5383942 -0.66876787
5.7466083 -2.5665059 -0.66686761
5.7144532 -2.5943205 -0.66496736
5.6839795 -2.6226704 -0.66327828
5.6497722 -2.649056 -0.66116685
5.6253314 -2.6798241 -0.66021675
5.595355 -2.707794 -0.65863317
5.5732803 -2.739444 -0.65799975
5.5412407 -2.7660408 -0.65620506
5.5090847 -2.7923479 -0.65441042
5.4900789 -2.8251886 -0.65419924
5.4514856 -2.8477738 -0.65166557
5.4110656 -2.8690608 -0.64892077
5.4003654 -2.9059772 -0.64976531
5.3955255 -2.9462059 -0.65134889
5.3634281 -2.9715476 -0.64965975
5.3459611 -3.0048881 -0.64976531
5.3170562 -3.031724 -0.64849848
5.278554 -3.0528433 -0.64607036
5.2657266 -3.0886958 -0.64680934
5.2594962 -3.1285717 -0.64839292
5.2393494 -3.1602712 -0.64828736
5.1994982 -3.1799099 -0.64575368
5.1519976 -3.1944637 -0.64226985
5.1390352 -3.2302485 -0.64311445
5.1199565 -3.2622545 -0.64322001
5.0864768 -3.2849782 -0.64153087
5.0487514 -3.3046916 -0.63931388
5.020092 -3.3301117 -0.63825822
5.001215 -3.3619611 -0.63846934
4.9533691 -3.3741131 -0.63498557
4.9153843 -3.3925831 -0.63276857
4.8936605 -3.4221094 -0.63266301
4.862833 -3.4451747 -0.63139617
4.8286757 -3.4656715 -0.62970704
4.8057113 -3.4940653 -0.62949592
4.7849822 -3.5240765 -0.62960148
4.7521091 -3.545047 -0.62812352
4.7270937 -3.5717411 -0.62770122
4.6908731 -3.589802 -0.62580097
4.6498933 -3.603899 -0.62326729
4.6229987 -3.628679 -0.62263387
4.5850763 -3.6446033 -0.62052244
4.5401607 -3.654588 -0.61746097
4.5407767 -3.7012229 -0.62062806
4.5118451 -3.7239516 -0.61978346
4.4782276 -3.7426391 -0.6183055
4.4453092 -3.7616968 -0.61693311
4.4183683 -3.7856674 -0.61640525
4.4018178 -3.8185709 -0.61735535
4.3954906 -3.8605993 -0.61978346
4.3694901 -3.8855145 -0.61946678
4.3019595 -3.8730018 -0.61323816
4.2692943 -3.8912878 -0.61197132
4.2489915 -3.9207816 -0.61249918
4.2197671 -3.9420278 -0.6117602
4.1911645 -3.9637465 -0.61112672
4.1595807 -3.982512 -0.61007106
4.1179271 -3.9913514 -0.60753739
4.0841312 -4.0074906 -0.60616499
4.0552311 -4.0282702 -0.60553157
4.0241265 -4.0467315 -0.60458142
3.2339995 -3.2924993 -0.4886657
3.165257 -3.2623291 -0.48127583
3.1389866 -3.2752287 -0.4803257
3.1044724 -3.2792647 -0.4781087
3.1053512 -3.3207648 -0.48138139
3.0842423 -3.3390257 -0.48127583
3.073081 -3.3681707 -0.48275378
3.128926 -3.4719026 -0.49489433
3.1743531 -3.566046 -0.50555688
3.1668601 -3.6018844 -0.50787944
3.1505687 -3.6280046 -0.50882953
3.1230683 -3.6412299 -0.507985
3.0980961 -3.6572895 -0.5075627
3.1138883 -3.7219868 -0.51389688
3.1163316 -3.7716837 -0.51811969
3.5867217 -4.3954859 -0.60099202
3.5559399 -4.4127655 -0.60035861
3.5188885 -4.4220524 -0.59866953
3.4880018 -4.43887 -0.59803611
3.4710643 -4.4735432 -0.59983075
3.4459696 -4.4979143 -0.60025305
3.4039059 -4.4999413 -0.59771937
3.3607574 -4.5000296 -0.59497458
3.3572817 -4.5533786 -0.59930295
3.3380589 -4.5859513 -0.60088646
3.3069553 -4.6023097 -0.60035861
3.2729001 -4.6144037 -0.59930295
3.2399616 -4.6278825 -0.59845835
3.2058508 -4.6394954 -0.59740269
3.1655555 -4.6418271 -0.5951857
2.1285667 -3.1631196 -0.40347081
2.1025152 -3.1661808 -0.40220398
2.0462217 -3.1650236 -0.39882573
2.0149953 -3.1590769 -0.39650321
1.8868995 -3.0399513 -0.37855634
1.9040482 -3.1099837 -0.38584065
1.9024117 -3.1505477 -0.38943002
1.8891515 -3.1724131 -0.39069688
1.9008788 -3.2371044 -0.39724219
1.7947551 -3.0998428 -0.37897861
1.7747149 -3.1090698 -0.37876746
1.7512143 -3.1121018 -0.37781733
1.7311208 -3.1210494 -0.37760621
1.7152778 -3.1377199 -0.37834519
1.6964647 -3.149061 -0.37845075
1.6827072 -3.16995 -0.37971759
1.6715232 -3.196075 -0.38161787
1.6564369 -3.2151101 -0.38267356
1.6470318 -3.2456071 -0.38510168
1.6466533 -3.2947869 -0.38974673
1.6365085 -3.3253481 -0.39217484
1.648172 -3.4015436 -0.39998701
1.6619587 -3.4842873 -0.40853816
1.6468894 -3.5079205 -0.41012174
1.6336786 -3.5360126 -0.41223311
1.6452966 -3.6192911 -0.42078429
1.6413329 -3.6701653 -0.42553493
1.6496232 -3.7502511 -0.43366382
1.6783179 -3.8798559 -0.44749346
2.1746266 -5.1125584 -0.58853477
2.1470528 -5.1349792 -0.58959049
2.1173952 -5.1526551 -0.59011835
2.09356 -5.1849132 -0.59233534
2.0653741 -5.2069044 -0.593391
2.0351918 -5.224112 -0.59391886
2.002388 -5.2346439 -0.59370774
1.9621885 -5.225421 -0.59127963
1.9318088 -5.2420278 -0.59180748
1.8969021 -5.2463012 -0.59096289
1.8626808 -5.2522187 -0.59032947
1.8382603 -5.2860899 -0.59286314
1.8093214 -5.3076229 -0.59402442
1.769156 -5.2959895 -0.59149075
1.73013 -5.2868986 -0.58927381
1.6970503 -5.2955213 -0.58906263
1.6663125 -5.3115273 -0.58969605
1.6319385 -5.315948 -0.58906263
1.5992897 -5.325861 -0.58906263
1.5693833 -5.3451147 -0.59011835
1.5543923 -5.4167709 -0.59698039
0.81114793 -2.894655 -0.31785366
0.75187367 -2.7480397 -0.30117363
0.70033592 -2.6229079 -0.28692168
0.67620158 -2.5963635 -0.28354347
0.65241963 -2.569623 -0.28016523
0.70476329 -2.8486762 -0.31025264
0.69030118 -2.865514 -0.31162503
0.60160321 -2.5666749 -0.27858168
0.58761281 -2.578074 -0.27942622
0.57070667 -2.5767767 -0.27889839
0.55258274 -2.5695364 -0.27773711
0.52806246 -2.5310225 -0.27319762
0.51627231 -2.5527329 -0.27520344
0.50806302 -2.5939097 -0.27932066
0.49751374 -2.6253107 -0.28238219
0.49664369 -2.7114522 -0.29135561
0.48311806 -2.732074 -0.2932559
0.4229961 -2.4811084 -0.26591328
0.40582809 -2.4718823 -0.26464644
0.38599336 -2.4448597 -0.26147935
0.37277636 -2.4589798 -0.26274619
0.35710824 -2.4572847 -0.26232392
0.34147498 -2.4554901 -0.26190162
0.3256149 -2.4516246 -0.2612682
0.30893922 -2.4407518 -0.2598958
0.29324278 -2.4366782 -0.25926238
0.27839911 -2.4394195 -0.25936794
0.26310503 -2.4381158 -0.25905123
0.24773657 -2.4357271 -0.25862896
0.23108001 -2.4193835 -0.25672871
0.21685174 -2.4276891 -0.25746769
0.20153835 -2.4240191 -0.25693986
0.18512964 -2.405381 -0.25482845
0.17128335 -2.4193661 -0.25620085
0.15579118 -2.4104486 -0.25514516
0.14210588 -2.4302204 -0.25715098
0.12724386 -2.4320395 -0.25725657
0.11277999 -2.442708 -0.25831226
0.097469479 -2.435405 -0.25746769
0.082490347 -2.4349635 -0.25736213
0.067492478 -2.4334357 -0.25715098
0.052320883 -2.422868 -0.25598973
0.037562869 -2.4301038 -0.25672871
0.0226418 -2.4292941 -0.25662315
0.0076978011 -2.4184487 -0.25546187
-0.0071657309 -2.4274001 -0.256412
-0.022103721 -2.4322822 -0.25693986
-0.037161395 -2.4410496 -0.25788999
-0.052054789 -2.4367988 -0.25746769
-0.067195266 -2.443392 -0.2582067
-0.082717188 -2.4588354 -0.2598958
-0.097213656 -2.443377 -0.25831226
-0.11238558 -2.446708 -0.25873452
-0.12703593 -2.4390209 -0.25799555
-0.14182642 -2.4352171 -0.25767884
-0.15695691 -2.4372783 -0.25799555
-0.17232722 -2.4422212 -0.25862896
-0.18685424 -2.4351685 -0.25799555
-0.2004822 -2.4181197 -0.25630644
-0.21531574 -2.4168439 -0.25630644
-0.2295768 -2.4095378 -0.25567302
-0.2452583 -2.4169879 -0.25662315
-0.25987163 -2.41346 -0.256412
-0.2740019 -2.4058919 -0.25577858
-0.29041553 -2.4179881 -0.25725657
-0.30673912 -2.428 -0.2585234
-0.32202259 -2.4290295 -0.25884011
-0.34005973 -2.4496627 -0.2612682
-0.35579675 -2.452451 -0.26179606
-0.37336347 -2.4669371 -0.26359075
-0.45421997 -2.4836702 -0.26675785
-0.4722206 -2.4954932 -0.26834139
-0.4871425 -2.4905968 -0.26813024
-0.50851065 -2.5177791 -0.27140293
-0.52536803 -2.5214262 -0.2721419
-0.54208076 -2.5239892 -0.27277532
-0.5607754 -2.5351803 -0.27435887
-0.57499754 -2.5258739 -0.27372545
-0.5898059 -2.5193932 -0.27340874
-0.60943609 -2.5331306 -0.275309
-0.62306124 -2.52162 -0.27446446
-0.64096409 -2.527389 -0.27552015
-0.65695995 -2.5253336 -0.2757313
-0.67577118 -2.5337465 -0.27710369
-0.69628161 -2.5477791 -0.27910951
-0.71270484 -2.5463319 -0.27942622
-0.73488343 -2.5648551 -0.28195989
-0.73858744 -2.5192621 -0.2774204
-0.77771807 -2.5937471 -0.2861827
-0.81400377 -2.6554832 -0.2935726
-1.6391461 -5.2345886 -0.58103931
-1.67396 -5.2329569 -0.58198947
-1.7106674 -5.2367663 -0.58357304
-1.7393081 -5.2157941 -0.58241177
-1.7709585 -5.2040825 -0.58230621
-1.8002489 -5.1856027 -0.58146161
-1.8320332 -5.174459 -0.58146161
-1.8661113 -5.1696677 -0.58220059
-1.8974534 -5.157187 -0.58209503
-1.9335983 -5.1575527 -0.58346742
-1.9708829 -5.1604552 -0.58515656
-2.0050323 -5.1547527 -0.58589554
-2.0366237 -5.1423531 -0.58589554
