# .PCD v0.7 - Point Cloud Data file format
VERSION 0.7
FIELDS x y z
SIZE 4 4 4
TYPE F F F
COUNT 1 1 1
WIDTH 1458
HEIGHT 1
VIEWPOINT 0 0 0 1 0 0 0
POINTS 1458
DATA ascii
-8.317318 -6.0658178 -0.34288967
-8.4087219 -6.0537977 -0.34512272
-8.4375639 -5.9962988 -0.34478945
-8.4553785 -5.9312115 -0.34402287
-8.4957209 -5.8820639 -0.34418949
-8.6034422 -5.8788857 -0.34708917
-8.6476383 -5.831573 -0.34742248
-8.7731152 -5.8382082 -0.35102209
-8.8530483 -5.813345 -0.35278854
-8.9212627 -5.7801104 -0.3540884
-8.9961376 -5.7505641 -0.3556549
-9.0650673 -5.7165828 -0.35698807
-9.1042156 -5.6634932 -0.35715473
-9.192461 -5.6404572 -0.35925451
-9.3098345 -5.6341462 -0.36248747
-9.3759823 -5.59587 -0.36372066
-9.4609585 -5.5681467 -0.3656871
-9.5563192 -5.5456104 -0.36805353
-9.622263 -5.5052352 -0.36928672
-9.652379 -5.4441266 -0.36915338
-9.6235838 -5.3503141 -0.36678699
-9.5545626 -5.2354465 -0.36292076
-9.5337439 -5.1482258 -0.36092097
-9.5925035 -5.1041865 -0.36195418
-9.6617041 -5.0651884 -0.36338738
-9.700593 -5.0099382 -0.36368734
-9.6785946 -4.9235826 -0.36172089
-10.074976 -5.0476761 -0.37538603
-10.125476 -4.995492 -0.37611929
-10.194592 -4.9520488 -0.37755245
-10.167983 -4.862236 -0.3754527
-10.19853 -4.8001809 -0.37548602
-10.23686 -4.7417145 -0.37581933
-10.261215 -4.6767406 -0.37565267
-10.349906 -4.6406822 -0.37785241
-10.425736 -4.5980635 -0.37958556
-10.485845 -4.5479269 -0.38075209
-10.502522 -4.4787955 -0.38035214
-10.607227 -4.4467316 -0.38315183
-10.564084 -4.352623 -0.38061878
-10.635985 -4.3061013 -0.38225192
-10.713284 -4.2610779 -0.38408506
-10.79415 -4.2167215 -0.38605151
-10.856213 -4.1643724 -0.38735136
-10.907749 -4.1075449 -0.38828459
-10.928061 -4.0388064 -0.38811794
-10.984581 -3.983263 -0.38925114
-11.056838 -3.9328725 -0.39095095
-11.100579 -3.8718686 -0.39165089
-11.148715 -3.8120925 -0.39251745
-11.190848 -3.7499654 -0.39318404
-11.252579 -3.6940124 -0.39455056
-11.262664 -3.6209209 -0.39411727
-11.294203 -3.5547476 -0.39445058
-11.353052 -3.4968565 -0.39575043
-11.351328 -3.4202085 -0.39495051
-11.181323 -3.2942741 -0.38831791
-11.240702 -3.2369463 -0.38968444
-11.290176 -3.1763065 -0.39071766
-11.279578 -3.098762 -0.38968444
-11.238528 -3.0134418 -0.38761801
-11.273244 -2.9487274 -0.38818461
-11.360852 -2.8972867 -0.39058432
-8.697525 -2.1611671 -0.29846129
-11.643256 -2.817611 -0.39908338
-11.648652 -2.7433665 -0.39868343
-11.63604 -2.6651442 -0.39768353
-11.614127 -2.5852256 -0.39638367
-11.620978 -2.512013 -0.39608371
-11.800503 -2.4751377 -0.40168309
-11.915365 -2.4230044 -0.4050827
-11.907454 -2.3454039 -0.40431613
-11.796938 -2.2485249 -0.40008327
-11.707309 -2.1570768 -0.39658368
-11.567806 -2.0580583 -0.39141756
-11.545741 -1.981123 -0.39025104
-11.529083 -1.9055145 -0.38928449
-11.110209 -1.7662953 -0.37475276
-11.118862 -1.6977892 -0.37468609
-11.178515 -1.636776 -0.37635258
-11.330873 -1.5881397 -0.38115206
-11.396868 -1.5261492 -0.38305184
-11.811498 -1.5079807 -0.39668366
-11.931647 -1.4489789 -0.40041658
-11.969107 -1.3790596 -0.40138313
-11.991254 -1.3071095 -0.40184975
-12.113381 -1.2452676 -0.40568265
-12.16158 -1.1748602 -0.40704915
-12.135714 -1.0972444 -0.40594929
-12.048601 -1.01487 -0.4028163
-12.032681 -0.93920982 -0.40208304
-12.093044 -0.86930525 -0.40391618
-12.130065 -0.79718637 -0.40498272
-12.032966 -0.71667629 -0.40158311
-12.016177 -0.64170957 -0.4008832
-12.165645 -0.57486278 -0.40574932
-12.189914 -0.50106806 -0.40644923
-12.21673 -0.42710209 -0.40724915
-12.246095 -0.35291234 -0.40814903
-12.257023 -0.27796951 -0.40844899
-12.233516 -0.20234206 -0.40761578
-12.198548 -0.12689863 -0.40641591
-12.153123 -0.051848758 -0.40488273
-12.146216 0.022709668 -0.40464944
-12.169834 0.09742777 -0.40544933
-9.7835703 0.13849019 -0.32589155
-9.7495604 0.19785145 -0.32479167
-9.5633316 0.25279659 -0.31862569
-9.4537172 0.30796435 -0.3150261
-9.3807421 0.3632248 -0.31265968
-9.3453875 0.41930112 -0.31155983
-9.3665943 0.47785592 -0.31235972
-11.818121 0.67548257 -0.39435059
-11.983321 0.75871116 -0.40001661
-12.106062 0.84108502 -0.40428281
-12.107648 0.91587788 -0.4045161
-12.158579 0.99479425 -0.40641591
-12.157225 1.0698169 -0.40658253
-12.160383 1.1453288 -0.40691584
-12.164065 1.2210195 -0.40728247
-12.147399 1.2946808 -0.40698251
-12.154124 1.3708711 -0.40748245
-12.171288 1.448491 -0.40834901
-12.201838 1.5281111 -0.40968221
-12.21205 1.6055559 -0.4103488
-12.187118 1.678413 -0.40984884
-12.140977 1.7480345 -0.408649
-12.120139 1.8210129 -0.40831569
-12.07714 1.8904021 -0.40724915
-11.987383 1.9517862 -0.40461609
-10.171791 1.7204033 -0.34362289
-10.214202 1.7921073 -0.34542271
-9.9483271 1.8084654 -0.33679032
-9.9507952 1.8720592 -0.33725694
-9.8763323 1.9208732 -0.33512387
-9.8849382 1.9855691 -0.33582377
-11.461911 2.3754842 -0.38995108
-11.506741 2.4585035 -0.39198416
-11.457274 2.5215445 -0.39081764
-11.334364 2.5675151 -0.38715139
-11.314503 2.6361063 -0.38701805
-11.170786 2.6749978 -0.3826519
-11.141545 2.7403877 -0.3822186
-11.090604 2.8001382 -0.38105208
-11.041286 2.859868 -0.37995219
-10.987789 2.9180727 -0.378719
-10.962926 2.9836006 -0.37848568
-10.94345 3.0505433 -0.37845236
-11.036974 3.1497171 -0.38235191
-11.066369 3.2316649 -0.38405174
-9.4183216 2.813324 -0.32739139
-11.225657 3.4282217 -0.39101762
-11.2607 3.5146019 -0.39298406
-11.196074 3.5699692 -0.39148423
-11.193915 3.6450973 -0.39218417
-11.168493 3.7127676 -0.39208415
-11.106696 3.7680635 -0.39071766
-11.0862 3.8371227 -0.39081764
-11.073756 3.9090657 -0.39121759
-11.058026 3.9799852 -0.39151755
-11.038089 4.0494819 -0.3916842
-11.413721 4.2669024 -0.40594929
-11.432158 4.3539271 -0.40754911
-11.157363 4.3278623 -0.39868343
-11.038568 4.3598986 -0.39538381
-11.032011 4.4357495 -0.39611706
-11.00551 4.5037355 -0.39615038
-10.972133 4.5688744 -0.39595041
-10.919965 4.625977 -0.39508384
-10.875771 4.6861715 -0.39451724
-10.866952 4.7616386 -0.39525047
-10.878614 4.8465281 -0.3967503
-10.855044 4.9160724 -0.39698362
-10.831939 4.9859281 -0.39725026
-10.797521 5.0506043 -0.39711693
-10.773549 5.120193 -0.39738357
-10.867038 5.2465959 -0.4020164
-10.826564 5.309216 -0.40171641
-10.774996 5.3661909 -0.4010165
-10.643756 5.382596 -0.39735025
-10.367798 5.323194 -0.38825127
-10.242764 5.3386726 -0.38478497
-10.186843 5.3892698 -0.3839184
-10.120122 5.4337096 -0.3826519
-9.8891182 5.388124 -0.37515271
-9.929347 5.489316 -0.3779524
-9.8989649 5.552093 -0.37808573
-9.9081469 5.6374378 -0.37975222
-9.8776979 5.7006249 -0.37991884
-9.8201065 5.7480001 -0.37905228
-9.8963823 5.8744617 -0.38338512
-9.8113413 5.9056973 -0.38148534
-9.768095 5.9616227 -0.3812187
-9.7287817 6.0198689 -0.38111871
-9.7297621 6.1033473 -0.38261855
-9.7418909 6.1945705 -0.38458499
-9.848196 6.3473496 -0.39031771
-9.7839613 6.3912616 -0.38931781
-9.7787304 6.473793 -0.39068434
-9.6981544 6.5063901 -0.38905117
-9.7878199 6.653985 -0.39428392
-9.7336378 6.7048464 -0.39375064
-9.7054281 6.7735963 -0.39428392
-9.6783724 6.8434052 -0.39488384
-9.6719513 6.9282689 -0.39635035
-9.6227875 6.9827886 -0.39608371
-9.475873 6.9653468 -0.39178419
-9.3495817 6.9612889 -0.38831791
-9.2931261 7.0082965 -0.38775131
-9.2427998 7.0597262 -0.38745135
-9.196146 7.1138606 -0.38731804
-9.0649891 7.1017408 -0.38361844
-8.9586039 7.1075382 -0.38095206
-8.9101496 7.158618 -0.38075209
-8.8334942 7.1866651 -0.37935224
-8.7614603 7.2178555 -0.3781524
-8.6709566 7.2330694 -0.3761526
-8.6080856 7.2706604 -0.37535271
-8.5496387 7.3116503 -0.37475276
-8.5083933 7.3672433 -0.37491941
-8.4510021 7.4087701 -0.37438613
-8.393424 7.4498701 -0.37385288
-8.2152233 7.3823304 -0.36792019
-8.1660748 7.4292369 -0.36775354
-8.1387157 7.4961295 -0.36858678
-8.1364279 7.5868196 -0.37058657
-8.0860891 7.6331706 -0.37041992
-8.0253716 7.6695232 -0.36978665
-7.9795976 7.7200117 -0.36985332
-7.9113703 7.7485485 -0.36888674
-7.8317385 7.7652817 -0.36738691
-7.7606645 7.7898264 -0.36628705
-7.7057104 7.8301749 -0.36595374
-7.6129327 7.8314466 -0.36382064
-7.5079694 7.8189006 -0.36108762
-7.4681058 7.8735223 -0.36148757
-7.393003 7.8907552 -0.36018771
-7.3016768 7.8897595 -0.35808796
-7.2477336 7.9285126 -0.35782132
-7.1493802 7.9179444 -0.35535493
-7.0793734 7.9377956 -0.35428837
-7.0186424 7.967586 -0.35368845
-6.9505959 7.9886365 -0.3527219
-6.8525901 7.9742861 -0.35022217
-6.775074 7.982657 -0.34875566
-6.7266078 8.0248432 -0.34878901
-6.6683183 8.0551882 -0.34832239
-6.6219306 8.099822 -0.34848902
-6.5626879 8.1286364 -0.34798908
-6.4971108 8.1492157 -0.34715584
-6.4488406 8.1912842 -0.34725583
-6.3751473 8.200716 -0.34598932
-6.3125362 8.2238226 -0.34532273
-6.2740316 8.2783308 -0.34598932
-6.3093505 8.4318981 -0.35078877
-6.8478403 9.2694712 -0.3839184
-6.8232279 9.3557253 -0.38575155
-6.88483 9.5628738 -0.39255077
-6.9783044 9.8191881 -0.40131646
-6.9236631 9.8700027 -0.40164977
-6.9164553 9.9895372 -0.40478274
-6.9136782 10.117604 -0.40824902
-7.0040321 10.386044 -0.41734803
-7.2142801 10.840672 -0.43384618
-7.1432381 10.87805 -0.43357953
-9.2443762 14.267439 -0.56653136
-9.1954203 14.384521 -0.5689311
-9.1864262 14.566631 -0.57389724
-9.3413239 15.015629 -0.58932883
-9.2641735 15.097367 -0.59029537
-9.1806793 15.169318 -0.5908953
-9.1591463 15.34551 -0.59556144
-9.0262842 15.33596 -0.59302843
-9.1954021 15.84487 -0.61052644
-9.1565781 16.003353 -0.61445934
-9.1485634 16.219408 -0.620592
-9.0207005 16.224575 -0.6186589
-9.0348158 16.487339 -0.62655801
-9.0037718 16.672615 -0.63149077
-8.9412117 16.802542 -0.63432384
-8.8760014 16.92967 -0.63705683
-8.8058977 17.049522 -0.63952321
-8.7165279 17.13352 -0.64065641
-8.642128 17.248337 -0.6429562
-8.5710688 17.371845 -0.64558923
-8.4839697 17.464561 -0.64708906
-8.410284 17.586618 -0.64968878
-8.2979603 17.628847 -0.64935547
-8.3211327 17.963278 -0.65978765
-8.2273369 18.050373 -0.66112083
-8.4480963 19.154028 -0.69771671
-8.2834778 19.097309 -0.69378382
-8.2563267 19.359221 -0.70144963
-8.1849194 19.522884 -0.70554918
-8.1198092 19.705803 -0.71034867
-8.0280027 19.827513 -0.71294838
-7.9268804 19.928404 -0.71481484
-7.824821 20.028797 -0.7166813
-7.7271972 20.142685 -0.71904773
-7.6541853 20.324402 -0.72384715
-7.5414615 20.403797 -0.72501367
-7.4362292 20.505119 -0.72698015
-7.3350616 20.620041 -0.72944653
-7.2251911 20.712788 -0.73114634
-7.1157517 20.808743 -0.73297948
-6.9933367 20.868122 -0.73354608
-6.8801265 20.956219 -0.73514593
-6.768239 21.050371 -0.73697901
-6.6293459 21.060997 -0.7359125
-6.5105863 21.135662 -0.73711234
-6.4012532 21.243155 -0.73947877
-6.3179655 21.442135 -0.74504477
-6.2034307 21.540041 -0.74711126
-6.0708766 21.576736 -0.74707788
-5.9463143 21.642492 -0.74807781
-5.7939892 21.606171 -0.74557805
-5.6519475 21.605541 -0.74434489
-5.5224829 21.652403 -0.74477816
-5.4172473 21.797422 -0.74861109
-5.2829285 21.82831 -0.74854439
-5.1585178 21.901173 -0.74994427
-5.0307331 21.961639 -0.75094414
-4.902401 22.02136 -0.75194401
-4.7855639 22.136013 -0.75484371
-4.6558065 22.194305 -0.75584358
-4.5195374 22.222454 -0.75584358
-4.3819385 22.243885 -0.75564361
-4.2584724 22.339075 -0.75797671
-4.138351 22.457176 -0.76110965
-4.0157137 22.567751 -0.76400936
-3.8884933 22.657965 -0.76624244
-3.7534692 22.706049 -0.76707566
-3.6154895 22.737537 -0.76737565
-3.4834526 22.808691 -0.76904213
-3.3508232 22.880072 -0.77074194
-3.21384 22.924942 -0.77157515
-3.077096 22.973949 -0.77257508
-2.9408841 23.030071 -0.77384156
-2.7991574 23.044704 -0.7737416
-2.668349 23.153784 -0.77684122
-2.5594954 23.474741 -0.78707343
-2.4155111 23.490999 -0.78710675
-2.2750776 23.544174 -0.78840661
-2.1354332 23.611443 -0.79020643
-1.9922788 23.645014 -0.79090637
-1.8480921 23.668751 -0.79130632
-1.6998166 23.637775 -0.78990644
-1.5494326 23.566982 -0.78720677
-1.398376 23.468296 -0.78360718
-1.2483221 23.363657 -0.77984089
-1.1041391 23.353907 -0.77927428
-0.9638629 23.434139 -0.78174073
-0.82110476 23.469574 -0.78274059
-0.67817867 23.512135 -0.78400713
-0.54000795 23.784636 -0.7929728
-0.40016004 24.155247 -0.80523807
-0.25294188 24.253187 -0.80843771
-0.10495126 24.446175 -0.81483704
0.045436263 24.659239 -0.82193619
0.20076318 25.1642 -0.83880103
0.32183716 22.797043 -0.75990981
0.46567255 22.99049 -0.76644242
0.60623032 22.96822 -0.76580912
0.75305915 23.14587 -0.77187514
0.89645493 23.176767 -0.77307498
1.0397215 23.194792 -0.77387494
1.1823276 23.193964 -0.77407491
1.3264441 23.218203 -0.77514142
1.4699559 23.226585 -0.77570802
1.6220653 23.355717 -0.78034085
1.7765675 23.493816 -0.78530699
1.9198748 23.472511 -0.78497368
2.0698173 23.52799 -0.78724009
2.8630178 28.53076 -0.95582128
3.2938046 30.913727 -1.0363456
3.4873445 30.927696 -1.0375122
3.3189731 24.104034 -0.8110041
3.4692304 24.100035 -0.8115707
3.6195638 24.095097 -0.81213731
3.7681129 24.07737 -0.81230396
2.532968 14.977876 -0.50617146
2.6334558 15.011272 -0.50783795
2.7396302 15.072514 -0.51047099
2.8708534 15.261688 -0.51747018
3.0107946 15.482186 -0.52556926
3.1228533 15.548672 -0.52846897
3.2265129 15.569343 -0.52983546
3.3558049 15.707589 -0.53523487
3.4628599 15.735507 -0.53690135
3.602613 15.905017 -0.54343396
3.7293844 16.008179 -0.54773349
3.8605812 16.123016 -0.55246627
3.9828255 16.194138 -0.55573261
4.1713972 16.523096 -0.56789792
4.3032694 16.615229 -0.57196409
4.3812852 16.498676 -0.56886446
4.5141869 16.588173 -0.57289732
4.6674008 16.74501 -0.57929659
4.7873344 16.776606 -0.5813964
4.8988671 16.776657 -0.58242959
5.0154419 16.79225 -0.58402944
5.1437745 16.84432 -0.58692908
5.2726364 16.894491 -0.58979547
5.4098954 16.96752 -0.59349501
2.2110045 6.7890611 -0.23770139
2.2346516 6.7213063 -0.23580159
2.2536986 6.6421609 -0.23350185
2.2748013 6.5715384 -0.23150207
2.3054342 6.5301251 -0.23053552
2.3197396 6.4443851 -0.22800247
2.3310153 6.3530889 -0.22526944
2.3521073 6.2909207 -0.22356963
2.3721688 6.2278013 -0.22183649
2.3810649 6.137651 -0.21913679
2.3940842 6.0606432 -0.2169037
2.414078 6.0031834 -0.21537055
2.4202106 5.913332 -0.21267085
2.4341681 5.8448553 -0.21073772
2.4520547 5.7874761 -0.20920457
2.4720979 5.7365241 -0.20790471
2.4871964 5.6754751 -0.20623823
2.5040801 5.6199369 -0.20477173
2.5236745 5.5716901 -0.20357186
2.539011 5.5152445 -0.20207202
2.5473995 5.4452419 -0.20007224
2.550736 5.3663192 -0.19773918
2.5723183 5.3271656 -0.19687261
2.6001167 5.3014107 -0.19650598
2.608094 5.2361507 -0.19467285
2.6149185 5.1701021 -0.19280639
2.6319861 5.1255078 -0.19173984
2.6499913 5.083559 -0.19077329
2.6573 5.0221467 -0.18907347
2.6663194 4.965241 -0.18754031
2.6881289 4.9329896 -0.18694039
2.7023909 4.8875375 -0.1858405
2.7176635 4.8447123 -0.18484062
2.7428913 4.8201275 -0.18454064
2.7499368 4.7642517 -0.18304081
2.7513523 4.6998472 -0.18120769
2.7699363 4.6656876 -0.1805411
2.787174 4.6297646 -0.17980784
2.8019931 4.590394 -0.17894128
2.7996078 4.523819 -0.17700815
2.8251884 4.5031691 -0.17687483
2.8516934 4.4840627 -0.17680818
2.8645358 4.4437976 -0.17590828
2.8677008 4.3893194 -0.17444177
2.8907175 4.3658071 -0.17420846
2.8951802 4.3147883 -0.17287529
2.8963175 4.259747 -0.17137545
2.8793149 4.1793394 -0.16884241
2.9003291 4.1550364 -0.16857576
2.9211535 4.1306338 -0.16830912
2.9225831 4.0793185 -0.16694261
2.9270151 4.0329962 -0.16577607
2.9416437 4.0012698 -0.16520947
2.9571874 3.9711196 -0.16470952
2.9580305 3.921778 -0.16340968
2.9656596 3.882108 -0.16250977
2.9790289 3.8503985 -0.16194317
2.9976676 3.8257527 -0.16167653
3.0198433 3.8057213 -0.16160987
3.0368788 3.7793288 -0.16127658
3.0612724 3.7621741 -0.16134323
3.0773094 3.7348342 -0.1609766
3.0892851 3.7028341 -0.16041
3.1119471 3.6838088 -0.16041
3.1292958 3.6585681 -0.16014338
3.1595354 3.6483655 -0.16054332
3.1838384 3.6311648 -0.16064331
3.2531607 3.6646347 -0.16300972
3.3397114 3.7159741 -0.16620935
3.3429461 3.6739717 -0.16524281
3.3112619 3.5945764 -0.16257644
3.3271215 3.5676122 -0.16227646
3.3489492 3.5471301 -0.16227646
3.3651271 3.5207338 -0.16200984
3.3866668 3.5000193 -0.16200984
3.3724151 3.4427562 -0.16031002
3.4230294 3.4518087 -0.16170986
3.4427288 3.4293292 -0.16164321
3.4594321 3.4039342 -0.16144322
3.5117836 3.4132979 -0.16290973
3.553566 3.4117615 -0.16387628
3.6128633 3.4263487 -0.16564275
3.645488 3.4150503 -0.16617604
3.6905782 3.4150212 -0.16727591
3.7321169 3.4111943 -0.16820914
3.7678125 3.4016271 -0.16887572
3.8184476 3.4050553 -0.17020892
3.8430183 3.384865 -0.17037556
3.946651 3.4333889 -0.17404182
4.0260072 3.4592686 -0.1766082
4.1355438 3.5095258 -0.18047443
4.2167411 3.5341671 -0.18307415
7.8581109 6.5051513 -0.33978999
7.8808556 6.4428945 -0.33905676
7.9163523 6.3912773 -0.33889011
7.945261 6.3344836 -0.33845681
7.952569 6.2608814 -0.33712363
7.9790001 6.2027659 -0.3366237
7.9820271 6.1269116 -0.33515719
7.9900007 6.0554814 -0.333924
8.0046015 5.9895749 -0.33299077
8.034771 5.9355955 -0.33272412
8.0637722 5.8808827 -0.33242416
8.0640182 5.8055973 -0.33095765
8.0888987 5.7484813 -0.33052436
2.1341631 1.4964628 -0.08651825
2.099756 1.4531841 -0.084751777
2.1210105 1.4487318 -0.085251726
2.1224024 1.4306605 -0.084951758
2.1328049 1.4187183 -0.085018419
2.1464822 1.4088968 -0.085218392
2.1525702 1.3940692 -0.085118406
2.178767 1.3921403 -0.085818328
2.1923401 1.3819443 -0.086018309
2.2084157 1.3732181 -0.086318269
2.2321332 1.3690512 -0.086918205
2.2994881 1.3910378 -0.089217946
2.3045475 1.3748534 -0.089084633
2.3112173 1.359673 -0.089017972
2.3195167 1.345466 -0.089017972
2.3207889 1.3272374 -0.088751331
2.3358529 1.3169007 -0.089017972
2.3500037 1.3059433 -0.08925128
8.4414616 4.6254339 -0.32059214
8.5435524 4.6134458 -0.32339182
8.6414003 4.5980296 -0.32602486
8.742033 4.5829778 -0.32875788
8.8019562 4.5457635 -0.32995775
5.4384885 2.7662857 -0.20307192
5.4526792 2.7315204 -0.20297192
5.5455198 2.7356031 -0.20580494
16.916191 8.2175579 -0.62675798
16.949163 8.1054144 -0.62612474
16.977779 7.9914732 -0.62535816
17.002916 7.8762259 -0.62449157
17.030918 7.7626295 -0.62375832
17.064548 7.6518493 -0.62325835
17.091061 7.5381255 -0.62252516
17.125988 7.4283419 -0.62212515
17.13999 7.3097873 -0.62099195
17.149492 7.1897955 -0.61972547
17.184046 7.0806251 -0.61939216
17.221609 6.9728012 -0.61919218
17.252926 6.8625674 -0.61879224
17.270506 6.7471194 -0.61792564
10.202091 3.9134138 -0.3639873
17.340778 6.5304484 -0.6175257
17.390835 6.4277363 -0.61789232
17.404579 6.3117065 -0.61699241
17.38648 6.1846957 -0.61499262
17.54678 6.1206951 -0.61932546
17.622778 6.0261745 -0.62069201
17.866955 5.9874849 -0.6279912
18.16069 5.9622364 -0.63702351
17.461449 5.6141915 -0.6112597
33.789768 10.636377 -1.1809295
47.777565 14.718159 -1.6667753
22.388605 6.7464509 -0.7793743
27.434982 7.9013309 -0.95168841
46.494022 12.77509 -1.6075486
29.601034 7.938169 -1.021614
32.368107 8.4677382 -1.1153368
5.7110071 1.4561089 -0.19613935
5.6858864 1.4126016 -0.19497281
5.6458774 1.3659306 -0.19330634
17.772537 4.1859493 -0.60849339
29.851725 6.8383479 -1.0208807
4.5415978 0.98131579 -0.154544
21.428032 4.2211952 -0.72791338
21.303318 4.060997 -0.72281396
21.323904 3.929481 -0.72268063
21.197063 3.7717731 -0.71758121
21.183361 3.6353834 -0.71634799
21.240767 3.5112054 -0.71754783
6.807704 1.0820305 -0.22946897
6.7746954 1.0342022 -0.22813578
6.8372808 1.0008707 -0.23003557
6.858139 0.96098071 -0.23053552
7.0481572 0.94356543 -0.23673482
6.9427791 0.88611877 -0.23300192
6.6573853 0.80818355 -0.22323634
6.6155539 0.76194024 -0.22166984
6.6429567 0.72382581 -0.22243643
6.6592035 0.68427885 -0.22283638
6.4157166 0.54009992 -0.214304
6.4069529 0.49978966 -0.21390404
6.4178739 0.46104163 -0.21417068
6.4036283 0.42053851 -0.21360408
6.4060879 0.38123867 -0.21360408
6.3604016 0.33936357 -0.21200426
6.3833294 0.30132228 -0.21270418
6.3810635 0.26198483 -0.21257086
6.3485904 0.22163735 -0.21143764
6.4257569 0.18487105 -0.21397071
6.4427576 0.14580327 -0.21450397
6.8172717 0.11247002 -0.22696926
6.8348231 0.070815556 -0.22753586
6.7711649 0.028600225 -0.22540276
6.3979774 -0.0037118217 -0.32013944
6.3998313 -0.042982489 -0.32023957
6.4244137 -0.082572095 -0.32149133
6.4797058 -0.12305395 -0.32429525
6.4918079 -0.16313699 -0.32494617
6.5106497 -0.20359196 -0.32594755
6.5492005 -0.24503176 -0.32795036
6.5655336 -0.28599527 -0.32885164
6.5816102 -0.32716843 -0.32975289
6.7330465 -0.37613031 -0.33746368
6.6349158 -0.41149804 -0.33265695
6.5405951 -0.44594783 -0.32805049
6.5606432 -0.48777574 -0.32920212
6.567482 -0.52882391 -0.32970282
6.6178441 -0.5737716 -0.33240661
6.6171827 -0.61464435 -0.33255681
6.6331635 -0.65720516 -0.3335582
6.6379461 -0.6988346 -0.33400884
6.6672812 -0.74331474 -0.33571121
6.6794567 -0.78619576 -0.3365624
6.6814451 -0.8280254 -0.3369129
6.6732678 -0.86861956 -0.3367627
6.6885929 -0.91238499 -0.33781415
6.7006664 -0.95594794 -0.3387154
6.6917105 -0.99660295 -0.3385652
6.7150779 -1.0422403 -0.3400673
6.7292619 -1.0867682 -0.34111878
6.7333016 -1.1298561 -0.34166956
6.7321453 -1.1721778 -0.34196997
6.7385869 -1.2159467 -0.34267095
6.7702689 -1.2646077 -0.34467375
6.7888584 -1.3112402 -0.34602565
6.7895002 -1.3546302 -0.34647626
6.7898645 -1.3980774 -0.3469269
6.8143749 -1.4467664 -0.34862927
6.8414693 -1.4964488 -0.35048187
6.8380046 -1.5397156 -0.35078228
6.8624825 -1.5895329 -0.35253474
6.8691173 -1.6355436 -0.35338593
6.8579822 -1.6774236 -0.35333586
6.8649964 -1.7238507 -0.35423711
6.8813701 -1.7729191 -0.35563907
6.9244361 -1.8293968 -0.35844299
6.9458575 -1.8807261 -0.36014539
6.9543972 -1.928916 -0.36119685
6.9626064 -1.9772813 -0.36224833
6.9656878 -2.0244262 -0.36304945
6.9770684 -2.0742447 -0.3643012
7.0033875 -2.128927 -0.36635405
7.0331125 -2.1851954 -0.36860722
7.0300431 -2.2316329 -0.36915797
7.0181179 -2.2753427 -0.36925814
7.0296245 -2.3268366 -0.37061
7.1211891 -2.4057305 -0.37621784
7.1138473 -2.4519839 -0.37661842
7.0751138 -2.4873056 -0.37536666
7.0775814 -2.537075 -0.37631798
7.0778279 -2.586282 -0.37716919
7.1498051 -2.6624265 -0.38187575
7.1650829 -2.718293 -0.38357815
7.2153444 -2.7881272 -0.38718319
7.1850896 -2.8272269 -0.38648221
7.1796589 -2.8760891 -0.38713312
7.1637259 -2.9208429 -0.38723326
7.2120881 -2.9923034 -0.3908383
7.2211957 -3.0481522 -0.39234039
7.2546668 -3.1148648 -0.39519438
7.2793512 -3.1785049 -0.39759773
7.3090034 -3.2449965 -0.40030152
7.3362908 -3.3111489 -0.40290517
7.4084282 -3.3985806 -0.4080123
7.4652829 -3.4802685 -0.41231832
17.240522 -8.1669102 -0.95577818
17.141489 -8.2491541 -0.9530744
17.0744 -8.346282 -0.95217311
16.953985 -8.4166946 -0.94831771
2.2662482 -1.1422256 -0.12661888
2.2663095 -1.15975 -0.12701944
2.2511744 -1.1694894 -0.12656881
2.2351222 -1.1786209 -0.12606812
2.2269678 -1.1918418 -0.12601803
2.2082038 -1.1992862 -0.12536713
2.0984669 -1.1564051 -0.11950894
2.0625656 -1.1531726 -0.11785663
2.0337336 -1.1534861 -0.11660488
2.0093048 -1.1559803 -0.11560348
1.997861 -1.1657704 -0.11535313
1.9872324 -1.1759722 -0.11515285
1.9791231 -1.1876296 -0.11510278
1.9700924 -1.1987123 -0.11500264
1.96525 -1.2123513 -0.11515285
1.9620078 -1.2270355 -0.1154032
1.9839633 -1.2577705 -0.11715565
2.1299589 -1.3687425 -0.12631845
14.920114 -9.7194147 -0.89208913
14.837691 -9.7959223 -0.89073724
14.725009 -9.8517904 -0.88758278
14.643617 -9.9279451 -0.88633108
14.504219 -9.9638844 -0.88157439
13.046448 -10.720106 -0.84592456
12.95125 -10.775681 -0.84402192
12.891762 -10.860738 -0.84447253
12.82108 -10.936396 -0.84422219
12.709138 -10.976341 -0.84126806
12.608469 -11.025189 -0.83906496
12.225889 -11.09432 -0.82704818
12.081097 -11.098855 -0.82184088
11.813118 -10.987081 -0.80817181
11.6415 -10.96145 -0.80101174
11.582698 -11.040943 -0.80161262
11.539888 -11.136081 -0.80336505
11.487058 -11.222033 -0.80446661
11.44994 -11.323908 -0.80671972
11.376007 -11.38971 -0.80641931
11.270836 -11.42375 -0.80391586
11.046477 -11.334618 -0.79285038
10.480411 -11.157482 -0.76681393
10.305781 -11.107363 -0.75900304
10.261051 -11.196158 -0.76075548
10.212938 -11.281862 -0.76230764
10.144187 -11.345059 -0.76235771
10.055873 -11.386129 -0.76095575
9.9720325 -11.43181 -0.75990427
9.8221703 -11.40047 -0.75379574
9.6575375 -11.349469 -0.74648553
9.5408106 -11.352696 -0.7428304
9.4244089 -11.354921 -0.73917532
9.3127737 -11.361554 -0.73587072
9.1838179 -11.34551 -0.7311641
9.045435 -11.315832 -0.72565639
8.9201403 -11.300565 -0.7211501
8.7886219 -11.275523 -0.71609306
8.6553125 -11.246131 -0.7108357
8.5710382 -11.279146 -0.70958394
8.4657068 -11.283591 -0.70657974
8.3261671 -11.240621 -0.70067149
8.2022133 -11.216521 -0.69601494
8.0198307 -11.109536 -0.68630141
7.7730007 -10.908017 -0.67087984
7.6657033 -10.898322 -0.66737491
7.554832 -10.88198 -0.66351956
7.474371 -10.908358 -0.66231787
7.389955 -10.928366 -0.66076571
7.310565 -10.955227 -0.65966415
7.2135472 -10.954833 -0.65696037
7.0058093 -10.782811 -0.64404231
6.9179564 -10.791962 -0.64203948
6.7987614 -10.750638 -0.63708258
6.7088809 -10.754021 -0.6348294
6.6207857 -10.759256 -0.63272649
6.5251079 -10.751012 -0.6298725
6.4118285 -10.712006 -0.62526608
6.2870908 -10.651375 -0.61945796
6.1643467 -10.591346 -0.61374998
6.0738921 -10.584791 -0.6111964
5.9380198 -10.496681 -0.60398632
5.7781672 -10.361948 -0.5941726
5.7313151 -10.427842 -0.59592503
5.5706644 -10.284537 -0.58576083
5.4011755 -10.119394 -0.57444501
5.2302079 -9.9454947 -0.56272864
5.1070638 -9.8576803 -0.55596918
5.0401268 -9.8763762 -0.55526817
4.9713588 -9.8910542 -0.55436695
4.8831081 -9.8658743 -0.55126256
4.8014793 -9.8525553 -0.54885924
4.7258153 -9.8503141 -0.5471068
4.6495066 -9.8457108 -0.54525417
4.5709081 -9.8351078 -0.54310119
4.4971833 -9.8339043 -0.54149896
4.4244661 -9.8339891 -0.53999686
4.3563633 -9.8435993 -0.53904551
4.2930923 -9.8637333 -0.53869504
4.2234516 -9.8687706 -0.53754342
4.1562343 -9.878849 -0.5366922
4.0901976 -9.8912439 -0.53599125
4.0226617 -9.8994999 -0.53508997
3.9548087 -9.9063721 -0.53413862
3.8884809 -9.9165049 -0.5333876
3.8074646 -9.8879824 -0.53058368
3.7325954 -9.8737898 -0.5285809
3.6149666 -9.7429409 -0.52036941
3.6176393 -9.9366827 -0.52953219
3.5310733 -9.8872099 -0.52572685
3.5139146 -10.033114 -0.53233612
3.451638 -10.052597 -0.53223598
3.3911655 -10.077374 -0.53243625
3.3117566 -10.044873 -0.52963233
3.237478 -10.026038 -0.52757949
3.1689744 -10.02381 -0.52642787
3.1035726 -10.030663 -0.52577698
3.0399418 -10.042826 -0.52542645
2.9779794 -10.060331 -0.52537638
2.9139736 -10.07074 -0.52497584
2.8488657 -10.076897 -0.52437502
2.7845893 -10.085523 -0.52392435
2.7197945 -10.091811 -0.5233736
2.6471553 -10.06774 -0.52127063
2.5771463 -10.051868 -0.51961833
2.5084007 -10.039392 -0.5181663
2.4387243 -10.0216 -0.51646394
2.3741949 -10.023741 -0.51581305
2.311749 -10.034226 -0.51561272
2.2488272 -10.042375 -0.51531231
2.1867416 -10.054032 -0.51521218
2.1227412 -10.056511 -0.51466143
2.057992 -10.05467 -0.51391035
1.9935395 -10.053392 -0.5132094
1.9320039 -10.066417 -0.51325947
1.867468 -10.063352 -0.51250839
1.8002237 -10.044145 -0.51095623
1.7353275 -10.036303 -0.51000488
1.6650161 -9.9945478 -0.50735122
1.5992339 -9.976964 -0.50594926
1.5385941 -9.9905367 -0.50614953
1.4778482 -10.003741 -0.5063498
1.4154594 -10.005698 -0.50599933
1.3510954 -9.9924221 -0.50489777
1.2847762 -9.9618921 -0.50294501
1.2187612 -9.9299355 -0.50094223
1.152378 -9.8906012 -0.49858895
1.0889318 -9.8726673 -0.49733719
1.0252324 -9.8493614 -0.4958351
0.96186012 -9.8256474 -0.494333
0.89863521 -9.7995377 -0.49273074
0.83346993 -9.7461557 -0.48977661
0.77349502 -9.749095 -0.48967648
0.71839696 -9.8184023 -0.49293104
0.66160959 -9.874444 -0.49553466
0.60222131 -9.8982563 -0.49653608
0.54272914 -9.9247017 -0.49768767
0.4818221 -9.927845 -0.49768767
0.41468331 -9.7839298 -0.49032739
0.35254598 -9.7284021 -0.48742333
0.28765333 -9.5576773 -0.47876123
0.22460644 -9.3755455 -0.46954834
0.16956249 -9.5165501 -0.47655815
0.1106663 -9.4744682 -0.47440514
0.05250793 -9.470973 -0.47420484
-0.0055775424 -9.4251747 -0.47190163
-0.063065298 -9.3740282 -0.46934807
-0.12026027 -9.3484983 -0.46809632
-0.17786629 -9.3605661 -0.46874723
-0.23640384 -9.4032288 -0.47095031
-0.29419029 -9.4045954 -0.47110051
-0.35103062 -9.3796597 -0.46994889
-0.40735853 -9.34939 -0.46854693
-0.46119455 -9.2758913 -0.46499196
-0.51408833 -9.2010899 -0.46138692
-0.56837046 -9.1628723 -0.45963448
-0.62186313 -9.1193552 -0.45763168
-0.67410243 -9.065568 -0.45512819
-0.72859234 -9.0473242 -0.45442721
-0.7734766 -8.9202967 -0.44826859
-0.82764155 -8.9094172 -0.44796816
-0.87756479 -8.8564644 -0.44556481
-0.93147212 -8.84694 -0.44536453
-0.98762023 -8.8579321 -0.44621572
-1.0402011 -8.8368273 -0.44546467
-1.0897343 -8.792614 -0.443562
-1.1430196 -8.7808104 -0.44331166
-1.1955258 -8.7637358 -0.44281095
-1.2482889 -8.7493143 -0.44246048
-1.3006258 -8.7325993 -0.44200984
-1.3492807 -8.692873 -0.4404076
-1.3970195 -8.6499214 -0.43865514
-1.4427943 -8.5978479 -0.43645206
-1.4920955 -8.5691547 -0.43545067
-1.5403893 -8.5362492 -0.43424898
-1.5887027 -8.5050383 -0.43314746
-1.6368806 -8.4745369 -0.43209597
-1.6876758 -8.458457 -0.43179557
-1.7391412 -8.4459858 -0.4316954
-1.7832564 -8.3990088 -0.42984283
-1.8289951 -8.3615646 -0.42849094
-1.8703921 -8.3063402 -0.42623779
-1.9161394 -8.2723284 -0.42508617
-1.9617714 -8.2390413 -0.42398465
-2.0113389 -8.2229681 -0.42378435
-2.0583503 -8.1969109 -0.42308336
-2.1011305 -8.1551123 -0.42158127
-2.1388831 -8.0957165 -0.41917792
-2.191911 -8.0949726 -0.41982883
-2.2383358 -8.0698223 -0.41922799
-2.2779858 -8.021349 -0.41742545
-2.3213072 -7.9870806 -0.416374
-2.3736868 -7.9841752 -0.41697484
-2.4580746 -8.0860386 -0.42308336
-2.5357978 -8.1614113 -0.42784002
-2.638413 -8.3113327 -0.4365522
-2.7115402 -8.3633919 -0.44015723
-2.7640615 -8.3503885 -0.44035754
-2.8126891 -8.3257017 -0.43995696
-2.8663254 -8.3158407 -0.44035754
-2.9239218 -8.3169413 -0.44135892
-2.9789433 -8.3101254 -0.44195977
-3.035362 -8.3066998 -0.44276088
-3.015168 -8.0969849 -0.43254662
-3.0137751 -7.9438658 -0.42533654
-3.0700212 -7.944788 -0.426388
-3.1252947 -7.9425297 -0.42728925
-3.1795416 -7.9371099 -0.4280403
-3.2394962 -7.9451957 -0.42954239
-3.363975 -8.1078215 -0.43945625
-3.4237592 -8.1109514 -0.44075808
-3.4734626 -8.0897903 -0.44075808
-3.534626 -8.0948687 -0.44221011
-3.5907137 -8.0876331 -0.44301122
-3.6513648 -8.0900269 -0.44436312
-3.7250905 -8.120121 -0.44726717
-3.7858174 -8.1206465 -0.448569
-3.8428421 -8.1126089 -0.44942018
-3.8977451 -8.0996761 -0.45002103
-3.9464931 -8.0738125 -0.44992089
-3.1867785 -6.4195414 -0.35869336
-3.1932878 -6.3347631 -0.35503823
-3.2320969 -6.3150501 -0.35503823
-3.2772315 -6.307507 -0.35573921
-3.3135424 -6.2828627 -0.35548887
-3.4038792 -6.3592706 -0.36099657
-3.4342535 -6.3224678 -0.36009532
-3.5207124 -6.3878694 -0.36505225
-3.5759282 -6.3949127 -0.36670455
-3.6210132 -6.383275 -0.3673054
-3.6526396 -6.3479519 -0.36655435
-3.9588473 -6.7834501 -0.39314151
-4.5859342 -7.7482853 -0.45077208
-4.6344185 -7.7217135 -0.45087224
-4.6879411 -7.7033696 -0.45147306
-4.7435112 -7.6880593 -0.45227417
-4.7683496 -7.6232462 -0.45017126
-4.8075466 -7.5820365 -0.44947028
-4.8712592 -7.5792804 -0.45107251
-4.8887796 -7.5048962 -0.4484188
-4.9589491 -7.5114307 -0.45062187
-4.9982805 -7.4709005 -0.45002103
-4.9986296 -7.3731318 -0.44596538
-5.0658317 -7.3744268 -0.44791809
-5.1258197 -7.3645177 -0.44921991
-5.1732135 -7.3361926 -0.44942018
-5.2187109 -7.3051248 -0.44947028
-5.2517242 -7.256784 -0.44846886
-5.3002863 -7.2300615 -0.44881937
-5.35884 -7.2166476 -0.45002103
-5.4114242 -7.1948051 -0.45072201
-5.4597058 -7.167027 -0.45107251
-5.5109 -7.1428804 -0.45167336
-5.5620041 -7.1183758 -0.45227417
-5.6049566 -7.0833306 -0.45222411
-5.584609 -6.9693098 -0.44711697
-5.6109042 -6.9147482 -0.44581515
-5.6881008 -6.9226313 -0.448569
-5.7106676 -6.8637991 -0.44701684
-5.7262926 -6.7973137 -0.44496396
-5.7497435 -6.7407742 -0.443562
-5.7994819 -6.7151933 -0.44421291
-5.8629298 -6.7050447 -0.44591531
-5.9085951 -6.6741786 -0.44626579
-5.9561019 -6.6452355 -0.4467665
-6.0229402 -6.6374097 -0.4487192
-6.0730128 -6.6106253 -0.44942018
-6.1080194 -6.5673866 -0.44901964
-6.1393003 -6.5203323 -0.44836873
-6.1867728 -6.4904914 -0.4489195
-6.2396588 -6.466063 -0.44987082
-6.2875915 -6.4362283 -0.45047167
-6.3346906 -6.4053383 -0.45102245
-6.3816466 -6.3741126 -0.45157319
-6.4085512 -6.3229113 -0.45072201
-6.4336371 -6.2702255 -0.44977069
-6.4597573 -6.2188568 -0.4489195
-6.455092 -6.1384978 -0.44596538
-6.4496851 -6.0584316 -0.44301122
-6.4772196 -6.009912 -0.44236034
-6.5058742 -5.9626327 -0.44180956
-6.522346 -5.9045043 -0.44045767
-6.5413284 -5.8490615 -0.43930605
-6.5531392 -5.7876587 -0.43770382
-6.5953021 -5.7532492 -0.43815446
-6.637289 -5.7185392 -0.43860507
-6.6790981 -5.6835313 -0.43905571
-6.7398424 -5.664289 -0.44075808
-6.7790823 -5.6266546 -0.44105852
-6.8266106 -5.5957165 -0.4419097
-6.8778954 -5.5675478 -0.44301122
-6.9306512 -5.5402069 -0.44421291
-6.9456997 -5.4827261 -0.44301122
-6.9642434 -5.4283395 -0.4420599
-6.9807987 -5.3727136 -0.44100845
-7.0040908 -5.3225284 -0.4404076
-7.0517969 -5.2908397 -0.44135892
-7.0969691 -5.2569823 -0.44216004
-7.1476345 -5.2268963 -0.44331166
-7.1682343 -5.174757 -0.44261068
-7.1925306 -5.1254597 -0.44216004
-7.2295632 -5.0852528 -0.44251055
-7.245862 -5.0305452 -0.44160926
-7.2255106 -4.9509907 -0.43850493
-7.23176 -4.8903389 -0.43705291
-7.2591381 -4.8442106 -0.4369027
-7.284554 -4.7968316 -0.43665233
-7.3096619 -4.7493234 -0.43640199
-7.3252125 -4.6957593 -0.43560088
-7.3209662 -4.6299057 -0.43364814
-7.2975469 -4.5526524 -0.43059388
-7.3202405 -4.5046492 -0.43029347
-7.3315201 -4.4498029 -0.42934212
-7.368969 -4.4108891 -0.42994297
-7.4122372 -4.375236 -0.43089429
-7.4751978 -4.3507733 -0.43299723
-7.5519962 -4.3336539 -0.43590128
-7.5975695 -4.2980528 -0.43700284
-7.6395006 -4.2601094 -0.43790409
-7.632236 -4.1948748 -0.43600145
-7.5946012 -4.1137176 -0.43239638
-7.6064825 -4.0599866 -0.43164533
-7.633903 -4.0146322 -0.43179557
-7.6610532 -3.969094 -0.43194577
-7.6692495 -3.9138405 -0.43104452
-7.7047215 -3.8725398 -0.4316954
-7.8044224 -3.8628478 -0.43595135
-7.8270798 -3.8144505 -0.43590128
-7.8701482 -3.7758567 -0.43700284
-7.8850403 -3.7236571 -0.4365522
-7.8860025 -3.6651034 -0.43535054
-7.9174256 -3.6208003 -0.43585122
-7.9577093 -3.5803468 -0.43685263
-8.0041876 -3.5423646 -0.43820453
-8.0294352 -3.4947793 -0.4384048
-8.0342007 -3.4383731 -0.43750355
-8.034893 -3.380491 -0.43640199
-8.0434856 -3.3261652 -0.43575108
-8.0794735 -3.2831397 -0.43660226
-8.1291485 -3.2453525 -0.43820453
-8.1628561 -3.2008805 -0.43895558
-8.1888666 -3.1532459 -0.43930605
-8.1931133 -3.0972903 -0.43850493
-8.1838722 -3.0365379 -0.43700284
-8.0850382 -2.9435587 -0.43074408
-8.1001263 -2.8928869 -0.43059388
-8.0856752 -2.8319073 -0.42889151
-8.0811729 -2.7747819 -0.42773989
-8.0421972 -2.7063518 -0.42478576
-8.0614977 -2.6578929 -0.42493597
-8.1803007 -2.6415215 -0.43034354
-8.2058773 -2.5942886 -0.43084422
-8.234045 -2.5477271 -0.43149513
-8.2065067 -2.4841361 -0.42924199
-8.2646894 -2.4464908 -0.43149513
-8.2670736 -2.3921249 -0.43084422
-8.2681398 -2.3375506 -0.43014324
-8.2852154 -2.2875714 -0.43029347
-8.261487 -2.2265563 -0.42834073
-8.2556744 -2.1707437 -0.42733932
-8.280448 -2.1230233 -0.42794016
-8.3088226 -2.0760489 -0.42874128
-8.3136406 -2.0231388 -0.42834073
-8.3492231 -1.9776131 -0.42954239
-8.3767719 -1.9299332 -0.43034354
-8.4157457 -1.8846083 -0.4317455
-8.4486217 -1.8376042 -0.43284702
-8.450943 -1.7838736 -0.43239638
-8.4920616 -1.7381938 -0.43394858
-8.5427332 -1.6940185 -0.43600145
-8.5402164 -1.6391226 -0.43535054
-8.5324373 -1.5834103 -0.43444926
-8.6501312 -1.5504056 -0.43995696
-8.6191311 -1.4903245 -0.43790409
-8.6448622 -1.4402002 -0.43875527
-8.6772041 -1.3909224 -0.43995696
-8.7220974 -1.3432778 -0.44180956
-8.8655357 -1.3097281 -0.44866914
-8.8476934 -1.2516689 -0.44736734
-8.9145927 -1.2053851 -0.45037153
-8.9594612 -1.1555171 -0.45227417
-8.9782782 -1.1019808 -0.45287502
-8.9957829 -1.0481416 -0.45342579
-9.0268631 -0.99566156 -0.45467755
-8.9970407 -0.93653339 -0.45287502
-8.9370146 -0.87489039 -0.44957042
-8.8706055 -0.81347239 -0.44596538
-9.2087927 -0.78752869 -0.46273881
-9.2682104 -0.73535305 -0.46549267
-9.1749315 -0.67133039 -0.4605858
-9.1569548 -0.61355311 -0.45948428
-9.2193651 -0.56093264 -0.4624384
-9.1957064 -0.50288129 -0.46108651
-9.1158209 -0.44243157 -0.4569307
-9.0714645 -0.38450298 -0.45457742
-9.1055927 -0.32999092 -0.45617965
-9.1803217 -0.27630538 -0.45983475
-9.2157917 -0.22078322 -0.46153715
-9.2539215 -0.16488945 -0.46338972
-9.3256645 -0.10893184 -0.46694469
-9.3860817 -0.052039351 -0.46994889
-9.3872223 0.0055541517 -0.46999896
-9.3890095 0.063166447 -0.47009912
-9.4094172 0.12104544 -0.47115058
-9.4993658 0.18050717 -0.47570696
-9.4251947 0.2369566 -0.47205183
-9.4335451 0.29509658 -0.47255254
-9.4125948 0.35226402 -0.47160122
-9.4062643 0.40983799 -0.47140092
-9.3806295 0.46640474 -0.47024933
-9.4224653 0.52646273 -0.47250247
-9.4379969 0.58544332 -0.47345379
-9.4382133 0.64361465 -0.47365409
-9.4181499 0.70032895 -0.47285295
-9.4345818 0.75978857 -0.47390443
-9.4307365 0.81775004 -0.4739545
-9.3937197 0.87264353 -0.47235227
-9.3524084 0.92671967 -0.47054973
-9.3286676 0.98220468 -0.46964848
-9.2926874 1.0361049 -0.46814638
-9.2286253 1.0863309 -0.46524233
-9.2604408 1.1477281 -0.46719506
-9.3898983 1.2223221 -0.4741047
-9.3782625 1.2793744 -0.47390443
-9.2921267 1.325748 -0.46994889
-9.261096 1.3793539 -0.4687973
-9.2988443 1.443354 -0.47115058
-9.4426374 1.5250698 -0.47891143
-9.4596968 1.5874436 -0.48026332
-9.4733915 1.6495697 -0.48146501
-9.5132189 1.716713 -0.48401856
-9.5722103 1.7880752 -0.48757353
-9.6042061 1.8551108 -0.48977661
-9.5994987 1.9153743 -0.49012712
-9.5787611 1.9724265 -0.48967648
-9.5459623 2.0268071 -0.48862502
-9.449439 2.0669856 -0.484319
-9.3488874 2.1051791 -0.47981268
-9.3017397 2.154614 -0.47806025
-9.2591972 2.2047069 -0.47655815
-9.1737051 2.2439167 -0.47285295
-9.1016436 2.2855668 -0.46984875
-9.0371561 2.3284116 -0.46724513
-9.0226994 2.3838184 -0.46724513
-8.9481325 2.4229503 -0.46414077
-9.0091276 2.4988999 -0.46809632
-8.9628811 2.5453999 -0.46649408
-8.9691525 2.6067591 -0.46764567
-8.9587326 2.6634512 -0.46794611
-8.9527321 2.7215667 -0.46849686
-8.9349117 2.7761519 -0.46844679
-8.9100933 2.8285053 -0.46804625
-8.9296227 2.8951375 -0.46999896
-8.9600458 2.9658816 -0.47255254
-9.0079126 3.0431814 -0.47605744
-9.0315599 3.1130424 -0.47831059
-9.0763588 3.190927 -0.48171535
-8.9757547 3.2175725 -0.47740933
-8.9201975 3.2595592 -0.47550666
-8.9496346 3.3327048 -0.47816038
-8.9486265 3.3949964 -0.47921184
-9.0710936 3.5052826 -0.48692262
-9.1535044 3.6018372 -0.49253047
-9.1256685 3.6557057 -0.49223006
-9.0096588 3.6735437 -0.48717299
-8.9887943 3.7295222 -0.48727313
-8.9657412 3.7846062 -0.48727313
-8.9285851 3.8336368 -0.48652208
-8.9103851 3.8907473 -0.48682249
-8.8954735 3.9494004 -0.48732319
-8.8637905 4.0006204 -0.48692262
-8.8254595 4.0486851 -0.48617157
-8.8936863 4.1462302 -0.49132881
-8.8446112 4.1896057 -0.49002698
-8.9573298 4.3104944 -0.49773777
-8.970192 4.3846736 -0.49994084
-8.9708519 4.4533987 -0.50149298
-8.9121428 4.4926233 -0.49974054
-8.8444014 4.5267448 -0.4974874
-8.8005075 4.5726385 -0.49658614
-8.7528496 4.6163011 -0.49548459
-8.7622223 4.6901884 -0.4976376
-8.7306461 4.742434 -0.4974874
-8.7302475 4.8118248 -0.49913973
-8.7781391 4.9086876 -0.50359595
-8.7687035 4.9742842 -0.50479764
-8.7458076 5.0324774 -0.50524825
-8.9485235 5.2224779 -0.51881725
-8.9498291 5.2971272 -0.52076995
-8.9231529 5.3555403 -0.52112043
-8.885005 5.4070754 -0.52082002
-8.8644104 5.4693575 -0.5215711
-8.8882608 5.5596633 -0.52497584
-8.9012146 5.6440468 -0.52777976
-8.9075842 5.725018 -0.5302332
-8.8840046 5.7871981 -0.53093415
-8.8758316 5.8597598 -0.53258646
-8.8878546 5.9463229 -0.53549051
-8.8809614 6.0209231 -0.53729308
-8.8841877 6.103013 -0.53974646
-8.8728046 6.1756687 -0.54134876
-8.8641281 6.2507162 -0.54315126
-8.8507996 6.3229861 -0.54470342
-8.823163 6.3853722 -0.54540437
-8.7958984 6.4482479 -0.54615545
-8.7537622 6.5003109 -0.54600525
-8.7312717 6.5671082 -0.5471068
-8.7194128 6.6423473 -0.54890931
-8.6998415 6.7121959 -0.5502612
-8.6797419 6.7820549 -0.55161309
-8.6277828 6.8271279 -0.55096215
-8.5709219 6.868072 -0.55001086
-8.4611473 6.8657813 -0.54565477
-8.3810501 6.8864994 -0.54320133
-8.4330702 7.0163665 -0.54935992
-8.3852768 7.0641184 -0.54905951
-8.3189793 7.0959911 -0.54755741
-8.2654562 7.1384149 -0.54690647
-8.2117262 7.18045 -0.54625559
-8.1518097 7.2167978 -0.5452041
-8.0768824 7.2393489 -0.54315126
-8.0182581 7.2760191 -0.54219991
-7.955811 7.3088646 -0.54099822
-7.8903379 7.3384976 -0.53959626
-7.7920804 7.3367929 -0.53594118
-7.556067 7.2025375 -0.52272266
-7.5038257 7.2411366 -0.52217191
-7.4635396 7.2912302 -0.52247232
-7.4910922 7.408524 -0.52757949
-7.5817099 7.5907335 -0.53724301
-7.5097399 7.611516 -0.53544044
-7.4189796 7.61239 -0.53228605
-7.3645124 7.6498542 -0.5317353
-7.2506771 7.6246929 -0.52687848
-7.1647811 7.6275444 -0.52402449
-7.0709729 7.6208444 -0.52056968
-6.9889898 7.6257992 -0.51796603
-6.9320135 7.657433 -0.51721495
-6.8795719 7.6938663 -0.51681441
-6.8137226 7.714973 -0.51541245
-6.718987 7.7024455 -0.51180744
-6.6683393 7.7397442 -0.5115571
-6.6336684 7.7957277 -0.51255846
-6.5690036 7.8164043 -0.51125664
-6.4973192 7.8281283 -0.50940406
-6.4301705 7.8446746 -0.50790197
-6.3800302 7.8816528 -0.50775176
-6.3377852 7.9284534 -0.50825244
-6.279736 7.9554324 -0.50750142
-6.2185245 7.9780598 -0.50650001
-6.1615362 8.0057764 -0.50584906
-6.1189451 8.0521793 -0.50639987
-6.099391 8.1295185 -0.50890338
-6.0719838 8.1972876 -0.51080602
-6.019803 8.2319727 -0.51065582
-5.9943156 8.3035755 -0.5128088
-5.949049 8.3483334 -0.51330954
-5.8787513 8.3577204 -0.51165724
-5.8336239 8.4026594 -0.51220798
-5.8186498 8.4918499 -0.51546252
-5.9577665 8.8103466 -0.53258646
-6.0094786 9.0054131 -0.54214984
-5.9656429 9.0596342 -0.54320133
-6.0046196 9.2417946 -0.5519135
-6.0944014 9.5071707 -0.56553257
-6.1197596 9.6769133 -0.57339352
-6.1406178 9.8430843 -0.58100414
-6.1607108 10.011571 -0.58871496
-6.2048736 10.22336 -0.59892923
-6.1681867 10.304945 -0.60148281
-6.3109508 10.691799 -0.62181121
-6.287931 10.803693 -0.62606716
-6.2573109 10.904443 -0.62967223
-6.2114296 10.980012 -0.63182521
-6.1692338 11.063277 -0.63442886
-6.1281729 11.149938 -0.63723278
-6.0962687 11.254951 -0.64108819
-6.0553102 11.345012 -0.64409238
-6.0018544 11.412891 -0.64584482
-5.9565215 11.497392 -0.6485486
-5.9285355 11.617347 -0.65325516
-5.8970575 11.732927 -0.65771139
-5.8413463 11.802009 -0.65956402
-5.8055711 11.913045 -0.6637699
-5.7500768 11.985364 -0.66582274
-5.7028685 12.076413 -0.66892707
-5.6518121 12.160993 -0.67168093
-5.6003466 12.246306 -0.67448485
-5.551734 12.339642 -0.67773944
-5.4949112 12.4164 -0.68009269
-5.4365568 12.491092 -0.68234587
-5.3735633 12.556353 -0.6840983
-5.3041635 12.607499 -0.68509972
-5.2354836 12.661036 -0.68625134
-5.1795039 12.746588 -0.6891554
-5.104898 12.787405 -0.68965608
-5.0420165 12.858469 -0.69180912
-4.9920921 12.96466 -0.69586474
-4.9357557 13.056705 -0.6991694
-4.8638864 13.109219 -0.70037109
-4.7990737 13.181986 -0.70267427
-4.7228026 13.224353 -0.70337528
-4.6524644 13.284189 -0.70502758
-4.5835152 13.349326 -0.70698029
-4.5040669 13.384771 -0.70738083
-4.4518743 13.503215 -0.71218759
-4.3821325 13.571145 -0.71434057
-4.3005848 13.603492 -0.71464103
-4.2335653 13.683054 -0.71744496
-4.1561828 13.73076 -0.71859652
-4.0829091 13.793352 -0.72054929
-4.0076351 13.850764 -0.72225165
-3.9328976 13.911615 -0.72415429
-3.8671312 14.006727 -0.7278595
-3.7899504 14.06298 -0.72956187
-3.7140024 14.125572 -0.73161477
-3.6404045 14.19937 -0.73426843
-3.5655563 14.270858 -0.73682201
-3.4897313 14.340988 -0.73932552
-3.4210052 14.443768 -0.74353141
-3.3520453 14.550133 -0.74793756
-3.2849631 14.669837 -0.75304472
-3.2137785 14.776575 -0.75750095
-3.1319194 14.838037 -0.75965393
-3.0504279 14.903941 -0.7620573
-2.9661086 14.958625 -0.76390988
-2.8816092 15.014797 -0.76586264
-2.8019981 15.099953 -0.76931745
-2.7387152 15.281034 -0.77767915
-2.6627657 15.400887 -0.78293651
-2.5877454 15.534172 -0.78889483
-2.505815 15.633582 -0.79315078
-2.4239779 15.740463 -0.79780728
-2.3381498 15.828155 -0.80151248
-2.2524555 15.923293 -0.80561823
-1.7083992 17.453577 -0.8785702
-1.6062887 17.518433 -0.88132405
-1.5082109 17.638418 -0.88688183
-1.4169335 17.861397 -0.8976469
-1.3054171 17.843857 -0.89634508
-1.1993754 17.903349 -0.89894867
-1.0904094 17.925325 -0.89969975
-0.87219483 17.975264 -0.90160239
-0.76437819 18.03915 -0.90455651
-0.65870196 18.182236 -0.91151625
-0.55066788 18.303734 -0.9174245
-0.4394471 18.352699 -0.91972774
-0.32778829 18.408974 -0.92243153
-0.21533896 18.45458 -0.92463464
-0.10237538 18.505489 -0.92713809
0.01123195 18.599651 -0.93184471
0.1261663 18.71908 -0.9378531
0.24070024 18.692986 -0.93660134
0.35632467 18.740088 -0.93905479
0.4743703 18.859356 -0.94516331
0.71470082 19.090649 -0.95713001
0.83482683 19.154751 -0.96058488
0.96072841 19.317846 -0.96904671
1.0729437 19.198908 -0.9633888
1.21417 19.569759 -0.98236531
1.3333414 19.548988 -0.98171443
2.0584671 19.548246 -0.98481876
1.6051917 14.395605 -0.72555625
1.6658134 14.150406 -0.71368968
1.7479384 14.102253 -0.71178705
1.8172853 13.959541 -0.70512772
1.8754957 13.747244 -0.69496351
1.9615049 13.747343 -0.69556433
2.0481746 13.750853 -0.69636548
2.124696 13.687695 -0.69381189
2.2140572 13.707923 -0.69551426
2.3052342 13.736433 -0.6976673
2.4401968 14.013274 -0.712488
2.5256023 13.99509 -0.71233779
2.6262836 14.058851 -0.71639347
2.7617512 14.297432 -0.72941166
2.8605671 14.336045 -0.73226565
2.9468658 14.310397 -0.73186511
3.0800498 14.506001 -0.7428304
3.1777501 14.526832 -0.7448833
3.2734082 14.536291 -0.7463854
3.364568 14.524689 -0.74683601
3.4582541 14.523202 -0.74783742
3.5821884 14.64432 -0.7551977
3.6809778 14.657906 -0.75705028
3.7843051 14.687269 -0.75975406
3.9090524 14.795095 -0.76656359
4.0096803 14.807464 -0.76846629
4.1613312 15.00201 -0.77988225
4.2868662 15.094366 -0.78604084
4.3771734 15.060105 -0.7856403
4.4381871 14.927659 -0.78013259
4.507329 14.826567 -0.77627718
4.6148148 14.852043 -0.77908111
4.7218752 14.873899 -0.78173482
2.1974063 6.7777548 -0.35659042
2.2559013 6.8153439 -0.35929418
2.3031118 6.8174591 -0.36014539
2.2889163 6.6407928 -0.35153335
2.2564092 6.418396 -0.34046787
2.2950754 6.4025497 -0.34036773
2.3209479 6.3517623 -0.338415
2.355695 6.32617 -0.33781415
2.3572667 6.2135482 -0.33255681
2.3827469 6.1663618 -0.33080435
2.3996918 6.0986509 -0.32795036
2.4158962 6.0309663 -0.32509637
2.4226878 5.9420438 -0.32109079
2.4514463 5.908617 -0.32008937
2.467845 5.8465381 -0.31753582
2.4875157 5.7936592 -0.31548294
2.4886448 5.6995726 -0.31117693
2.5073583 5.6476827 -0.30917412
2.521831 5.5875864 -0.30672067
2.5456567 5.5493131 -0.30546895
2.5577133 5.4865184 -0.3028653
2.559689 5.4039297 -0.29916012
2.5733092 5.3476243 -0.29690698
2.5867736 5.2922535 -0.29470387
2.5916624 5.220819 -0.29159954
2.6196017 5.1967916 -0.2911489
2.6318717 5.1423912 -0.28899589
2.6431129 5.0871511 -0.28679281
2.6602993 5.0443354 -0.28529072
2.6732893 4.9944572 -0.28338805
2.6795707 4.9332018 -0.2808345
2.7035222 4.9052968 -0.28018358
2.7233326 4.8703098 -0.27913213
2.7403519 4.8309221 -0.2778303
2.7435408 4.7681375 -0.27517658
2.7521052 4.715848 -0.27312371
2.7672539 4.6756663 -0.27177182
2.7830415 4.6371903 -0.27052006
2.8031347 4.6063762 -0.26971895
2.8114166 4.5567913 -0.26781631
2.8282008 4.5216732 -0.26676482
2.8371723 4.4747133 -0.26501238
2.845135 4.4269748 -0.26320985
2.8520737 4.3784709 -0.26135725
2.8563244 4.3267159 -0.2593044
2.8567159 4.2700944 -0.25695109
2.871093 4.235126 -0.25589964
2.900984 4.2231917 -0.25625011
2.9781935 4.2790871 -0.26075643
3.0078473 4.2656302 -0.26105684
3.0473175 4.2657852 -0.26220846
3.0582097 4.2259707 -0.26090664
3.0569186 4.1700745 -0.25860342
2.9978948 4.0373788 -0.25149348
3.0694389 4.0811648 -0.25539893
3.0653713 4.0241199 -0.25299558
3.091835 4.0076075 -0.25314578
3.1372755 4.0153184 -0.25484815
3.0682697 3.8777311 -0.24728759
3.0258024 3.7762179 -0.24198017
3.0331826 3.7381926 -0.24072842
3.0573308 3.7210543 -0.24082856
3.0852156 3.7083666 -0.24122912
3.1169207 3.7000599 -0.2419301
3.1317871 3.671747 -0.24132925
3.1503406 3.6479263 -0.24102885
3.1588581 3.6127391 -0.23997737
