# .PCD v0.7 - Point Cloud Data file format
VERSION 0.7
FIELDS x y z
SIZE 4 4 4
TYPE F F F
COUNT 1 1 1
WIDTH 1550
HEIGHT 1
VIEWPOINT 0 0 0 1 0 0 0
POINTS 1550
DATA ascii
-11.302011 -6.3508291 2.4075232
-11.45257 -6.3432941 2.4312806
-12.166088 -6.6413193 2.5741913
-10.9105 -5.8692174 2.3006141
-9.5165148 -5.0441866 1.9998071
-9.5045853 -4.9633965 1.9908524
-13.362248 -6.8742118 2.7909331
-9.7647285 -4.9477167 2.0325193
-9.7993021 -4.8899035 2.0334332
-11.910616 -5.8526235 2.4645412
-12.237173 -5.8277798 2.5171733
-12.40089 -5.8126779 2.5434892
-9.2054987 -4.2460008 1.8821158
-10.561719 -4.7932916 2.1536829
-9.5809898 -4.2774262 1.9480888
-9.5413427 -4.1896977 1.9347479
-8.6904669 -3.752564 1.7572974
-9.6191864 -4.0838237 1.9402305
-35.319561 -14.741825 7.1118822
-37.62059 -15.431922 7.5561481
-13.332922 -5.3733215 2.6697698
-10.786021 -4.2700024 2.1540484
-10.814767 -4.2048092 2.1545966
-10.852304 -4.1429315 2.1569724
-8.9561911 -3.3561287 1.7755724
-10.956767 -4.0294695 2.1677547
-10.985909 -3.9638329 2.1686683
-11.011878 -3.8970063 2.1690338
-8.9953556 -3.0595541 1.7638764
-9.0717869 -3.0235801 1.7752069
-9.219141 -3.0099788 1.8004265
-9.2290087 -2.9506593 1.7987818
-9.3135557 -2.9148295 1.811757
-9.3491268 -2.8630989 1.8152292
-9.4220839 -2.8223288 1.8260115
-9.5316877 -2.7915497 1.8439211
-9.5864439 -2.7438359 1.8512311
-9.5926847 -2.6820502 1.8492208
-9.6307745 -2.629097 1.8534241
-9.5213242 -2.5365369 1.829301
-13.323846 -3.4624255 2.5566473
-30.967802 -7.4427404 5.917974
-31.019587 -7.2541528 5.9192533
-31.057762 -7.0623755 5.9181571
-29.75363 -6.5740504 5.6617579
-30.115438 -6.4604521 5.7229795
-30.682251 -5.7983146 5.8019276
-30.664057 -5.6002264 5.7918763
-30.693001 -5.4111161 5.7909627
-30.738226 -5.2248278 5.7933383
-31.343122 -5.1299882 5.9013438
-28.904388 -4.3672791 5.4314928
-32.58622 -4.7193475 6.1180859
-32.692474 -4.5301104 6.1327057
-28.896057 -3.8234112 5.4157763
-28.895563 -3.643084 5.4113903
-32.239281 -3.8639243 6.0332894
-29.48905 -3.3508348 5.5144615
-32.471958 -3.4881735 6.0683775
-28.46958 -2.8815572 5.3167257
-28.187586 -1.9817946 5.2502046
-28.660297 -1.6618745 5.3340869
-28.44315 -1.4742259 5.2918715
-28.652016 -1.3088315 5.3291526
-28.856968 -1.1408124 5.3658853
-25.038118 -0.83591056 4.6544385
-24.187746 -0.65894532 4.4954457
-23.900381 -0.50437117 4.4413514
-24.268721 -0.36319512 4.5093346
-23.998034 -0.064609371 4.4585299
-24.841524 0.085521154 4.6153297
-24.06682 0.23055492 4.4715052
-24.169157 0.37985647 4.4908767
-26.842876 0.58656466 4.9885058
-33.347691 0.9332822 6.1988616
-33.339371 1.1378152 6.1984959
-22.587646 0.90989298 4.1997557
-24.122559 1.1199682 4.4864907
-22.539436 1.1851523 4.1931767
-31.57991 1.8546013 5.8779516
-23.966391 1.5552683 4.4620023
-23.631788 1.6792376 4.4015117
-25.472717 1.9671541 4.7467275
-21.700829 1.8099849 4.0455141
-24.200089 2.167958 4.5140862
-25.555508 2.4474969 4.7697539
-25.581089 2.6084442 4.7774291
-22.108305 2.3915808 4.1312242
-26.062901 2.9811456 4.8739214
-25.084621 3.025316 4.6942778
-25.430367 3.2254319 4.7626266
-21.528378 2.864964 4.0347319
-24.357662 3.3936162 4.5690942
-22.548178 3.2827251 4.2331986
-22.465401 3.4115715 4.2215028
-22.625641 3.5780644 4.2556772
-22.543112 3.7069364 4.2443466
-22.920197 3.9135175 4.3198223
-22.203556 3.9315364 4.1891561
-25.049175 4.5940051 4.7315588
-25.121939 4.7668591 4.7507477
-25.183872 4.9388866 4.7681088
-25.060587 5.0745902 4.7505651
-22.437256 4.6869569 4.2584186
-22.393656 4.8214374 4.2556772
-25.272968 5.6037478 4.8095932
-19.446836 4.563169 3.7107155
-19.424206 4.6837888 3.7118123
-19.375061 4.7979236 3.7079744
-19.356691 4.9196219 3.7101674
-19.400347 5.0576425 3.724422
-19.314808 5.1621175 3.7140052
-19.408888 5.3150668 3.7383111
-43.375244 12.163868 8.371397
-43.251595 12.41595 8.3620768
-16.295759 4.7867947 3.1547892
-41.563995 12.485606 8.0647421
-41.510101 12.747619 8.0693111
-16.99567 5.3340874 3.3088477
-16.284788 5.2209845 3.1765363
-16.91959 5.5391898 3.3070202
-19.58481 6.54494 3.8360825
-16.81312 5.7337103 3.2997103
-23.555365 8.1943731 4.633605
-40.134079 14.237856 7.913425
-17.169781 6.2104039 3.3916335
-25.107136 9.25564 4.971693
-25.117058 9.4347553 4.9850335
-25.17164 9.6319075 5.0075121
-18.865404 7.3520393 3.7613375
-39.056446 15.496587 7.8081608
-25.867971 10.448159 5.1835008
-18.38224 7.5563874 3.692075
-18.306503 7.6568971 3.6862271
-38.061932 16.47065 7.7067342
-16.202492 7.1301422 3.2881968
-16.179079 7.2386584 3.2924001
-18.952614 8.6193829 3.8678808
-18.896692 8.7342749 3.8673327
-18.49835 8.6883173 3.7966082
-16.908731 8.0687752 3.4802675
-23.163351 11.228168 4.7825465
-15.530333 7.6464443 3.2154622
-34.507668 17.252935 7.1690826
-34.352058 17.439423 7.1588488
-34.221684 17.638165 7.1540976
-34.070129 17.825481 7.1451426
-33.890648 17.997307 7.1305227
-33.698223 18.161074 7.1133442
-33.543888 18.344387 7.1043892
-33.397167 18.53126 7.0972619
-33.269127 18.728115 7.0943379
-33.142487 18.925562 7.0919623
-33.773563 19.561687 7.2525997
-34.562511 20.302856 7.4486909
-34.589325 20.605112 7.481586
-16.471516 9.9500694 3.5747495
-16.431114 10.063786 3.579318
-16.27634 10.10685 3.5590329
-16.298058 10.259425 3.5774906
-16.011019 10.216455 3.5281482
-15.031652 9.7218781 3.3252952
-14.73408 9.6581717 3.2724802
-14.671266 9.7462196 3.2717493
-32.934399 22.169935 7.377418
-32.798561 22.372152 7.3776011
-32.625893 22.548946 7.3697429
-16.905737 11.838521 3.8340721
-16.875277 11.972179 3.8437579
-14.375244 10.331836 3.2883797
-30.252842 22.025248 6.9536204
-15.527653 11.451593 3.5840697
-29.982643 22.396603 6.9541683
-29.842302 22.578373 6.9536204
-29.700863 22.759262 6.9530721
-29.532692 22.919376 6.9464931
-29.37759 23.089218 6.9432034
-29.203825 23.24394 6.9357109
-29.082853 23.440584 6.9410105
-28.973515 23.647186 6.9494171
-30.328432 25.064594 7.3112626
-30.184624 25.25905 7.3138213
-30.014069 25.431072 7.3101664
-29.873877 25.628838 7.3141866
-29.726452 25.820684 7.3167453
-29.554169 25.99091 7.3134556
-29.414694 26.190067 7.3185725
-29.261475 26.3773 7.3205829
-29.091087 26.549061 7.3185725
-28.917528 26.717718 7.3160143
-28.760227 26.901365 7.3178415
-28.579632 27.063133 7.3140039
-28.445683 27.269281 7.3224106
-28.252428 27.418659 7.3158312
-17.790251 17.478842 4.633605
-27.938229 27.78756 7.3222275
-16.413252 16.526716 4.3273153
-26.208435 26.714876 6.9541683
-14.914001 15.390395 3.9813688
-25.716314 27.197048 6.955265
-12.733009 13.633285 3.465282
-12.798452 13.873018 3.506218
-13.654117 14.98389 3.7659063
-15.00833 16.674248 4.1677742
-14.854782 16.708712 4.1535196
-24.747793 28.182047 6.969337
-15.808822 18.22736 4.4826531
-15.751051 18.387484 4.4981866
-13.58296 16.054985 3.9068067
-14.907043 17.840792 4.3192744
-13.411201 16.252308 3.9144824
-15.993184 19.625114 4.703598
-23.67885 29.422417 7.0179482
-14.248785 17.92956 4.2547636
-13.830158 17.623753 4.1619263
-24.536442 31.663996 7.4437566
-24.349461 31.824102 7.4461322
-12.312808 16.299349 3.7947807
-12.203159 16.361982 3.7918568
-23.811441 32.337368 7.4623971
-3.1767714 4.371192 1.0021731
-11.473454 15.989547 3.6558905
-12.163357 17.172398 3.9093652
-10.991312 15.721432 3.5634189
-12.476614 18.081001 4.0811505
-12.507114 18.36524 4.1279345
-11.004453 16.373951 3.6648452
-10.938012 16.492783 3.6763587
-21.776537 33.275757 7.3898454
-21.603951 33.458305 7.4008102
-11.43446 17.950033 3.9537735
-21.279629 33.860744 7.4315124
-21.099953 34.036636 7.4415636
-20.925076 34.221661 7.4538078
-20.757351 34.420128 7.4691591
-20.579433 34.603462 7.4814034
-20.408503 34.80032 7.4967542
-20.209845 34.951275 7.5024195
-21.843857 38.317684 8.1963224
-21.620375 38.472424 8.2008915
-21.40439 38.641338 8.2087498
-21.174427 38.785755 8.2116737
-20.553608 38.204121 8.061635
-20.903633 39.432701 8.2937288
-20.714994 39.663052 8.3152933
-20.494627 39.834869 8.3247957
-20.292484 40.044064 8.3423395
-20.079323 40.233799 8.3560467
-19.860695 40.414478 8.3681078
-19.581511 40.471859 8.35495
-19.00305 39.898907 8.2124043
-19.396791 41.377644 8.4921951
-19.166836 41.548553 8.5029774
-18.931044 41.708351 8.5117493
-2.43186 5.4478583 1.1067063
-18.469582 42.055447 8.5356903
-18.278625 42.324127 8.5673056
-18.082758 42.586613 8.5978251
-2.1398871 5.1284642 1.0306821
-18.831558 45.907955 9.2211866
-17.604553 43.678215 8.7513351
-17.192526 43.422512 8.6787834
-16.881939 43.414478 8.6563053
-16.419193 43.003815 8.5541477
-16.566671 44.202045 8.7721691
-16.31245 44.349926 8.7814894
-1.2315481 3.4147115 0.67249143
-1.2207422 3.4509349 0.67815667
-1.1918081 3.4360688 0.67377067
-1.1656358 3.4284246 0.67084664
-1.1355602 3.4084642 0.66554689
-1.1143197 3.4144332 0.66536415
-1.0933481 3.4212062 0.66536415
-1.0693982 3.4184678 0.66353667
-1.047251 3.421205 0.66280568
-1.0251104 3.4237993 0.66207463
-1.0043594 3.4309683 0.66225743
-0.98247665 3.4342306 0.66170913
-0.81733549 2.9251199 0.56229299
-0.7802071 2.8598957 0.54876947
-0.76188493 2.861779 0.54822117
-0.74109578 2.8540299 0.54584545
-0.72308689 2.8566175 0.54547995
-0.70743042 2.8686366 0.54694194
-0.68820709 2.8662317 0.5456627
-0.66993558 2.8675284 0.54511446
-0.65494442 2.8830893 0.54730743
-0.6414845 2.9062538 0.55096245
-0.63127083 2.9457028 0.55772424
-0.60897738 2.9293075 0.55388647
-0.62190616 3.0862238 0.58294374
-0.60258073 3.088052 0.58257824
-0.58362144 3.0916913 0.58257824
-0.56305033 3.0865095 0.58093351
-0.54136974 3.0744147 0.57800949
-0.52018845 3.0641091 0.57545102
-0.50042468 3.0614219 0.57435447
-0.4804078 3.0566652 0.57289249
-0.46105579 3.0556667 0.5721615
-0.44173414 3.0545464 0.5714305
-0.42271352 3.0552514 0.57106501
-0.40370095 3.0558383 0.57069951
-0.38592708 3.0660613 0.5721615
-0.36675578 3.065443 0.57161325
-2.9653559 26.097357 4.8799524
-3.0286715 28.195251 5.2688451
-3.0026698 29.665869 5.5402293
-2.471277 26.008535 4.8540015
-2.6633718 29.981541 5.5926785
-0.56393564 6.8295617 1.271547
-0.52576929 6.8819084 1.2806845
-0.49270684 7.0154428 1.3049903
-0.45311433 7.0722966 1.3150415
-0.41238707 7.1210752 1.3236308
-0.36837971 7.1175804 1.3225343
-0.32604679 7.1491709 1.3280169
-0.28124148 7.1274595 1.3236308
-0.23753576 7.130033 1.3238136
-0.19402345 7.140202 1.3254584
-0.1518701 7.2198925 1.3400784
-0.10811222 7.2570615 1.3468401
-0.063694894 7.2703686 1.3492159
-0.019220015 7.3207636 1.3585361
0.025578866 7.2853503 1.3519572
0.07101281 7.3617387 1.3662117
0.11521071 7.2992339 1.3546984
0.16076811 7.3337746 1.3612775
0.20625898 7.3503399 1.3645669
0.25075272 7.3312497 1.3612775
0.29656205 7.3502021 1.3651152
0.2793186 6.0047274 1.1151127
0.31197858 5.9233747 1.10031
0.35050729 5.9586449 1.1072545
0.38591677 5.9387221 1.1039649
0.4218612 5.9293776 1.1026857
0.46080813 5.9600053 1.1088992
0.50431269 6.0403452 1.124433
0.54627705 6.0919752 1.134667
0.58701974 6.1237411 1.141246
0.6281727 6.1552353 1.147825
0.6717425 6.2050257 1.1578763
0.71348935 6.2330208 1.1639071
0.75160331 6.2275496 1.1637243
0.79635572 6.2745142 1.1734101
0.84249055 6.3270092 1.1841923
0.88441622 6.3441172 1.1883956
0.9291324 6.3784604 1.1958884
0.97489351 6.4163799 1.2041122
1.0271428 6.4918494 1.2194631
1.0742934 6.5300512 1.2278696
1.1356833 6.6483555 1.2514445
1.3288205 7.5019073 1.4139096
1.3787274 7.5148873 1.41793
1.4293934 7.5304346 1.4224988
1.4755723 7.5215225 1.4224988
1.4904804 7.3581495 1.3932587
1.5599227 7.4653149 1.4153715
1.602596 7.441186 1.4126302
1.6441809 7.4129753 1.409158
1.6996948 7.4468393 1.4175645
1.7523172 7.4659429 1.4232298
1.8068507 7.4913692 1.4301742
1.8766483 7.5765305 1.4486321
1.9289131 7.5877419 1.4530181
1.9670029 7.5434165 1.4468045
2.0289879 7.5900946 1.4581351
2.074743 7.5746574 1.4575869
2.1020684 7.4936261 1.4444288
2.1501789 7.4881473 1.4458908
2.2318244 7.5965004 1.4694656
2.2987576 7.6504583 1.4826236
2.3670137 7.7057581 1.4961472
2.4407439 7.7755146 1.5125947
2.514818 7.8427801 1.5286767
2.5888908 7.9066238 1.5442106
14.463553 43.282833 8.4804993
12.606438 36.968826 7.2580824
13.880746 36.954048 7.3353858
15.958322 39.511242 7.9185419
15.16737 36.899158 7.4134202
15.380017 36.148445 7.299932
18.31321 37.197323 7.7045412
18.784319 37.001347 7.7111201
8.621809 14.676513 3.1617336
8.6955996 14.596306 3.1558857
8.803297 14.572971 3.1624646
8.8617401 14.468376 3.1514997
9.0579996 14.389325 3.1582613
9.08494 14.046754 3.1072741
8.9715462 13.686504 3.0396564
9.0259809 13.586975 3.029788
8.9153814 13.24343 2.965277
9.0956383 13.333864 2.9979894
9.1839905 13.287509 3.0001824
9.355011 13.358958 3.0292397
9.1455517 12.890743 2.9356716
9.8722525 13.735747 3.1419966
8.3297634 11.440626 2.6282854
9.227231 12.511324 2.8874254
9.2826443 12.426115 2.8808465
9.3474445 12.354027 2.8773742
10.117329 13.202481 3.0895474
8.7020988 11.212351 2.6359611
10.256103 13.04873 3.0827856
9.525363 11.967056 2.8408241
9.5319815 11.825711 2.8210871
9.5894432 11.748721 2.8167009
10.026484 12.131493 2.9232445
10.587712 12.495114 3.0420322
10.735237 12.512742 3.0623174
10.815036 12.450348 3.0632312
10.111472 11.497066 2.8437481
8.6690006 9.7356539 2.4208639
11.751983 13.036396 3.260236
10.194801 11.170293 2.8088427
10.323862 11.173243 2.8254731
10.250519 10.958182 2.7869127
10.331084 10.909359 2.7905676
10.415517 10.864215 2.7953193
10.482668 10.800808 2.7955019
10.563211 10.751012 2.7993398
10.6373 10.69436 2.8015327
11.934625 11.852411 3.1242697
11.720788 11.49804 3.0497077
11.933027 11.563432 3.0864406
11.993102 11.479796 3.0836992
12.109034 11.449224 3.0953953
12.148161 11.345851 3.0875371
12.163355 11.221097 3.0738308
10.734303 9.7813978 2.6971824
10.797042 9.7179804 2.6979134
14.819722 13.013352 3.6637487
13.163588 11.416688 3.2366612
14.647537 12.547157 3.5827904
13.195632 10.888699 3.1778157
13.241618 10.790756 3.1728814
13.368853 10.758618 3.1875014
13.373811 10.628061 3.1730642
13.437998 10.545194 3.1728814
15.630233 12.111422 3.6732519
8.5371847 6.5313764 1.9957865
8.5621958 6.4676104 1.9923143
8.6159048 6.4255323 1.9956038
8.6622934 6.3777919 1.9972485
8.6925163 6.318162 1.9952383
8.7423029 6.2727318 1.9977968
8.7862434 6.2229505 1.999076
8.8355408 6.1768084 2.0016346
8.8473816 6.1046095 1.9957865
8.8562307 6.030838 1.9893903
8.8906212 5.9747381 1.988842
8.9353075 5.925508 1.9906695
8.9632711 5.8651862 1.988842
8.9891796 5.8036785 1.986649
9.0047197 5.7357349 1.9822631
9.0397434 5.6803751 1.9822631
9.0802774 5.628427 1.9835423
9.1062546 5.5674772 1.9817147
9.0964651 5.485095 1.9722117
9.14009 5.4352074 1.9744048
9.2199116 5.4063783 1.9844561
9.2605715 5.3541336 1.9861008
9.2872696 5.2938023 1.9848216
9.3487177 5.2530942 1.9910351
9.3936749 5.2027783 1.9937763
9.4098892 5.1365619 1.9904867
9.4594107 5.0885096 1.9943246
9.5017481 5.0363579 1.9967003
9.5699444 4.9975333 2.0045586
9.6397686 4.9589605 2.0127823
9.6945705 4.9121628 2.0178993
9.7359638 4.8582926 2.0202751
9.7700024 4.8006306 2.0211887
9.8178596 4.7495852 2.0250266
9.8672333 4.6989779 2.0292299
9.9492912 4.6633849 2.040195
10.001822 4.613369 2.0451291
10.076494 4.5730429 2.0546322
10.121421 4.5187449 2.0581045
10.197566 4.4779048 2.0679729
10.17611 4.3941994 2.0581045
10.190212 4.3262973 2.0555458
10.687451 4.4602404 2.1503932
10.965668 4.4975648 2.2008324
11.221025 4.5220828 2.24652
11.42407 4.5226402 2.2816081
11.428698 4.4435501 2.2770393
11.434623 4.3652754 2.272836
11.445541 4.289165 2.2697294
11.434735 4.2052803 2.2624192
11.427957 4.1233578 2.2560229
11.456749 4.054472 2.2567539
11.518562 3.9969928 2.2640641
11.52984 3.9218078 2.2615056
11.546226 3.8485005 2.2600436
11.470556 3.7452297 2.2406721
11.504558 3.6783707 2.2428651
11.562565 3.6188722 2.2498095
11.635315 3.5634069 2.2596781
11.745489 3.5184722 2.2768567
11.791388 3.4535232 2.2816081
11.932395 3.4154742 2.3048174
11.962596 3.3448422 2.3066449
11.990481 3.2734501 2.3081069
12.042642 3.2084236 2.3143203
12.09255 3.1423855 2.3201685
12.156398 3.0794775 2.3287578
12.248561 3.0229728 2.3428295
29.839569 4.5086026 5.6072984
30.098248 4.3589687 5.6507931
29.51577 4.0898538 5.5365744
29.271723 3.5081928 5.4777284
29.625813 3.3663783 5.5400462
8.6628332 0.87631869 1.6162142
30.059576 2.8563087 5.6104054
9.9264393 0.88132954 1.8501345
9.7445154 0.80493301 1.8152292
8.7209415 0.66645795 1.6235242
10.109667 0.71033108 1.8815676
10.155044 0.65093023 1.8892431
9.3491011 0.54163456 1.7384741
9.5514708 0.43584359 1.7750242
9.5461063 0.37691775 1.7735622
9.5305519 0.31774589 1.7702726
10.545583 0.28689525 1.9586883
9.2034979 0.13729824 1.7086858
9.5305634 0.083715193 1.7693589
9.5156784 0.029198978 1.597172
9.3588781 -0.028704621 1.57082
9.5626535 -0.088011794 1.6051273
9.7609997 -0.20965642 1.6387718
9.7476997 -0.26921788 1.636783
10.219942 -0.3450377 1.7165021
58.439426 -2.332936 9.8271313
10.386175 -0.542198 1.7458373
14.841483 -1.0491004 2.498445
10.134739 -0.77885979 1.7062265
14.914959 -1.2384129 2.5131955
10.224609 -0.91210967 1.7231315
10.874602 -1.0374004 1.8338432
14.764054 -1.4999784 2.4919815
14.822227 -1.5978345 2.5034173
14.548572 -1.6586984 2.4588342
9.4604187 -1.1373717 1.5993266
9.6968775 -1.2262092 1.640595
14.889996 -1.9758992 2.5223112
12.409258 -1.7242218 2.1034958
15.497032 -2.2503123 2.6297081
14.848178 -2.2491975 2.5218139
14.641371 -2.4020193 2.4914842
14.690519 -2.5027437 2.5024228
13.728038 -2.4255295 2.3408301
16.308764 -2.9848459 2.7843399
14.81056 -2.8046529 2.531261
14.796944 -2.8962338 2.5319238
66.011826 -13.342354 11.31627
14.276405 -3.0682244 2.452039
14.211093 -3.1455345 2.4440837
14.22037 -3.239244 2.4490557
14.182944 -3.3223889 2.4460726
14.191054 -3.416276 2.4510446
14.969206 -3.7009325 2.5894341
15.161287 -3.8472908 2.626725
14.747059 -3.8386376 2.5589387
25.571115 -6.824069 4.4458447
15.008948 -4.1041183 2.6129687
25.423723 -7.1200652 4.4350719
15.416277 -4.4195333 2.6931851
31.50428 -9.2414064 5.5156713
15.592303 -4.6778126 2.7337904
24.776522 -7.5992832 4.353364
29.943729 -9.5877476 5.2819834
24.744926 -8.0908289 4.3732524
61.441109 -23.918406 11.078605
61.300529 -24.297859 11.07993
61.139313 -24.669106 11.077942
61.003216 -25.050528 11.080925
60.551693 -26.177765 11.084571
60.20969 -26.911613 11.081588
60.026367 -27.272793 11.078439
49.422916 -22.821997 9.1467838
49.356335 -23.530323 9.1872234
59.269753 -28.704172 11.065512
2.3142929 -1.1558781 0.43271002
2.3133132 -1.1731793 0.43387017
2.3060713 -1.1873515 0.43387017
2.2978685 -1.201022 0.43370444
2.2895849 -1.2146367 0.43353871
2.249094 -1.2108952 0.42724073
2.2165253 -1.2109591 0.42243439
2.1883535 -1.2130603 0.4184567
2.1542237 -1.2114775 0.4133189
2.1321883 -1.2163644 0.41050136
2.1195636 -1.2264605 0.40950695
2.1094468 -1.2379453 0.40900975
2.1001163 -1.2498564 0.40867826
2.0907192 -1.2616998 0.4083468
2.0787323 -1.2719306 0.40751812
2.0625091 -1.2794622 0.40586075
2.0579586 -1.2941936 0.4065237
2.049979 -1.3067967 0.4065237
2.0419219 -1.3193506 0.4065237
2.0370882 -1.3340161 0.40718666
2.0305076 -1.347581 0.40751812
2.0271106 -1.3633171 0.40851253
2.0276709 -1.3818393 0.41033563
2.0313258 -1.4026611 0.41282168
2.034801 -1.4235795 0.41530773
2.0397046 -1.4457335 0.41812524
2.0364025 -1.4622486 0.41928539
2.0313792 -1.4776169 0.42011407
2.0167172 -1.4859581 0.41895393
1.9996588 -1.4924055 0.41729656
1.9841708 -1.4998891 0.41597065
1.9749302 -1.5120356 0.41597065
1.9726291 -1.5295641 0.41746229
1.973289 -1.5495577 0.41961685
1.9699184 -1.5665474 0.42094275
1.9556611 -1.5748935 0.41994834
1.8657173 -1.5214179 0.40254605
42.11763 -37.474125 9.472456
43.025547 -38.757549 9.73001
41.253834 -37.622662 9.3813009
42.549591 -39.285297 9.7306728
40.987503 -39.265022 9.5370932
40.790405 -39.559032 9.547534
40.288593 -40.043407 9.544385
1.5378811 -1.6051869 0.37155339
1.5415589 -1.6289195 0.37486809
1.6076279 -1.719761 0.39359629
1.631831 -1.7672716 0.40221456
1.6116536 -1.7670494 0.39989427
1.5941807 -1.7695777 0.3982369
1.5734602 -1.7682744 0.39575085
1.5560709 -1.7704878 0.39409348
1.5393603 -1.7732995 0.39260188
1.5226741 -1.775973 0.39111024
1.4454769 -1.7070072 0.37387368
1.4406691 -1.7226533 0.37536532
1.4263043 -1.7268982 0.3743709
1.4125651 -1.731796 0.37354222
1.4050052 -1.7442712 0.3743709
1.3887515 -1.7459127 0.37287927
1.3853219 -1.763708 0.37486809
1.3684306 -1.7643819 0.37321076
1.3575788 -1.7727453 0.37321076
1.3502442 -1.7857618 0.37420517
1.3392614 -1.7940131 0.37420517
1.3375887 -1.8148994 0.37685695
1.3246871 -1.8206801 0.37635973
1.322119 -1.8407894 0.37884578
1.3467282 -1.8995533 0.38928714
1.3203483 -1.8867723 0.384978
1.2515872 -1.8120672 0.36807293
1.2600776 -1.8731143 0.37735415
49.981335 -76.316444 15.329571
48.329803 -74.791992 14.963459
46.681942 -73.223618 14.592045
45.172798 -71.824898 14.257755
44.004429 -70.929192 14.026055
43.590008 -71.233192 14.033017
43.19899 -71.576996 14.048265
42.800343 -71.910194 14.061854
42.449158 -72.326256 14.092019
42.102863 -72.755211 14.125
41.705505 -73.099548 14.141906
41.383812 -73.580994 14.185659
41.020008 -73.993095 14.216321
40.62764 -74.357635 14.238198
40.258984 -74.76963 14.269522
39.823021 -75.059677 14.277975
39.487343 -75.542961 14.323552
39.122402 -75.976715 14.360014
38.73354 -76.369247 14.389018
38.280968 -76.639 14.395316
37.920113 -77.096329 14.437247
37.553371 -77.548561 14.478516
37.121815 -77.871887 14.496083
36.790752 -78.412453 14.554422
36.39864 -78.831009 14.590387
36.001137 -79.24411 14.62569
35.594704 -79.643578 14.658836
35.165672 -79.997711 14.684029
34.780197 -80.457291 14.728943
34.424732 -80.995918 14.788608
33.978046 -81.327553 14.810817
33.583275 -81.78994 14.857223
33.167862 -82.210297 14.896337
32.820503 -82.81015 14.968266
32.384747 -83.197456 15.002076
31.923286 -83.524483 15.025445
31.489176 -83.929306 15.063232
31.008017 -84.214409 15.079972
2.1637156 -5.9889956 1.0681423
2.1259389 -5.9993706 1.0676451
2.0819671 -5.9918084 1.0639989
2.0416656 -5.9942012 1.0621759
2.0095303 -6.020648 1.0646619
28.494694 -87.156487 15.408461
27.981625 -87.399185 15.420725
27.630924 -88.163025 15.525305
27.142071 -88.502502 15.555469
1.7561805 -5.8537006 1.0250509
1.7313319 -5.9022183 1.0316803
1.6907363 -5.8975625 1.0290287
1.6454763 -5.8755379 1.0233936
1.6132951 -5.8997927 1.0258796
1.5938445 -5.9724674 1.0368181
1.5420161 -5.9239178 1.0267082
23.762857 -93.653496 16.236147
23.23415 -93.985176 16.268631
7.1778836 -45.50449 7.740016
6.872252 -45.374119 7.710515
6.7128725 -46.236195 7.8498988
6.4498081 -46.425964 7.8752565
6.163136 -46.451954 7.8731022
5.6972685 -45.059479 7.6309614
5.5242538 -45.955219 7.7768092
5.2642875 -46.182255 7.8096251
5.000052 -46.392136 7.8397889
4.3767786 -43.089069 7.2767835
4.1085615 -43.075848 7.270154
3.8429492 -43.086491 7.2678337
3.578666 -43.111229 7.2681651
2.8766656 -37.439228 6.3085527
2.016866 -38.645874 6.5016356
1.6704123 -36.283367 6.1022115
1.0315192 -37.367695 6.2803779
0.59559011 -38.859581 6.529479
0.35988545 -39.161304 6.5796971
-0.36247134 -39.320061 6.6063809
-0.60457605 -39.372314 6.6156621
-0.83675885 -38.931087 6.5422411
-1.4096584 -35.313423 5.93747
-1.7785801 -38.609203 6.4935145
-2.0454586 -35.042259 5.8971958
-2.2848871 -35.407936 5.9610043
-2.5270014 -35.745422 6.0203381
-3.4076698 -38.193707 6.4423022
-3.6214445 -37.957081 6.4060059
-4.5932183 -40.284557 6.8120594
-4.5425663 -37.779427 6.3929129
-11.285396 -36.004795 6.3392143
-11.490166 -35.885098 6.33043
-11.684391 -35.73518 6.3165083
-11.894696 -35.636623 6.3118677
-12.07943 -35.464016 6.2942996
-12.244368 -35.238323 6.2674503
-12.440263 -35.105827 6.2573404
-12.642365 -34.992661 6.2508769
-12.820034 -34.814484 6.2329774
-13.015741 -34.68808 6.224525
-13.192071 -34.51268 6.2074537
-13.380333 -34.371353 6.196681
-13.559729 -34.209763 6.1824279
-13.752038 -34.082935 6.1746383
-13.936933 -33.939529 6.164031
-14.12819 -33.813339 6.1567388
-14.301837 -33.647053 6.1423197
-14.468888 -33.468143 6.1257463
-14.663652 -33.355263 6.1214371
-14.831824 -33.183632 6.1065207
-15.015166 -33.048004 6.0983996
-15.189962 -32.895267 6.0872951
-15.376436 -32.769302 6.0813289
-15.547084 -32.611134 6.0695615
-15.732704 -32.485836 6.0640922
-15.92129 -32.367455 6.0601144
-16.077726 -32.185341 6.0443697
-16.256618 -32.050026 6.0375743
-16.412785 -31.871643 6.0228238
-16.566919 -31.691681 6.0079079
-16.73749 -31.545002 5.999455
-16.912964 -31.408716 5.9931569
-17.081722 -31.261078 5.9848704
-17.278475 -31.165165 5.9866934
-17.440369 -31.006987 5.9767494
-17.614655 -30.871983 5.9714456
-17.781521 -30.724911 5.9639874
-17.966717 -30.610123 5.9629931
-18.124943 -30.450155 5.9533806
-18.322142 -30.3561 5.956861
-19.089981 -30.768353 6.0833178
-28.61894 -44.887421 8.9445858
-29.114132 -44.451172 8.9281778
-21.093935 -26.190199 5.6495862
-21.253614 -26.059511 5.6494203
-21.409973 -25.92481 5.6485915
-21.569906 -25.794466 5.6489234
-21.727774 -25.661629 5.6489234
-21.882252 -25.524834 5.6482601
-22.037167 -25.388596 5.6479287
-23.326572 -26.543312 5.9366412
-2.6053247 -2.7198675 0.63093042
-11.016792 -11.084441 2.6244047
-2.4243355 -2.3802855 0.56894511
-2.4332314 -2.3598728 0.5676192
-2.469887 -2.3372917 0.56944233
-2.504355 -2.3409474 0.57408291
-2.5549014 -2.3589847 0.58236974
-2.5736997 -2.3472509 0.58336413
-2.6730521 -2.4079762 0.60258955
-2.6509378 -2.3587539 0.59430271
-2.6868439 -2.3613219 0.59910911
-2.721391 -2.3622444 0.60358399
-2.7223573 -2.3339489 0.60060072
-2.756948 -2.3344059 0.6050756
-2.7795417 -2.3244042 0.60689867
-2.8036373 -2.3154688 0.60905325
-2.8391907 -2.3156738 0.61369389
-14.083959 -11.060725 3.0075865
-9.3517733 -7.2520914 1.9868177
-9.3679075 -7.1729903 1.9808512
-12.350743 -9.3372164 2.6000414
-15.163594 -11.318145 3.1779633
-15.188899 -11.049415 3.1545944
-14.12536 -10.143789 2.9205751
-14.250088 -10.10141 2.9335024
-14.212414 -9.9442453 2.9131169
-10.670189 -7.3687449 2.1772485
-10.791803 -7.3553414 2.1928277
-10.830185 -7.2845831 2.1915019
-10.871392 -7.2158117 2.1908388
-8.7110929 -5.705286 1.7479919
-10.971546 -7.0898881 2.1933248
-14.074141 -8.9728069 2.8030682
-11.172926 -7.0271702 2.2161965
-11.200749 -6.9491234 2.2132132
-10.486962 -6.4175153 2.0642164
-10.313375 -6.2246361 2.0224509
-11.062366 -6.5844107 2.1615036
-11.098306 -6.5139136 2.1606748
-11.214886 -6.4901476 2.1755912
-11.246788 -6.4168148 2.1740994
-11.281651 -6.3452673 2.1732709
-14.796248 -8.202858 2.8411875
-9.5127316 -5.1977663 1.8197557
-12.392479 -6.6727877 2.3633702
-9.9826288 -5.2964816 1.8971545
-11.812706 -6.1748419 2.2380736
-11.868784 -6.1117253 2.241554
-13.258756 -6.7248507 2.4964564
-13.42789 -6.6047287 2.5128641
-10.613714 -5.1399364 1.9798567
-10.702025 -5.1018739 1.9904639
-9.8260593 -4.6105213 1.822076
-10.193497 -4.7068219 1.88489
-9.4059668 -4.2039418 1.7294295
-13.116627 -5.6702452 2.3995006
-9.6582651 -4.0353298 1.7571074
-9.9455748 -4.0838699 1.8048394
-37.616207 -15.176421 6.814877
-9.9940252 -3.9611516 1.8046737
-10.155993 -3.953413 1.8295341
-10.07965 -3.8526461 1.8114688
-12.487123 -4.6851745 2.2393994
-15.742616 -5.7966442 2.8173215
-36.827621 -13.30413 6.5787029
-10.270581 -3.0811505 1.8000331
-9.3060808 -2.7296946 1.6278332
-11.795964 -3.3815188 2.0602388
-9.6020756 -2.6255608 1.6709247
-30.444836 -7.526422 5.268559
-30.511538 -7.3445516 5.2722049
-74.91745 -17.547783 12.929379
-30.770523 -7.0085578 5.3017058
-75.465118 -16.701906 12.987554
-75.778297 -16.284128 13.024015
-32.717014 -6.8209796 5.6146159
-29.7472 -6.0116181 5.0983477
-29.990639 -5.8695121 5.1338153
-30.856482 -5.8426108 5.2758512
-30.854889 -5.6464238 5.2695532
-30.709293 -5.4252567 5.2388921
-30.74395 -5.2370572 5.2392235
-29.931772 -4.9099188 5.09553
-33.702953 -5.3163567 5.7321229
-29.028368 -4.3966331 4.9321146
-29.487141 -4.2812037 5.0055356
-28.871708 -3.8307016 4.8926692
-28.989573 -3.6654751 4.9087458
-29.462515 -3.3584826 4.981504
-28.310427 -2.8757 4.7803001
-34.824532 -3.3215892 5.877142
-28.124537 -2.5085351 4.743341
-28.228836 -2.3433423 4.7584229
-28.02833 -2.1536205 4.7222924
-30.428499 -2.1503038 5.1245341
-28.355757 -1.8290573 4.7733393
-28.477503 -1.4862443 4.79041
-28.546181 -1.3142478 4.8005199
-28.611847 -1.1413859 4.8102984
-28.631123 -0.96623778 4.8124528
-23.559669 -0.65042365 3.9589119
-23.451805 -0.50346106 3.9401836
-24.778725 -0.3798444 4.1627674
-32.895443 -0.30233318 5.5266099
-24.288439 -0.074239373 4.0798993
-33.791126 0.10412846 5.6769328
-28.20738 0.25997651 4.7387004
-24.10327 0.37004194 4.0492382
-25.003668 0.53734529 4.2010522
-25.107351 0.69372451 4.2191176
-22.256083 0.88836008 3.7413003
-31.458178 1.4491248 5.2904358
-22.099722 1.1539009 3.7171028
-31.520725 1.8398837 5.3043575
-23.624048 1.5244062 3.97648
-24.169065 1.7085571 4.0699549
-21.858259 1.6800351 3.6822982
-21.841642 1.8136336 3.681304
-25.504768 2.2754915 4.3013229
-22.072987 2.1058815 3.7243953
-24.985346 2.5385573 4.2186203
-25.578182 2.7574618 4.3215427
-25.435366 2.9000542 4.3003283
-22.790487 2.8822033 3.8586416
-22.706249 3.2972453 3.8540008
-25.212906 3.8193753 4.2835889
-23.808668 3.7562251 4.0487409
-24.057657 3.9469483 4.0951471
-22.551413 3.8420625 3.8425651
-23.945797 4.5346961 4.093821
-22.624002 4.5726528 3.8770382
-25.276419 5.4324479 4.3429227
-25.336971 5.608326 4.3591647
-25.254967 5.7529521 4.3510437
-25.247036 5.9143286 4.3558497
-25.263004 6.0818257 4.3649654
-25.307863 6.4221902 4.386014
-24.87192 6.4742565 4.3172336
-43.314766 12.130694 7.5575404
-43.209183 12.387544 7.552237
-41.693043 12.230223 7.3001523
-41.571877 12.472213 7.2921968
-15.948919 4.8916726 2.8015764
-41.178555 12.907095 7.2504315
-41.030022 13.137565 7.2383327
-40.926144 13.381717 7.234355
-17.21974 5.747457 3.0488548
-17.12254 5.8320212 3.0379162
-19.134878 6.6487641 3.40237
-22.242043 7.8817205 3.9637182
-17.425024 6.2953205 3.1116688
-17.429564 6.4181371 3.1194584
-17.370464 6.5176864 3.115978
-19.131027 7.3125234 3.439992
-18.882702 7.3507071 3.4033644
-18.870249 7.4795127 3.4093308
-18.924599 7.6357489 3.4275618
-18.863707 7.7461047 3.4250758
-18.476418 7.7198892 3.3632562
-18.42507 7.8315701 3.3625932
-15.895519 6.8718152 2.9083107
-25.159821 11.060719 4.6168842
-16.089096 7.1911101 2.9596887
-18.94021 8.6052856 3.4941878
-18.87989 8.7180309 3.492862
-17.415468 8.1718149 3.2309988
-17.095274 8.149929 3.1807806
-36.786957 17.815739 6.8672495
-36.641552 18.023712 6.86062
-34.528515 17.248241 6.4845648
-34.363983 17.430336 6.4736261
-17.215986 8.8655357 3.2523787
-34.031265 17.789959 6.4515834
-33.897945 17.985956 6.4471083
-18.195152 9.7976351 3.4709847
-18.280945 9.9890108 3.4989941
-18.142548 10.058434 3.4842436
-18.033215 10.142976 3.4751282
-16.537632 9.435792 3.1978517
-16.275429 9.4190273 3.1582406
-16.23859 9.5311947 3.162384
-16.692484 9.9358215 3.2626543
-15.998826 9.6563673 3.1385181
-15.746651 9.6364689 3.1005645
-18.495296 11.475173 3.6559463
-18.402 11.574265 3.6514714
-33.525303 21.374723 6.6799674
-15.169969 9.8032284 3.0334413
-33.24398 21.773714 6.6766529
-33.08757 21.962561 6.6721783
-32.926823 22.148104 6.6670403
-16.177292 11.026256 3.2881777
-32.598183 22.512953 6.6559358
-32.437614 22.697283 6.6514611
-32.283257 22.885624 6.6484776
-32.105377 23.056816 6.6408539
-16.234966 11.810863 3.3720403
-16.64011 12.262452 3.4718134
-16.472094 12.295305 3.4524224
-16.197319 12.245675 3.410491
-16.316055 12.49352 3.4515936
-30.50555 23.65723 6.4857249
-16.155308 12.687928 3.4502678
-16.320272 12.980186 3.5024745
-30.059553 24.2104 6.4845648
-29.684223 24.20989 6.4355068
-30.29018 25.015148 6.6000829
-30.173944 25.232166 6.6083698
-30.020813 25.418747 6.6088667
-29.838827 25.580648 6.6032319
-29.677582 25.760023 6.6024032
-29.528591 25.9501 6.6045575
-29.382807 26.14325 6.6077065
-29.235031 26.334929 6.6106901
-29.083822 26.523783 6.6131759
-28.911833 26.693712 6.611187
-28.762629 26.88475 6.6146674
-28.584948 27.049206 6.6118503
-28.401348 27.207716 6.6078725
-28.256525 27.403442 6.6131759
-14.645011 14.378167 3.4471188
-27.918814 27.748825 6.6133418
-27.73134 27.902822 6.609364
-15.206915 15.489774 3.6460021
-15.539296 16.023846 3.7492557
-15.800874 16.494907 3.8367643
-14.286839 15.098725 3.4913702
-12.726613 13.616195 3.1302311
-12.63413 13.684608 3.1280766
-17.865229 19.590593 4.4537997
-17.589584 19.527649 4.4148521
-17.46419 19.629314 4.4135261
-15.172429 17.265572 3.860796
-15.055215 17.345682 3.8579786
-15.173141 17.699787 3.9159863
-15.559376 18.377359 4.0447631
-14.916207 17.838501 3.9058764
-13.625315 16.499361 3.5941267
-14.608921 17.913208 3.8826733
-14.089863 17.494825 3.7731216
-13.938055 17.525375 3.7611887
-11.843407 15.080592 3.2205575
-24.478842 31.566868 6.7112918
-11.587907 15.133965 3.2013321
-12.2965 16.265215 3.4247444
-24.022833 32.185173 6.7475882
-23.841278 32.354198 6.7522287
-12.995173 17.863659 3.7104735
-23.473507 32.687588 6.7611785
-23.285616 32.849506 6.7649903
-11.277348 16.117743 3.3039227
-12.631316 18.290804 3.7336764
-11.330857 16.624884 3.3791668
-22.127895 32.898819 6.6612396
-11.095998 16.717487 3.3700514
-21.781944 33.258633 6.6794705
-21.592983 33.415676 6.6842766
-11.54715 18.112181 3.6078827
-21.253223 33.792507 6.7069826
-21.092787 33.998535 6.7220645
-20.903339 34.159283 6.7283626
-20.729528 34.346848 6.7401299
-20.566303 34.553902 6.7558746
-20.398825 34.755989 6.7707911
-20.202963 34.911228 6.7767577
-20.028446 35.104771 6.7903481
-21.623598 38.446877 7.4111953
-21.408804 38.617645 7.4186535
-21.184687 38.772514 7.4232941
-20.563478 38.190628 7.2875562
-20.088881 37.863956 7.201539
-19.684404 37.657894 7.1392226
-19.478252 37.827065 7.1485038
-19.287268 38.027664 7.1639171
-19.086182 38.210575 7.1761818
-18.90403 38.434044 7.1962357
-18.723724 38.6647 7.2177815
-18.525169 38.860756 7.2330289
-18.308578 39.021008 7.2418132
-18.08906 39.176487 7.2499342
-18.903576 41.609501 7.6786938
-18.70545 41.853455 7.702394
-18.478054 42.035152 7.7148242
-18.267523 42.258175 7.735044
-18.062277 42.49744 7.7584128
-17.879492 42.794914 7.7925544
-2.127831 5.1817374 0.93936539
-17.22101 43.450481 7.8528824
-16.897917 43.411045 7.8268619
-16.374218 42.84145 7.7058744
-16.017508 42.691814 7.6611257
-15.577044 42.30529 7.5744457
-15.37279 42.554039 7.6019578
-15.131814 42.705196 7.6122332
-9.4049387 27.068996 4.8139443
-1.1902463 3.4942465 0.61833447
-1.1416225 3.4201 0.60391545
-1.1258254 3.4429753 0.60673296
-1.0953569 3.4207029 0.6015951
-1.0684487 3.4085391 0.59828043
-1.0463576 3.4112592 0.59761745
-1.0259736 3.4195044 0.59794891
-0.98415595 3.3547623 0.58551872
-0.96491182 3.3654778 0.5863474
-0.94450927 3.3722847 0.58651316
-0.92197895 3.3713579 0.58535302
-0.81076336 3.0377433 0.52635092
-0.75882387 2.9147747 0.50414228
-0.74019718 2.9165082 0.50364506
-0.72039461 2.9133363 0.50231922
-0.70250511 2.9177015 0.50231922
-0.68526393 2.9248376 0.50281638
-0.66774255 2.9309103 0.50314784
-0.64868081 2.9301381 0.50231922
-0.63566208 2.9572031 0.50629687
-0.62776971 3.0102837 0.51474941
-0.61514735 3.0430779 0.51972151
-0.60991156 3.1155097 0.53148878
-0.58894902 3.1095037 0.52983141
-0.56506556 3.0868673 0.52535653
-0.54371238 3.0766807 0.52303618
-0.52416164 3.0760701 0.52237326
-0.50735253 3.0918796 0.52452785
-0.48821789 3.0939603 0.52436209
-0.46819079 3.0900724 0.52320194
-0.4483715 3.0870314 0.5222075
-0.42901433 3.0867939 0.52171034
-0.40850958 3.077637 0.51972151
-0.39196819 3.0986748 0.52287048
-6.6604881 55.407658 9.3768263
-6.3634987 55.825695 9.4407997
-3.0105309 29.637884 5.0045409
-2.8301179 29.671507 5.0071931
-2.2262685 24.95966 4.2093391
-2.0813978 25.073095 4.2262444
-0.5244841 6.8240619 1.1481929
-0.48169887 6.8143635 1.1460383
-1.2744775 27.682224 4.6551695
-1.1039697 27.673758 4.6525178
-0.91223049 27.030495 4.5432973
-0.57654178 26.857254 4.5126362
-0.30236036 32.898399 5.5271072
-0.10013309 32.781296 5.5072188
0.62301922 28.988846 4.8709579
0.79949021 28.934202 4.8625054
0.977112 28.931709 4.8630023
1.1519008 28.857178 4.8515668
0.27390572 5.9493461 0.99886465
0.30865648 5.9140697 0.99322963
0.34390423 5.8943434 0.99024636
0.38355786 5.946249 0.99936181
0.41662827 5.8955817 0.99124074
0.45498693 5.9214292 0.99604714
0.49939144 6.0158215 1.012455
0.5376091 6.0273786 1.014941
0.5832935 6.1152649 1.0303545
0.62180197 6.1213827 1.0320119
0.660936 6.1321592 1.0344979
0.70514148 6.1857982 1.0442764
0.7483815 6.2254152 1.0517344
0.80215687 6.3439813 1.0726172
0.84236515 6.3487158 1.0742745
0.88700521 6.3844528 1.0812355
0.93197352 6.4189034 1.0880307
0.98020428 6.4715662 1.0979748
1.0298846 6.528748 1.1087477
1.0737568 6.5456619 1.1127254
1.1302979 6.6351938 1.1291332
1.1768237 6.6611519 1.1347682
1.2254859 6.6964884 1.1420606
1.2711391 6.7130666 1.146204
1.3147686 6.7177219 1.1483586
1.6435583 8.1323967 1.3923222
1.4452182 6.9318137 1.1879696
1.4910394 6.938242 1.1906214
1.5433878 6.9732542 1.1982452
1.5955646 7.0049992 1.2053719
1.650438 7.0459661 1.2141559
1.7137219 7.1191201 1.2285749
1.7711004 7.1639967 1.2381876
1.8669349 7.3575511 1.2736552
1.9038466 7.3144631 1.2681859
2.1366069 8.0067797 1.3906648
2.2626925 8.2750874 1.4397228
2.3184779 8.2790909 1.4428717
2.35184 8.2040386 1.4322646
2.4382217 8.3124714 1.4538103
2.4767108 8.2557936 1.4465179
2.5857356 8.430891 1.4799966
1.830108 5.8392792 1.0263768
2.7163672 8.4839916 1.4950786
2.7748091 8.4868488 1.498559
2.8271434 8.4705982 1.4987248
2.8997328 8.5137701 1.5094976
2.919225 8.4017324 1.4927583
2.9578757 8.3474102 1.4862946
3.0144002 8.3439436 1.4889463
3.0893958 8.39007 1.5005479
3.1633375 8.4309711 1.5113207
3.2512767 8.5062828 1.5283916
3.3373959 8.5734768 1.5441365
3.4324553 8.6601009 1.5635276
3.5032406 8.6827745 1.5714829
14.946136 36.397129 6.6105242
20.621651 48.515079 8.8574085
17.400021 40.248085 7.3671098
17.748737 39.064445 7.2089972
17.470428 36.645435 6.8206778
18.60253 37.239574 6.9938717
20.281727 38.797829 7.3555079
8.5048351 14.489989 2.8216305
8.6611738 14.551084 2.8438392
8.7433386 14.287248 2.8130124
8.9253569 14.190565 2.8153327
9.0436935 13.994657 2.7982619
9.1320953 13.943027 2.7990904
9.444356 14.228532 2.8680367
9.2271023 13.717809 2.7763846
9.197238 13.493883 2.7424088
9.2355881 13.373091 2.7293155
8.0051126 11.2925 2.3242564
8.113369 11.297637 2.3355265
9.8644238 13.559483 2.8159955
9.9456816 13.496318 2.8154984
8.4656525 11.341582 2.3764634
8.5291367 11.281558 2.3748059
9.0676517 11.842088 2.5045774
8.9570675 11.40496 2.4351339
9.6118946 12.085324 2.5930805
9.651226 11.98311 2.5837991
9.263958 11.358904 2.4613202
9.4427471 11.434155 2.4901583
9.9315252 11.876815 2.5998757
9.8449001 11.627497 2.5584416
10.030311 11.700139 2.5879426
10.072177 11.604116 2.5803187
8.8633242 10.085753 2.2544816
10.482586 11.781711 2.6482706
10.598903 11.766261 2.659375
10.508091 11.522486 2.6187696
9.2834444 10.055035 2.2979045
9.3671894 10.021658 2.3033736
10.380169 10.969679 2.5360672
9.5877018 10.0085 2.3272398
12.042306 11.67822 2.8171556
12.12597 11.473985 2.8035653
13.724986 12.828294 3.1552575
10.541336 9.7322044 2.4091134
12.194479 11.120593 2.7715783
14.716447 13.255942 3.3266284
14.696568 13.07559 3.3039227
13.034185 11.454083 2.9141114
14.998915 13.018367 3.3357441
15.075517 12.923523 3.3350811
15.12066 12.802103 3.3276229
15.226164 12.731857 3.3335896
8.2504463 6.8134108 1.7962211
8.2462416 6.7252626 1.7862769
8.0699921 6.4994845 1.7393737
8.0935116 6.436955 1.7358932
8.1157923 6.3737736 1.732247
8.1492929 6.3196254 1.7310869
8.1730394 6.2581124 1.7279378
8.191618 6.1929784 1.7237945
8.2176085 6.13375 1.7213085
8.2344475 6.0680022 1.7169993
8.2468033 5.9993787 1.7118615
8.250618 5.9250793 1.7050663
8.262681 5.8572345 1.7000942
8.2871532 5.7985106 1.6977739
8.3095922 5.7385859 1.6951221
8.3153105 5.6674967 1.6891556
7.0660224 4.7528157 1.4291157
7.0342493 4.669014 1.4168512
6.9901667 4.5782185 1.4022664
7.0131564 4.5320296 1.4012719
8.4627953 5.3954458 1.6846807
8.4882288 5.3386922 1.6831892
8.5023899 5.2750711 1.6795429
8.5413265 5.2269206 1.6808687
8.5935011 5.1866431 1.6848465
8.6353331 5.1398687 1.6868353
8.6462965 5.0748072 1.6828576
8.6678829 5.0162249 1.6810346
8.707921 4.9683218 1.6828576
8.7416801 4.9167309 1.6835206
8.7915211 4.8739977 1.6873325
8.9052076 4.8658285 1.703409
9.2292509 4.9695868 1.7595935
9.3048697 4.9368978 1.7682117
9.3594589 4.8925023 1.7728523
9.3875484 4.8340793 1.7725209
9.4530935 4.7946763 1.7793161
9.4982157 4.7445149 1.7822993
9.5421925 4.6935449 1.7851168
9.6258411 4.6615553 1.7953925
9.6845293 4.6168323 1.8010275
9.7528505 4.5761724 1.8084856
9.8192453 4.5340199 1.8156123
9.865736 4.4822507 1.8190928
9.9056578 4.4272647 1.821413
9.9479837 4.373148 1.8242306
9.9882078 4.3178954 1.8267165
10.009976 4.2545991 1.8258879
10.016785 4.1851153 1.8224075
10.042275 4.1235752 1.8224075
10.069218 4.0626168 1.8227389
10.165465 4.0290985 1.8356663
10.246056 3.9884696 1.8457762
10.317315 3.9434817 1.8542287
10.375481 3.8929193 1.860361
10.42786 3.8397462 1.8654989
10.805531 3.9036827 1.92881
10.951051 3.8804541 1.9505215
11.002601 3.8228962 1.9554936
11.026784 3.7556317 1.9556593
11.049621 3.687902 1.9556593
11.09735 3.6283076 1.9601341
11.13631 3.5655596 1.9631175
11.183386 3.5051241 1.9675922
11.30745 3.4679551 1.9856576
11.373857 3.4121099 1.9936129
11.448518 3.3580773 2.0030599
11.476491 3.2899415 2.0043857
11.50121 3.2207906 2.0052145
11.527415 3.1519806 2.0063746
11.642775 3.1068692 2.023114
11.759919 3.060957 2.0401847
11.788038 2.9911671 2.041842
11.829146 2.9244606 2.0458198
11.874672 2.8585162 2.050626
11.979364 2.8060665 2.0657082
12.174243 2.7730255 2.0963693
12.237247 2.7085023 2.1043246
12.388618 2.6623712 2.1275277
29.492487 3.9130626 4.9979115
29.498768 3.3626149 4.9876361
28.401083 3.061085 4.798697
29.38966 2.9853187 4.9626098
30.275263 2.8877013 5.1091204
30.392601 2.7108173 5.1260257
9.9794025 0.82853502 1.6808687
9.7840805 0.57097298 1.6450698
30.16573 1.3888003 5.0729899
9.5120964 0.37958205 1.5978349
9.546772 0.32230723 1.6033043
9.4509754 0.26102972 1.5868964
9.5273314 0.20464276 1.5994923
9.6703997 0.14835589 1.6233584
9.5527925 0.087929718 1.60347
9.5196257 0.015248244 1.4124236
9.4512911 -0.042858876 1.4022844
70.859291 -2.0565557 10.529411
15.106862 -0.53178263 2.2438457
10.537359 -0.43589041 1.5649538
48.743397 -2.6133449 7.2498641
15.489099 -1.0216718 2.3042405
15.695641 -1.1320524 2.3359809
15.822499 -1.33656 2.3571413
15.174664 -1.3756888 2.2617731
15.253561 -1.4772551 2.2748513
14.830956 -1.5282569 2.2131338
14.874397 -1.6250275 2.2210689
14.312304 -1.7416267 2.1401017
14.430861 -1.8459734 2.1594985
14.809449 -1.9868132 2.217983
9.8346186 -1.3811136 1.4735533
9.8523836 -1.4453062 1.4775208
15.538684 -2.4742107 2.3356872
14.721042 -2.436764 2.2148972
14.959277 -2.5705879 2.2531033
66.613991 -11.865713 10.050073
66.51075 -12.268842 10.045664
66.371063 -12.664662 10.036113
14.429748 -2.8458512 2.1831567
14.472109 -2.9465694 2.1922674
14.477958 -3.0403941 2.1959412
14.296612 -3.0940299 2.1712542
14.275427 -3.1812639 2.1709602
14.376155 -3.2964246 2.1893287
14.416312 -3.3988702 2.1985862
64.442047 -15.608744 9.8484621
25.503582 -6.3436632 3.9024282
25.085602 -6.4034052 3.8443844
14.562998 -3.8130121 2.2345879
14.189671 -3.8084681 2.1808057
25.59201 -7.0368681 3.941222
25.68165 -7.2312951 3.9617946
24.981869 -7.3663158 3.867455
24.996811 -7.5377383 3.8768597
25.893459 -7.9817443 4.0235119
31.141281 -10.655754 4.8878498
62.139286 -22.547756 9.8184853
61.981213 -22.921751 9.815546
61.814407 -23.292212 9.8115788
43.595455 -16.733559 6.9353995
61.493523 -24.037132 9.8067293
61.320061 -24.404123 9.802762
61.173748 -24.781773 9.8034964
61.017796 -25.155531 9.8030558
60.844967 -25.522186 9.8002634
60.687218 -25.895042 9.8002634
60.370304 -26.640215 9.8011456
60.223759 -27.018234 9.8040848
60.073944 -27.39505 9.8068762
59.931644 -27.77562 9.811285
49.525311 -23.323095 8.1306601
49.375027 -23.62355 8.129632
59.264763 -29.254248 9.8167219
58.922462 -29.990084 9.8202486
58.757549 -30.361504 9.8236284
2.2956765 -1.2048883 0.38335887
2.2725239 -1.210585 0.38071385
2.2354643 -1.2085204 0.37571767
2.203721 -1.2089003 0.37160316
2.164278 -1.2046094 0.36616617
2.1430628 -1.2100887 0.36381501
2.1218622 -1.2153535 0.36146387
2.1075215 -1.2243769 0.36028832
2.0957074 -1.234776 0.35955358
2.0872421 -1.2471046 0.35940662
2.0770123 -1.2583513 0.35896578
2.0675662 -1.2700371 0.3586719
2.0597343 -1.2826993 0.3586719
2.0493155 -1.2937303 0.35823107
2.0438385 -1.307879 0.3586719
2.0374353 -1.3214712 0.35896578
2.030942 -1.3350339 0.35925969
2.022712 -1.3474704 0.35925969
2.0152259 -1.3604093 0.35940662
2.0125568 -1.3766565 0.36043525
2.0122032 -1.3946117 0.36190471
2.0149434 -1.414887 0.36396196
2.031215 -1.4449917 0.36851731
2.0279288 -1.4614745 0.36954594
2.0301101 -1.4820523 0.37160316
2.0671158 -1.5285792 0.38012606
2.0608649 -1.543605 0.38071385
1.969382 -1.4940689 0.36543143
1.9601775 -1.5061245 0.36543143
42.367596 -39.226467 8.5757608
40.754601 -40.123875 8.4944992
40.456493 -40.322212 8.4837723
40.295357 -40.657509 8.50214
1.6357262 -1.7559412 0.35470435
1.6229113 -1.7637615 0.35426351
1.6034071 -1.764173 0.35235322
1.5925521 -1.7739781 0.35235322
1.5435622 -1.7408019 0.34383032
1.4604896 -1.6676651 0.3275193
1.4482875 -1.6743515 0.32707846
1.4373438 -1.6824546 0.32693151
1.4620894 -1.732811 0.33501354
1.4875368 -1.7850522 0.34338948
1.4595786 -1.7735295 0.33942193
1.4230814 -1.7509881 0.33339715
1.41293 -1.7604582 0.33354408
1.3941113 -1.7590195 0.33163378
1.3826822 -1.7667618 0.33148685
1.3736308 -1.7775599 0.33192769
1.3596966 -1.782024 0.33119294
1.3481412 -1.7895435 0.33104602
1.3353639 -1.7954013 0.33060515
1.3254937 -1.8051554 0.33089906
1.3231041 -1.8252649 0.33310324
1.3124555 -1.8341532 0.33325019
1.3183039 -1.8664043 0.33765858
1.3424816 -1.9255663 0.3469162
1.3171784 -1.9142146 0.34338948
43.927204 -71.024101 12.404446
43.54982 -71.389404 12.421345
43.14003 -71.70359 12.429721
42.750736 -72.053711 12.444709
42.417709 -72.502495 12.477037
42.038769 -72.877075 12.496875
41.620148 -73.185234 12.505692
41.259796 -73.598854 12.532877
40.620808 -74.590439 12.615901
39.779629 -75.229324 12.640441
39.466721 -75.75885 12.688493
39.107712 -76.207275 12.723172
38.733528 -76.632065 12.754178
37.902969 -77.331657 12.792237
37.488373 -77.688377 12.812957
37.067852 -78.036667 12.832647
36.240139 -78.774124 12.879817
35.519382 -79.771347 12.97063
35.088371 -80.122787 12.992525
33.450741 -81.789238 13.125658
33.082146 -82.326118 13.179
32.700226 -82.841293 13.229108
32.281761 -83.27372 13.266286
2.2221391 -5.8400621 0.92647231
2.2028806 -5.8980632 0.93352574
2.1584773 -5.8891797 0.92999899
2.1152706 -5.8827672 0.92691314
2.119282 -6.0094371 0.94484061
2.087219 -6.0363498 0.94704479
2.0561757 -6.0668416 0.94983673
1.9842964 -5.9751482 0.93352574
28.46113 -87.463478 13.662306
27.992701 -87.852287 13.695956
27.509079 -88.201805 13.723876
1.7816274 -5.8404002 0.90531206
1.7525477 -5.87397 0.90883875
1.7164727 -5.884613 0.90883875
1.6803331 -5.8950338 0.90883875
1.64068 -5.8928461 0.90692842
1.6008574 -5.8894396 0.90487123
1.5641829 -5.8972392 0.90457731
1.5145859 -5.8550158 0.89664221
23.419998 -92.840897 14.222612
22.953526 -93.404533 14.287122
22.447412 -93.825478 14.330176
21.889229 -94.038521 14.341932
21.427961 -94.684303 14.420108
20.987631 -95.455475 14.51768
20.463888 -95.874596 14.562057
19.951435 -96.366425 14.617897
19.38409 -96.608253 14.636266
18.89093 -97.239998 14.714148
18.390923 -97.870277 14.792175
17.890959 -98.537003 14.876082
17.339453 -98.949875 14.922076
16.761637 -99.229965 14.948526
7.1353049 -45.647758 6.8619261
6.8399634 -45.589928 6.8467908
6.5392661 -45.486134 6.8250427
6.1542583 -44.756161 6.7096896
5.9435105 -45.280506 6.782722
5.6896167 -45.508499 6.8115234
5.412025 -45.557285 6.8137279
4.9085002 -43.601162 6.5164557
4.5442948 -42.722599 6.3808241
4.2817726 -42.746727 6.380383
4.0132937 -42.707199 6.3706846
3.7920074 -43.196102 6.4400434
3.5262461 -43.210674 6.438868
2.8208637 -37.397289 5.5696807
2.6181269 -41.491333 6.1743646
2.5285845 -44.40506 6.6056519
1.7105072 -38.319988 5.6966424
1.0046903 -38.338058 5.6956134
0.74120831 -36.938213 5.4868031
0.064816423 -39.1227 5.8102317
-0.17473851 -39.01059 5.7936268
-0.41651058 -39.236271 5.8274245
-0.65394181 -39.035179 5.7980351
-1.1336027 -39.047943 5.8015618
-1.5081216 -36.499062 5.4250855
-1.8379507 -38.721088 5.7570372
-1.9821142 -36.966732 5.4978237
-3.4536159 -38.107006 5.6825352
-4.1211419 -40.005039 5.9727545
-4.6128888 -39.961277 5.9742236
-11.356806 -36.055965 5.6140585
-11.584188 -36.005379 5.6171441
