# .PCD v0.7 - Point Cloud Data file format
VERSION 0.7
FIELDS x y z
SIZE 4 4 4
TYPE F F F
COUNT 1 1 1
WIDTH 1448
HEIGHT 1
VIEWPOINT 0 0 0 1 0 0 0
POINTS 1448
DATA ascii
0.82660121 3.5217743 -0.85292602
0.84180403 3.4901483 -0.84647989
0.86647987 3.4981415 -0.84970295
0.89056593 3.5031333 -0.85223538
0.92088628 3.5315018 -0.86052328
0.94228643 3.5248446 -0.86029303
0.95335346 3.4805162 -0.85085404
0.96364939 3.4352491 -0.84118479
0.98417222 3.4274008 -0.84072435
1.0246652 3.487587 -0.85706997
1.0354012 3.4458199 -0.84832162
1.0679578 3.4766107 -0.85753042
1.0813986 3.4449244 -0.85131449
1.1340208 3.536448 -0.87571776
1.1496408 3.5109272 -0.87111336
1.1359854 3.3985939 -0.8448683
1.1624733 3.4081378 -0.84901226
1.1772859 3.3834784 -0.84463811
1.1931418 3.3624349 -0.84118479
1.1968638 3.308382 -0.82944363
1.2275797 3.3292794 -0.8365804
1.2500386 3.3271503 -0.83796173
1.2714738 3.3221438 -0.83865237
1.287239 3.3024931 -0.83565956
1.30317 3.2836788 -0.83289689
1.3265749 3.283741 -0.83496886
1.3330046 3.2422392 -0.82645077
1.3678985 3.2699082 -0.83565956
1.3837441 3.2516036 -0.83312714
1.3986436 3.2314425 -0.83013427
1.4255025 3.2388315 -0.83427823
1.4290496 3.1936061 -0.82483923
1.4627228 3.2157798 -0.83289689
1.4869194 3.2164605 -0.83542931
1.5045581 3.2028725 -0.83427823
1.5220861 3.1891894 -0.83312714
1.543749 3.1841681 -0.83427823
1.5340199 3.1152718 -0.8186233
1.5639889 3.1275594 -0.82437879
1.5822685 3.1161687 -0.82391834
1.6071566 3.1176455 -0.82691121
1.6230971 3.1016903 -0.82529968
1.6475767 3.1019855 -0.8280623
1.6504159 3.0618372 -0.82000464
1.653759 3.0234799 -0.81240737
1.6774747 3.022635 -0.8149398
1.6893047 3.0004141 -0.81171674
1.7096139 2.9933724 -0.81263757
1.7299002 2.9861939 -0.81355846
1.7304418 2.9453192 -0.80527055
1.7708986 2.9722643 -0.81563044
1.7639387 2.9196978 -0.80411947
1.7726694 2.8938832 -0.79997551
1.7914196 2.8846052 -0.80043596
1.8204931 2.8916757 -0.80550081
1.8240654 2.8583031 -0.79928488
1.8383976 2.8421547 -0.79790354
1.8563359 2.8316348 -0.79813373
1.8585953 2.7974968 -0.79168761
1.8594191 2.7618244 -0.78478104
1.9026577 2.7889476 -0.79583156
1.9136469 2.7684155 -0.79329914
1.9250146 2.7486508 -0.79099697
1.9350854 2.7272642 -0.78823429
1.9472389 2.7090185 -0.78639257
1.9632516 2.6962326 -0.78616232
1.9658935 2.6653409 -0.78063709
1.9804631 2.6508896 -0.77994639
2.0125477 2.6596389 -0.78616232
2.0353413 2.6557357 -0.78869474
2.0330992 2.6193676 -0.78155792
2.0593579 2.6198485 -0.78547168
2.070545 2.6010728 -0.78362989
2.0711961 2.5693798 -0.77787441
2.0887687 2.5588841 -0.77856511
2.1025703 2.5437694 -0.77787441
2.1237607 2.5375364 -0.77994639
2.1241899 2.5066407 -0.77442116
2.1338267 2.4869134 -0.77234918
2.1426632 2.4664278 -0.77004695
2.1641843 2.4605408 -0.77234918
2.1695325 2.4363148 -0.76889586
2.1968226 2.4366884 -0.77327001
2.1848323 2.3936965 -0.76383102
2.2080653 2.3895359 -0.76682389
2.1994152 2.3510718 -0.75876623
2.2211609 2.3453038 -0.7612986
2.2193449 2.3147736 -0.75577337
2.2396066 2.3073964 -0.75784534
2.2625899 2.302634 -0.76083821
2.2560854 2.2680116 -0.75393158
2.2775555 2.261668 -0.756464
2.2962532 2.2524202 -0.75807554
2.2953529 2.2240686 -0.75324094
2.3166902 2.2173438 -0.75577337
2.3281305 2.2010818 -0.75508267
2.3223877 2.1688235 -0.74886674
2.3191986 2.1393583 -0.7435717
2.35746 2.148025 -0.75162941
2.3669786 2.130265 -0.75047833
2.3581843 2.096307 -0.7435717
2.3417499 2.0561178 -0.73436296
2.3793201 2.0633855 -0.74219042
2.39711 2.0531783 -0.74380195
2.3977747 2.0283761 -0.74011844
2.4109225 2.0142496 -0.74034864
2.4359975 2.0099461 -0.7442624
2.4233875 1.9746777 -0.73666513
2.4362166 1.9603809 -0.73689532
2.4443896 1.942369 -0.73574424
2.4677465 1.9363438 -0.73919755
2.4603484 1.9062667 -0.73344207
2.4820471 1.8988203 -0.73643494
2.4851091 1.8771038 -0.73390251
2.5176439 1.8775259 -0.74011844
2.4954176 1.837236 -0.73021901
2.5019202 1.8184574 -0.72883767
2.5351713 1.8189541 -0.73528379
2.5367544 1.7966161 -0.73252118
2.552516 1.7843618 -0.73390251
2.573029 1.7752973 -0.73666513
2.5959399 1.767691 -0.74011844
2.6123915 1.7555282 -0.74172997
2.6052706 1.7276355 -0.73666513
2.6304803 1.721207 -0.74080908
2.6001117 1.6786468 -0.72929811
2.5898421 1.649593 -0.72354263
2.5990911 1.6331534 -0.72331238
2.585902 1.6028217 -0.71686625
2.5873849 1.5818495 -0.71456403
2.5853746 1.5589099 -0.71134096
2.6032557 1.5479901 -0.71364319
2.6101866 1.5305111 -0.71295249
2.6262686 1.5183625 -0.71479428
2.6397631 1.5046285 -0.71594536
2.6319771 1.4788705 -0.71134096
2.6418531 1.4631646 -0.71157122
2.6653028 1.4548519 -0.71548492
2.669894 1.4361659 -0.71433383
2.6786561 1.4197567 -0.71433383
2.6769652 1.3978896 -0.71157122
2.6932807 1.3854433 -0.71364319
2.7043352 1.3702109 -0.71433383
2.7187874 1.3566325 -0.71594536
2.7663653 1.3592328 -0.72630525
2.7562561 1.3333354 -0.72147065
2.7459338 1.3076136 -0.716636
2.7433312 1.2857853 -0.71387339
2.7538202 1.2701508 -0.71456403
2.7509274 1.248405 -0.71180141
2.7745314 1.2386414 -0.71594536
2.7811882 1.2212026 -0.71571517
2.7788012 1.199872 -0.71318275
2.7986522 1.1881218 -0.71640581
2.7996027 1.1683043 -0.71479428
2.7409902 1.1241542 -0.69798821
2.7749155 1.118224 -0.70489484
2.7600081 1.092582 -0.69936955
2.7838938 1.0823247 -0.70374376
2.758661 1.0530787 -0.69568604
2.7969658 1.0480806 -0.70374376
2.7814233 1.02284 -0.69821846
2.7794082 1.0027827 -0.69614649
2.8084445 0.99382353 -0.70190197
2.7676003 0.9603076 -0.69016075
2.8628101 0.97369528 -0.71249205
2.8521123 0.95057404 -0.7083481
2.8393891 0.92701703 -0.70374376
2.8505855 0.91135508 -0.70512503
2.8932736 0.90546966 -0.71433383
2.8475966 0.87203234 -0.70167178
2.8743355 0.86096388 -0.70696682
2.8627532 0.83838946 -0.70282286
2.8715858 0.82187891 -0.70374376
2.8700142 0.80241013 -0.70213217
2.8861494 0.78785914 -0.70489484
2.854255 0.76036876 -0.69591624
2.8447387 0.73917139 -0.69246298
2.8077123 0.71119261 -0.68233329
2.8309197 0.69861281 -0.68693769
2.8304219 0.68009311 -0.6857866
2.8658125 0.6700213 -0.69338387
2.8565843 0.64940542 -0.69016075
2.8757195 0.63522255 -0.69384426
2.8909812 0.62001318 -0.69660693
2.8709123 0.59730941 -0.69085145
2.8325493 0.57122201 -0.68072176
2.7977965 0.54637396 -0.67151296
2.8785517 0.54382241 -0.69016075
2.8636451 0.52283055 -0.6857866
2.8965089 0.51048303 -0.69292343
2.8410633 0.48276189 -0.67888004
2.8526154 0.46673375 -0.68095201
2.8784974 0.45284915 -0.68647724
2.8831463 0.435469 -0.68693769
2.8780589 0.41665542 -0.68509597
2.8863451 0.39978874 -0.68647724
2.8636603 0.37875569 -0.68049157
2.9093788 0.36664888 -0.69085145
2.8816199 0.34520486 -0.68371463
2.8595107 0.32477385 -0.67795914
2.8730607 0.30846766 -0.68072176
2.8332665 0.28662524 -0.67082232
2.8698483 0.27254415 -0.67911023
2.8675892 0.25458607 -0.67818934
2.8623083 0.23642597 -0.67657781
2.854002 0.21811807 -0.67427564
2.8300471 0.19883128 -0.6682899
2.8341272 0.18164915 -0.6689806
2.8439322 0.16476157 -0.67105258
2.8439176 0.14725821 -0.67082232
2.8525448 0.1301596 -0.67266411
2.8474555 0.11242447 -0.67128277
2.8548999 0.095177032 -0.6728943
2.8690491 0.078027017 -0.67611736
2.8286109 0.059564773 -0.66644818
2.8668714 0.042770222 -0.67542672
2.8427525 0.024967249 -0.66967124
2.672689 0.0071811071 -0.68707478
2.6678414 -0.0092027867 -0.68582457
2.6667666 -0.025563128 -0.68557453
2.6452608 -0.041595798 -0.68007356
2.6478601 -0.057888828 -0.68082368
2.6532621 -0.074295931 -0.68232399
2.6304996 -0.089820027 -0.67657298
2.6424758 -0.10646248 -0.67982352
2.6175928 -0.12155735 -0.67357248
2.6264668 -0.13812247 -0.6760729
2.609138 -0.15327427 -0.67182219
2.6197431 -0.17003049 -0.67482269
2.6031973 -0.18500724 -0.67082202
2.6309745 -0.20320657 -0.67832327
2.6451166 -0.22063012 -0.68232399
2.626354 -0.23530503 -0.67782319
2.6200416 -0.25095516 -0.67657298
2.6223054 -0.26741871 -0.67757314
2.5975118 -0.28101006 -0.67157215
2.6101685 -0.29858997 -0.67532277
2.6140549 -0.31529433 -0.67682302
2.5947809 -0.32913899 -0.67232227
2.5840743 -0.34390658 -0.6700719
2.5934236 -0.36135629 -0.6730724
2.599781 -0.37851587 -0.67532277
2.599324 -0.39475098 -0.67582285
2.5892019 -0.4094846 -0.67382252
2.5321805 -0.41642162 -0.65957016
2.5677562 -0.43846065 -0.66957182
2.5345073 -0.44881281 -0.66157049
2.5412297 -0.46610022 -0.6640709
2.5402243 -0.4820447 -0.66457099
2.5210657 -0.49445814 -0.66032028
2.5208316 -0.51049364 -0.66107041
2.4958518 -0.52140301 -0.65531945
2.5162702 -0.54179686 -0.66157049
2.4769762 -0.5492698 -0.65206885
2.4839435 -0.56682479 -0.65481937
2.4775906 -0.58139247 -0.65406919
2.4805658 -0.59817094 -0.65581954
2.4824884 -0.61477524 -0.65731978
2.4927461 -0.63357008 -0.66107041
2.4897487 -0.64909738 -0.66132045
2.501622 -0.66860813 -0.66557115
2.4825296 -0.67985708 -0.66157049
2.4820409 -0.69612175 -0.66257066
2.4460788 -0.70226175 -0.65406919
2.4593756 -0.72243792 -0.65882003
2.4641702 -0.74029827 -0.66132045
2.4540277 -0.75369996 -0.6598202
2.4124017 -0.75715494 -0.64981848
2.4270742 -0.77814579 -0.65506941
2.4829905 -0.81289124 -0.67157215
2.4669354 -0.8244313 -0.66857165
2.4407511 -0.83236969 -0.6628207
2.4237087 -0.84319729 -0.65957016
2.4221394 -0.85934711 -0.66057032
2.390414 -0.86464858 -0.65331906
2.4214058 -0.89268744 -0.66332078
2.4213214 -0.90956968 -0.66482103
2.4048424 -0.92025965 -0.66182053
2.4000528 -0.93534952 -0.66207057
2.3852677 -0.94648945 -0.65957016
2.3767219 -0.96002018 -0.65882003
2.3797426 -0.97826445 -0.66132045
2.3647618 -0.98911393 -0.65882003
2.3755779 -1.0108038 -0.66357082
2.3728857 -1.0268983 -0.66457099
2.3532455 -1.0355921 -0.66082036
2.3574538 -1.0547544 -0.66382086
2.3403599 -1.064392 -0.66082036
2.3443327 -1.0836046 -0.66382086
2.3385162 -1.0983801 -0.6640709
2.3387241 -1.1160425 -0.66607124
2.3231187 -1.1261503 -0.66357082
2.3092148 -1.1369637 -0.66157049
2.3030612 -1.1515441 -0.66182053
2.2950888 -1.1652156 -0.66157049
2.2887566 -1.1797194 -0.66182053
2.286623 -1.1964329 -0.66332078
2.2792387 -1.2104408 -0.66332078
2.2640967 -1.2202708 -0.66107041
2.2540178 -1.2327468 -0.66032028
2.2497985 -1.2484324 -0.66132045
2.2446275 -1.2636377 -0.66207057
2.2553315 -1.2879454 -0.66757149
2.2482243 -1.3022448 -0.66782153
2.2335122 -1.3120933 -0.66582119
2.2170999 -1.3208199 -0.66332078
2.2288468 -1.3464093 -0.66932178
2.2032018 -1.349444 -0.6640709
2.1784267 -1.3527259 -0.65907007
2.1840174 -1.3748323 -0.66332078
2.1779897 -1.3897691 -0.6640709
2.1718607 -1.4046837 -0.66482103
2.1623907 -1.4174529 -0.66457099
2.1544595 -1.4312301 -0.66482103
2.138407 -1.439558 -0.66257066
2.129534 -1.452652 -0.66257066
2.1134107 -1.4607383 -0.66032028
2.104408 -1.4736785 -0.66032028
2.0953262 -1.4865632 -0.66032028
2.0861652 -1.4993919 -0.66032028
2.0706627 -1.5076065 -0.65831995
2.0676084 -1.5248795 -0.66032028
2.0473511 -1.5294275 -0.6568197
2.0471954 -1.5489693 -0.6598202
2.0345781 -1.5591465 -0.65882003
2.0310934 -1.5763487 -0.66082036
2.0122461 -1.5816039 -0.65781987
1.994169 -1.5872903 -0.65506941
1.9934399 -1.6067855 -0.65806991
1.9722896 -1.6098062 -0.65431923
1.9735721 -1.6311271 -0.65806991
1.973924 -1.651903 -0.66157049
1.9674453 -1.6671126 -0.6628207
1.963794 -1.6848257 -0.66507107
1.970966 -1.7120782 -0.67107207
1.9371531 -1.7036836 -0.66307074
1.9230467 -1.7123191 -0.66182053
1.9153811 -1.726679 -0.6628207
1.9104729 -1.7436192 -0.66482103
1.8997383 -1.7553089 -0.66482103
1.8846885 -1.762965 -0.66332078
1.8703198 -1.771168 -0.66207057
1.8510278 -1.7745721 -0.65907007
1.8366295 -1.7825255 -0.65781987
1.8387833 -1.8066512 -0.66257066
1.8111837 -1.8015165 -0.65656966
1.802143 -1.8146561 -0.65731978
1.7855488 -1.8201517 -0.65531945
1.7844564 -1.8415009 -0.65907007
1.7744629 -1.853814 -0.65957016
1.761724 -1.8632603 -0.65907007
1.7522413 -1.8761572 -0.6598202
1.7446365 -1.8911425 -0.66132045
1.7349569 -1.9039582 -0.66207057
1.7128751 -1.9030559 -0.65806991
1.7043834 -1.9171474 -0.65932012
1.695783 -1.9312062 -0.66057032
1.6813632 -1.9386497 -0.65957016
1.6713264 -1.9511354 -0.66032028
1.659323 -1.9613537 -0.66032028
1.6367002 -1.9588696 -0.65606958
1.6117051 -1.9531955 -0.65081865
1.6100912 -1.9758053 -0.65506941
1.5961159 -1.983385 -0.65431923
1.5875317 -1.9976884 -0.65581954
1.575842 -2.0081532 -0.65606958
1.5664568 -2.0216107 -0.65731978
1.5510802 -2.0273402 -0.65606958
1.543282 -2.0429986 -0.65806991
1.528401 -2.0493257 -0.65706974
1.522115 -2.06724 -0.6598202
1.5111103 -2.0788898 -0.66057032
1.5062314 -2.0991342 -0.6640709
1.4726093 -2.0791073 -0.65481937
1.4598244 -2.088104 -0.65481937
1.4497349 -2.101006 -0.65606958
1.4340903 -2.1058612 -0.65481937
1.4243836 -2.1194417 -0.65631962
1.4140289 -2.1321754 -0.65756983
1.4019802 -2.142432 -0.65806991
1.3898588 -2.1526203 -0.65856999
1.3859915 -2.1758049 -0.66307074
1.3710687 -2.1818092 -0.66232061
1.36429 -2.2008777 -0.66557115
1.3537917 -2.2141631 -0.6670714
1.3376793 -2.2182829 -0.66582119
1.3280039 -2.2331054 -0.66782153
1.3098668 -2.2336962 -0.66557115
1.2917728 -2.2341485 -0.66332078
1.2847558 -2.2538073 -0.66682136
1.2718517 -2.2633359 -0.66732144
1.253716 -2.2634752 -0.66507107
1.2449095 -2.2804725 -0.66782153
1.2185026 -2.2650487 -0.66107041
1.1936934 -2.2519538 -0.65506941
1.1964446 -2.2909868 -0.66432095
1.1730589 -2.2802069 -0.65907007
1.142845 -2.2554092 -0.64981848
1.1432587 -2.2909653 -0.65806991
1.125335 -2.2901173 -0.65581954
1.1129495 -2.3004649 -0.6568197
1.0983967 -2.3063765 -0.65656966
1.0546207 -2.2499576 -0.63856661
1.0675765 -2.3144071 -0.65506941
1.0593611 -2.3341379 -0.65882003
1.0418595 -2.3335218 -0.6568197
1.0341436 -2.3549399 -0.66107041
1.0273559 -2.3790169 -0.66607124
0.99835187 -2.3514125 -0.65656966
0.99024844 -2.3726828 -0.66082036
0.97567129 -2.3787141 -0.66082036
0.96793818 -2.4017172 -0.66557115
0.94676399 -2.3914082 -0.66107041
0.93944585 -2.4161212 -0.66632128
0.92149317 -2.4136999 -0.6640709
0.91414565 -2.4392533 -0.66957182
0.89715487 -2.4393647 -0.66807157
0.88249916 -2.4457343 -0.66832161
0.86715251 -2.4501903 -0.66807157
0.8501963 -2.4499772 -0.66657132
0.83296323 -2.4487317 -0.66482103
0.81700319 -2.4510412 -0.6640709
0.7989409 -2.4468048 -0.66157049
0.78420764 -2.4525831 -0.66182053
0.77001244 -2.4601204 -0.66257066
0.75802439 -2.4749818 -0.66532111
0.7439363 -2.4832962 -0.66632128
0.72868508 -2.4878139 -0.66632128
0.71100628 -2.4838612 -0.6640709
0.69157672 -2.473259 -0.66007024
0.67817479 -2.4839935 -0.66182053
0.66242152 -2.4862368 -0.66132045
0.65105391 -2.5052474 -0.66532111
0.6349557 -2.5063796 -0.66457099
0.62002939 -2.5121083 -0.66507107
0.60528314 -2.5186894 -0.66582119
0.58871394 -2.5176423 -0.66457099
0.57089096 -2.5108223 -0.66182053
0.5464825 -2.4736264 -0.65106869
0.53515708 -2.4949193 -0.65581954
0.53346515 -2.5635598 -0.6730724
0.50641698 -2.5107894 -0.65831995
0.51032907 -2.6126738 -0.68432432
0.48582801 -2.5710421 -0.67257231
0.46830159 -2.5644503 -0.6700719
0.44515154 -2.5253217 -0.65907007
0.4314352 -2.5385053 -0.66182053
0.41898322 -2.5602143 -0.66682136
0.39768875 -2.527349 -0.65756983
0.3857955 -2.5536752 -0.66382086
0.36970219 -2.5531197 -0.66307074
0.35376337 -2.553422 -0.66257066
0.33948866 -2.5661027 -0.66532111
0.32519293 -2.5796649 -0.66832161
0.30751133 -2.5662303 -0.66432095
0.29011643 -2.5536385 -0.66057032
0.27236956 -2.5361171 -0.65556949
0.25709626 -2.5406303 -0.65631962
0.24232867 -2.5508351 -0.65856999
0.22538412 -2.5378077 -0.65481937
0.21012807 -2.5430026 -0.65581954
0.1965199 -2.5703096 -0.66257066
0.17829256 -2.5366971 -0.6535691
0.16384389 -2.5551355 -0.65806991
0.14934441 -2.5763915 -0.66332078
0.13252644 -2.5579207 -0.65831995
0.1178057 -2.5799644 -0.66382086
0.10170384 -2.5738664 -0.66207057
0.085843921 -2.5725067 -0.66157049
0.068728141 -2.5245914 -0.64906836
0.05300907 -2.5143175 -0.6463179
0.037624646 -2.5174999 -0.64706802
0.022229476 -2.5234926 -0.64856827
0.0067084036 -2.5109942 -0.64531773
-0.0087082256 -2.5138929 -0.64606786
-0.024060607 -2.5060465 -0.64406753
-0.039781783 -2.5281186 -0.64981848
-0.055167686 -2.5220189 -0.64831823
-0.07131324 -2.5458293 -0.65456933
-0.08716248 -2.5521176 -0.65631962
-0.10227789 -2.5379903 -0.65281898
-0.11717855 -2.5228069 -0.64906836
-0.13235231 -2.5162389 -0.64756811
-0.14677133 -2.4979811 -0.64306736
-0.16240826 -2.5018644 -0.64431757
-0.17741433 -2.4959919 -0.64306736
-0.1924288 -2.4909947 -0.64206719
-0.20778988 -2.490732 -0.64231724
-0.22169007 -2.4739797 -0.63831657
-0.2373264 -2.4773922 -0.63956678
-0.25262091 -2.4768527 -0.63981682
-0.26812559 -2.4781439 -0.64056695
-0.28134951 -2.4591365 -0.6360662
-0.29712746 -2.4631314 -0.63756645
-0.31016803 -2.4449322 -0.63331574
-0.320829 -2.4103498 -0.62481427
-0.33707982 -2.418885 -0.62756473
-0.35442233 -2.4340181 -0.63206553
-0.37297913 -2.45573 -0.63831657
-0.38668105 -2.4447877 -0.6360662
-0.40622428 -2.4700768 -0.6433174
-0.41876891 -2.4522665 -0.63931674
-0.43701115 -2.467766 -0.64406753
-0.45354038 -2.4726574 -0.64606786
-0.47537422 -2.5050261 -0.65531945
-0.48775795 -2.4868593 -0.65131873
-0.48765245 -2.4078982 -0.63131541
-0.50123125 -2.3991737 -0.62981516
-0.51655364 -2.3988929 -0.63056529
-0.52205056 -2.3540838 -0.6195634
-0.54466176 -2.3867092 -0.62906504
-0.55929613 -2.3833222 -0.62906504
-0.57776397 -2.3958478 -0.63331574
-0.58501327 -2.3621809 -0.62531435
-0.59616041 -2.3454084 -0.62181377
-0.60468364 -2.3192189 -0.61581278
-0.62939328 -2.3547544 -0.62631452
-0.63820869 -2.330302 -0.62081361
-0.64491928 -2.2993047 -0.61356241
-0.65714669 -2.2887893 -0.61181211
-0.66790622 -2.2735655 -0.60881162
-0.67961711 -2.2620056 -0.60681129
-0.695472 -2.2642722 -0.60856158
-0.70326829 -2.240561 -0.6033107
-0.71670753 -2.2352817 -0.60306066
-0.73010838 -2.2299216 -0.60281062
-0.74377722 -2.2253997 -0.60281062
-0.75866717 -2.2244601 -0.60381079
-0.78024983 -2.2426271 -0.61006182
-0.78914279 -2.2241085 -0.6063112
-0.80672425 -2.2301514 -0.6093117
-0.82139707 -2.2278852 -0.61006182
-0.83471143 -2.2218966 -0.60981178
-0.8469457 -2.2131157 -0.60881162
-0.86156327 -2.2105842 -0.60956174
-0.87332648 -2.2007556 -0.60831153
-0.88645124 -2.1944578 -0.60806149
-0.89916366 -2.187186 -0.60756141
-0.91144687 -2.1789477 -0.60681129
-0.93389243 -2.1946988 -0.61281228
-0.94810987 -2.1907046 -0.61331236
-0.95568734 -2.1715512 -0.60956174
-0.96978414 -2.1674142 -0.61006182
-0.9870711 -2.1702375 -0.61256224
-1.0040232 -2.172051 -0.61481261
-1.0198002 -2.1711085 -0.61631286
-1.0322691 -2.1630623 -0.61581278
-1.0459441 -2.1575592 -0.61606282
-1.0595905 -2.1519694 -0.61631286
-1.0758042 -2.1514902 -0.61806315
-1.0990617 -2.1647081 -0.62381411
-1.1070027 -2.1475947 -0.62081361
-1.1174673 -2.1356137 -0.61931336
-1.1323658 -2.132138 -0.62031353
-1.1449679 -2.1242971 -0.62006348
-1.1538013 -2.1095853 -0.61781311
-1.1681325 -2.1050062 -0.61856323
-1.175804 -2.088517 -0.61581278
-1.1876369 -2.0795813 -0.6153127
-1.2110467 -2.0906897 -0.62081361
-1.2238522 -2.0832195 -0.62081361
-1.2336396 -2.0706794 -0.61931336
-1.2463218 -2.0630708 -0.61931336
-1.2574404 -2.0529075 -0.61856323
-1.2659287 -2.0385718 -0.6165629
-1.2660387 -2.0110972 -0.61056191
-1.2970972 -2.0326796 -0.6195634
-1.3169038 -2.0360665 -0.62306398
-1.3357395 -2.0376666 -0.62606448
-1.3637487 -2.0528243 -0.63331574
-1.3676708 -2.0315647 -0.62931508
-1.3713837 -2.0103347 -0.62531435
-1.3836931 -2.0018823 -0.62531435
-1.3959503 -1.9933543 -0.62531435
-1.4031146 -1.977643 -0.62306398
-1.4169174 -1.9713556 -0.62381411
-1.4284171 -1.9618416 -0.62356406
-1.4404278 -1.95304 -0.62356406
-1.4587563 -1.9526991 -0.62631452
-1.4841428 -1.9614737 -0.63206553
-1.4932065 -1.948487 -0.63081533
-1.4902978 -1.9201621 -0.62456423
-1.5199957 -1.9338232 -0.63206553
-1.5420804 -1.9373413 -0.63631624
-1.5673022 -1.9444306 -0.64181715
-1.5853242 -1.9422797 -0.64431757
-1.5861123 -1.9190792 -0.63981682
-1.584191 -1.8929719 -0.63431591
-1.619555 -1.9112922 -0.64381748
-1.6318823 -1.9020538 -0.64406753
-1.6251137 -1.8708025 -0.63681632
-1.6403977 -1.8651592 -0.63831657
-1.6769155 -1.8832664 -0.64806819
-1.6754769 -1.8585554 -0.64306736
-1.7070776 -1.8704149 -0.65081865
-1.7441416 -1.8876461 -0.66057032
-1.7517235 -1.8726652 -0.65907007
-1.7205836 -1.8168774 -0.64306736
-1.7323693 -1.806985 -0.6433174
-1.7730873 -1.8268999 -0.65431923
-1.7862988 -1.8180586 -0.65506941
-1.7864984 -1.7960775 -0.65106869
-1.7713852 -1.7591491 -0.64156711
-1.7793818 -1.7455342 -0.64056695
-1.808133 -1.7521062 -0.64706802
-1.8132553 -1.7356212 -0.64506769
-1.8041761 -1.705832 -0.63806653
-1.8372473 -1.7158834 -0.64606786
-1.8555677 -1.7118016 -0.64881831
-1.8710448 -1.70495 -0.6505686
-1.8901049 -1.7012125 -0.6535691
-1.9012313 -1.6902264 -0.65381914
-1.9195678 -1.6855583 -0.65656966
-1.9298741 -1.6737485 -0.65656966
-1.9452538 -1.6662859 -0.65831995
-1.9635708 -1.6611997 -0.66107041
-1.9692696 -1.6453941 -0.65957016
-1.9681287 -1.6240336 -0.65581954
-1.9870616 -1.6192688 -0.65882003
-1.9901724 -1.6015809 -0.65656966
-2.0136037 -1.6001858 -0.66107041
-2.0279539 -1.5913879 -0.66257066
-2.0476279 -1.5866266 -0.66582119
-2.0457923 -1.5652049 -0.66207057
-2.0561299 -1.5532066 -0.66232061
-2.0679498 -1.5422982 -0.66307074
-2.075815 -1.528432 -0.66257066
-2.0734086 -1.5071239 -0.65882003
-2.0873363 -1.4977615 -0.66032028
-2.093327 -1.4826863 -0.65932012
-2.1015918 -1.4692589 -0.65907007
-2.1033964 -1.4513853 -0.6568197
-2.1194637 -1.4433585 -0.65907007
-2.1347079 -1.4346489 -0.66107041
-2.1765485 -1.4434721 -0.67132211
-2.1845546 -1.4295596 -0.67107207
-2.187592 -1.4124508 -0.66932178
-2.2060153 -1.405246 -0.67232227
-2.202301 -1.3839531 -0.66857165
-2.223094 -1.378069 -0.67232227
-2.2174668 -1.3558128 -0.66807157
-2.2257442 -1.3421811 -0.66807157
-2.2414262 -1.3329549 -0.67032194
-2.2437174 -1.3157467 -0.66857165
-2.2634816 -1.3087428 -0.67207223
-2.2798798 -1.2996266 -0.67457265
-2.292031 -1.2879857 -0.67582285
-2.3142877 -1.2818767 -0.68007356
-2.28812 -1.2490869 -0.6700719
-2.2778375 -1.2253864 -0.66482103
-2.2930117 -1.2154698 -0.6670714
-2.2995682 -1.2009288 -0.66682136
-2.3258331 -1.1965456 -0.67232227
-2.3417668 -1.1866306 -0.67482269
-2.3455389 -1.1705092 -0.67382252
-2.3552833 -1.1573769 -0.67457265
-2.3745413 -1.1488099 -0.67807323
-2.3745532 -1.1308861 -0.6760729
-2.3349876 -1.0945033 -0.6628207
-2.3407805 -1.0797497 -0.66257066
-2.3544142 -1.0685697 -0.66457099
-2.3565063 -1.0521283 -0.66332078
-2.3771005 -1.0438817 -0.66732144
-2.4012368 -1.0369579 -0.67232227
-2.4022076 -1.019933 -0.67082202
-2.3923385 -0.99845755 -0.66632128
-2.4279785 -0.99589217 -0.67457265
-2.4178803 -0.97445691 -0.6700719
-2.4049106 -0.95211345 -0.66482103
-2.4143167 -0.93874365 -0.66582119
-2.4218402 -0.92460316 -0.66632128
-2.4265614 -0.90938562 -0.66607124
-2.4293694 -0.89347607 -0.66532111
-2.4275208 -0.87592214 -0.66332078
-2.4602299 -0.87070835 -0.67082202
-2.4380867 -0.84606677 -0.66332078
-2.4551477 -0.8351475 -0.66657132
-2.4446118 -0.81485832 -0.66232061
-2.467052 -0.80555767 -0.6670714
-2.5272784 -0.80811155 -0.68207395
-2.4896872 -0.7792747 -0.67057198
-2.4990504 -0.7654025 -0.67182219
-2.5111194 -0.75227886 -0.67382252
-2.5156879 -0.73685676 -0.67382252
-2.5062001 -0.71740669 -0.6700719
-2.5170817 -0.70384222 -0.67182219
-2.5278909 -0.69017112 -0.67357248
-2.5180449 -0.6709047 -0.66982186
-2.5267994 -0.65666044 -0.67107207
-2.5326583 -0.64161992 -0.67157215
-2.5374875 -0.62629998 -0.67182219
-2.5488136 -0.61253023 -0.67382252
-2.5591233 -0.59842432 -0.67557281
-2.5674675 -0.58378506 -0.67682302
-2.5681648 -0.56739306 -0.6760729
-2.5886378 -0.55528384 -0.68057364
-2.6270678 -0.5466969 -0.68982524
-2.5971551 -0.52385885 -0.68107373
-2.6126738 -0.51032907 -0.68432432
-2.6176586 -0.49464837 -0.68482441
-2.6130247 -0.47718409 -0.68282408
-2.635927 -0.46467659 -0.68807495
-2.6225019 -0.44573221 -0.68382424
-2.6356978 -0.43135509 -0.6865747
-2.5971684 -0.40869278 -0.67582285
-2.5910113 -0.3914454 -0.67357248
-2.6096539 -0.37790272 -0.67782319
-2.6205547 -0.36308107 -0.68007356
-2.6284924 -0.34775814 -0.68157387
-2.6526706 -0.33441406 -0.68732482
-2.6729379 -0.32032457 -0.69207561
-2.6613846 -0.30238423 -0.68857503
-2.6622274 -0.28594497 -0.68832499
-2.6571887 -0.26892042 -0.6865747
-2.6443307 -0.25123402 -0.68282408
-2.6381071 -0.23431686 -0.68082368
-2.6327407 -0.21756552 -0.67907339
-2.6456108 -0.20229582 -0.68207395
-2.6970258 -0.18960138 -0.69507611
-2.6855774 -0.1722406 -0.69182557
-2.6952829 -0.15626538 -0.69407594
-2.6990919 -0.1398755 -0.69482607
-2.7086043 -0.12371118 -0.69707644
-2.7364016 -0.10816622 -0.7040776
-2.7321754 -0.091211297 -0.70282739
-2.7355871 -0.074525036 -0.70357752
-2.7505131 -0.058048166 -0.70732814
-2.7450087 -0.041081972 -0.70582789
-2.720036 -0.024010083 -0.69932681
-2.7201321 -0.0073198043 -0.69932681
-2.7307763 0.0094049657 -0.70207727
-2.7083988 0.025952337 -0.69632632
-2.744009 0.04312497 -0.70557785
-2.7524049 0.060149472 -0.70782822
-2.7394018 0.076687455 -0.70457768
-2.7524273 0.093953989 -0.70807827
-2.7624409 0.11126701 -0.71082878
-2.7336574 0.12691917 -0.70357752
-2.7473307 0.14444941 -0.70732814
-2.731894 0.16045579 -0.70357752
-2.7540472 0.17871481 -0.70957857
-2.7335825 0.19424187 -0.70457768
-2.7574391 0.21294372 -0.71107882
-2.7589753 0.2300998 -0.71182895
-2.7546182 0.2467657 -0.71107882
-2.7578714 0.2641235 -0.71232903
-2.7581255 0.2812365 -0.71282911
-2.7630863 0.29888213 -0.7145794
-2.7458088 0.31407347 -0.71057874
-2.8005464 0.33774257 -0.72533119
-2.7369449 0.34713706 -0.70932853
-2.7558789 0.36672914 -0.71482944
-2.7602901 0.38456568 -0.71657974
-2.7482967 0.40010259 -0.71407932
-2.7448328 0.41681311 -0.71382928
-2.7374415 0.43289217 -0.71257907
-2.7404666 0.45062193 -0.71407932
-2.7615116 0.47149721 -0.72033036
-2.7700078 0.49045581 -0.72333086
-2.7602797 0.50622189 -0.72158056
-2.7770989 0.52693504 -0.72683144
-2.7709627 0.54340672 -0.72608131
-2.7780156 0.56251019 -0.72883177
-2.7489204 0.57420558 -0.72208065
-2.7699568 0.59635484 -0.72858173
-2.7624643 0.61250216 -0.72758156
-2.7850866 0.63546574 -0.73458272
-2.760396 0.64768153 -0.72908181
-2.7855506 0.67163587 -0.73683316
-2.7719781 0.68638992 -0.73433268
-2.7986834 0.7112487 -0.74258411
-2.8083212 0.73206818 -0.74633473
-2.8093894 0.75078458 -0.74783498
-2.8065975 0.76851958 -0.74833506
-2.8074231 0.78729343 -0.74983531
-2.8062623 0.80557245 -0.75083548
-2.7845438 0.81786835 -0.74633473
-2.7887466 0.83772212 -0.74883515
-2.805769 0.86163473 -0.75483614
-2.8161352 0.88375956 -0.75908685
-2.8217247 0.90456694 -0.76208735
-2.818882 0.92276669 -0.76283753
-2.815922 0.94096571 -0.76358765
-2.8192604 0.96134913 -0.76608807
-2.8114793 0.97799391 -0.76558799
-2.7962997 0.99199116 -0.76308757
-2.8274941 1.022624 -0.77333927
-2.8029954 1.03326 -0.76833844
-2.8065739 1.0541823 -0.7710889
-2.8045745 1.0731124 -0.77233911
-2.8159819 1.0973279 -0.77733994
-2.8010952 1.1113738 -0.77508956
-2.8005083 1.1310771 -0.77683985
-2.7747076 1.1405132 -0.77158898
-2.8024974 1.1720796 -0.7813406
-2.7658489 1.1767504 -0.77308923
-2.7781274 1.2021545 -0.77859014
-2.787539 1.2265841 -0.78334093
-2.7728889 1.2405033 -0.7813406
-2.7722769 1.260699 -0.78334093
-2.7970119 1.2927088 -0.79259253
-2.7916567 1.3110807 -0.79334265
-2.8394916 1.3548595 -0.8093453
-2.7805858 1.3477727 -0.7948429
-2.7540197 1.3558317 -0.78959203
-2.7187989 1.3592877 -0.78184068
-2.7345839 1.3882114 -0.78884184
-2.7234321 1.4036341 -0.78809172
-2.7096202 1.4176264 -0.78659147
-2.6957395 1.4315021 -0.78509122
-2.6920197 1.4507709 -0.78659147
-2.6635265 1.4565806 -0.78084052
-2.7070367 1.5020108 -0.79634315
-2.7129588 1.5271386 -0.80084389
-2.7111053 1.5480757 -0.80309427
-2.7069335 1.5900527 -0.80759501
-2.7079411 1.6130718 -0.81084555
-2.6921904 1.6261539 -0.80909526
-2.6425238 1.6183776 -0.79709327
-2.6572242 1.6498785 -0.80459452
-2.6486895 1.667183 -0.8050946
-2.6416755 1.6854862 -0.80609477
-2.6361628 1.7048172 -0.80759501
-2.628082 1.7225522 -0.80834514
-2.5956843 1.7241851 -0.80159402
-2.5850561 1.7400794 -0.80159402
-2.5663307 1.7504541 -0.7990936
-2.5611181 1.77002 -0.80084389
-2.5613146 1.7934743 -0.80434448
-2.5581601 1.814757 -0.80684489
-2.5587723 1.8388929 -0.81059551
-2.5427437 1.8511404 -0.80909526
-2.5570569 1.885666 -0.81734669
-2.513629 1.8775702 -0.80709493
-2.5151896 1.9028864 -0.81134564
-2.5242207 1.9341798 -0.81809682
-2.4939442 1.9353888 -0.81209576
-2.4698396 1.9410847 -0.8080951
-2.4457598 1.946558 -0.80409443
-2.4526196 1.9767141 -0.81034547
-2.4314415 1.9843814 -0.80734497
-2.41922 1.999263 -0.80734497
-2.4210181 2.0258725 -0.81209576
-2.3930259 2.0275486 -0.80684489
-2.40259 2.0611022 -0.81434613
-2.3935537 2.0789793 -0.81559634
-2.3865702 2.0987406 -0.81759673
-2.3505027 2.0927463 -0.80959535
-2.3397756 2.1090736 -0.81034547
-2.3425276 2.1377463 -0.81584638
-2.3229647 2.1461675 -0.81359601
-2.3154104 2.1656706 -0.81559634
-2.2894211 2.1678562 -0.8110956
-2.2830672 2.1885622 -0.81359601
-2.2689004 2.2018552 -0.81334597
-2.2539659 2.2143786 -0.81284589
-2.22523 2.2131491 -0.80734497
-2.2259398 2.2411847 -0.81259584
-2.220963 2.2637839 -0.81584638
-2.190182 2.2599897 -0.80959535
-2.1916764 2.2894695 -0.8153463
-2.1729295 2.2979507 -0.81359601
-2.1554835 2.3077028 -0.8123458
-2.1169851 2.29456 -0.80309427
-2.0969951 2.3010669 -0.80084389
-2.0912597 2.3232439 -0.80409443
-2.0576603 2.314328 -0.79659319
-2.0498116 2.3341839 -0.7990936
-2.0310087 2.3415983 -0.79734331
-2.0121922 2.3488698 -0.79559302
-2.0027463 2.3670845 -0.79759336
-1.9925314 2.3845286 -0.79934365
-1.9908078 2.4123895 -0.80459452
-1.9778036 2.4268107 -0.80534464
-1.9561963 2.4306049 -0.80259418
-1.9388354 2.4395306 -0.80159402
-1.9345926 2.4650891 -0.80609477
-1.9075661 2.4616089 -0.80109394
-1.8883063 2.4678853 -0.79934365
-1.8842204 2.4941015 -0.80409443
-1.8451402 2.4737999 -0.79384273
-1.8684032 2.5373042 -0.81059551
-1.8482434 2.5424564 -0.80859518
-1.8331732 2.5545356 -0.80884522
-1.8124257 2.5586259 -0.80659485
-1.7961372 2.5689051 -0.80634481
-1.7825413 2.5830648 -0.80734497
-1.7579353 2.5811512 -0.80334431
-1.7528701 2.6079588 -0.80834514
-1.7191689 2.5920413 -0.80009377
-1.7064143 2.6074014 -0.80159402
-1.6877565 2.6137562 -0.80034381
-1.669085 2.6199803 -0.7990936
-1.6612236 2.6432872 -0.80309427
-1.6505873 2.6624815 -0.80584472
-1.6407881 2.6832964 -0.80909526
-1.6102872 2.6701012 -0.8020941
-1.5869421 2.668282 -0.79859352
-1.5675999 2.6729586 -0.79709327
-1.5511695 2.6825271 -0.79709327
-1.5447543 2.7096562 -0.80234414
-1.5318954 2.7258356 -0.80434448
-1.5142025 2.73349 -0.80384439
-1.4570215 2.6688025 -0.78209072
-1.4640234 2.7211733 -0.7948429
-1.447299 2.7301052 -0.7948429
-1.4345559 2.7466574 -0.79709327
-1.4083697 2.7373297 -0.7918424
-1.3928608 2.7485106 -0.79259253
-1.3755374 2.756139 -0.79234248
-1.3615907 2.7706094 -0.79409277
-1.3508933 2.7919841 -0.7978434
-1.3362358 2.8054647 -0.79934365
-1.3177631 2.810981 -0.79859352
-1.3077943 2.8348379 -0.80309427
-1.2979826 2.8595591 -0.80784506
-1.2855467 2.8789616 -0.8110956
-1.2631831 2.8761582 -0.8080951
-1.2435912 2.8794107 -0.80684489
-1.2187064 2.8700557 -0.8020941
-1.1984611 2.8712254 -0.80034381
-1.1808211 2.8785248 -0.80034381
-1.1768981 2.9198384 -0.80984539
-1.1543241 2.9153025 -0.80659485
-1.1325521 2.9124048 -0.80384439
-1.1146607 2.9192991 -0.80384439
-1.0926472 2.9152048 -0.80084389
-1.0777491 2.930032 -0.80309427
-1.058764 2.9338579 -0.80234414
-1.0410655 2.9412117 -0.80259418
-1.0264932 2.9576054 -0.80534464
-1.0130068 2.9775968 -0.80909526
-0.99257267 2.9773271 -0.80734497
-0.97338325 2.9806004 -0.80659485
-0.94386208 2.9514744 -0.79709327
-0.9193666 2.9368832 -0.79159236
-0.90501791 2.9545035 -0.7948429
-0.89271224 2.9794772 -0.80009377
-0.88585407 3.0239222 -0.81059551
-0.87314999 3.049778 -0.81609643
-0.8567692 3.0634699 -0.81834686
-0.83999789 3.0761411 -0.82034719
-0.81985968 3.0765595 -0.81909698
-0.79950428 3.0759099 -0.81759673
-0.77752167 3.0685568 -0.81434613
-0.76216239 3.0873694 -0.81809682
-0.74184549 3.0863395 -0.81659657
-0.71958375 3.0766921 -0.81284589
-0.69789821 3.0687764 -0.80959535
-0.68093741 3.0815094 -0.81184572
-0.6670993 3.1092956 -0.81809682
-0.64504611 3.0991123 -0.81434613
-0.62429321 3.09447 -0.81209576
-0.60919678 3.1181974 -0.81734669
-0.59437257 3.1447091 -0.82334769
-0.58377415 3.195919 -0.83584976
-0.56499499 3.2042084 -0.83709997
-0.54581112 3.2104783 -0.83785009
-0.52328277 3.196568 -0.83334935
-0.50305617 3.1958928 -0.83234918
-0.4841615 3.2037063 -0.83359939
-0.46532872 3.2123659 -0.83509964
-0.44520995 3.2122834 -0.83434951
-0.42472801 3.2091959 -0.83284926
-0.40830469 3.2376778 -0.83960038
-0.38739207 3.2314701 -0.83735001
-0.36711872 3.229938 -0.83634984
-0.34646428 3.2244287 -0.83434951
-0.3246209 3.2062645 -0.82909864
-0.30448246 3.2033768 -0.82784843
-0.2867108 3.226402 -0.83334935
-0.26554903 3.2116966 -0.82909864
-0.24672605 3.2248504 -0.83209914
-0.22822848 3.2446544 -0.83684993
-0.2073202 3.2305341 -0.83284926
-0.1885632 3.2501106 -0.83760005
-0.1691207 3.2608757 -0.84010047
-0.14817673 3.2415404 -0.8348496
-0.13005367 3.2868924 -0.84635156
-0.11043624 3.3040791 -0.85060227
-0.090001166 3.2988873 -0.84910202
-0.069530703 3.2887292 -0.84635156
-0.049129449 3.2745721 -0.84260088
-0.029465931 3.3222535 -0.85485297
-0.0089813434 3.2884836 -0.84610152
0.011339664 3.3330154 -0.85760343
0.031328831 3.2835052 -0.84485132
0.05146046 3.2822831 -0.84460127
0.07168293 3.2857778 -0.84560144
0.091950215 3.2891474 -0.84660161
0.11255683 3.3011012 -0.84985214
0.13315861 3.3090556 -0.85210252
0.15372817 3.3139794 -0.85360277
0.17486933 3.3284442 -0.85760343
0.19461042 3.3157098 -0.85460293
0.2143268 3.304791 -0.85210252
0.23323247 3.2840974 -0.84710169
0.25293297 3.2768123 -0.84560144
0.27255285 3.2694092 -0.84410119
0.29140201 3.2541738 -0.84060055
0.31117961 3.2503967 -0.84010047
0.33258778 3.2628751 -0.84385115
0.35426468 3.2761753 -0.84785181
0.3767761 3.2951038 -0.85335273
0.39687166 3.2917686 -0.85310268
0.41827819 3.298877 -0.8556031
0.43723685 3.2866502 -0.85310268
0.46086317 3.3088398 -0.85960376
0.48060009 3.3021171 -0.8586036
0.49809468 3.2809174 -0.85385281
0.51866966 3.2806685 -0.85460293
0.53345573 3.2449393 -0.84610152
0.55677384 3.2616487 -0.85135239
0.58115995 3.2829604 -0.85785347
0.60338616 3.2907615 -0.86085397
0.61491299 3.2413347 -0.84885198
0.62622851 3.1937923 -0.83735001
0.66193664 3.2696073 -0.85835356
0.67051589 3.2105105 -0.84385115
0.70506358 3.2754371 -0.86210418
0.73059183 3.2956276 -0.86860526
0.7428382 3.2561538 -0.85935372
0.75396508 3.2138271 -0.84935206
0.78115308 3.2402039 -0.85760343
0.79636955 3.2165518 -0.8526026
0.81204021 3.1956508 -0.8483519
0.81186652 3.114713 -0.82809848
0.84769773 3.172349 -0.84485132
0.85104978 3.1082511 -0.82909864
0.87297922 3.1132264 -0.8318491
0.89633644 3.1227026 -0.83584976
0.91711605 3.1227183 -0.83735001
0.93097067 3.0994124 -0.83259922
0.94997078 3.0936415 -0.83259922
0.96951461 3.0896022 -0.83309931
0.98993069 3.0882058 -0.83434951
0.99380946 3.036061 -0.82184744
1.0219265 3.0583758 -0.82959872
1.0403607 3.0511315 -0.82934868
1.0619239 3.0529215 -0.83159906
1.0832244 3.0536487 -0.83359939
1.0953585 3.028733 -0.82859856
1.1058891 3.00015 -0.82259756
1.1222353 2.987869 -0.82109731
1.1319019 2.9583175 -0.81484622
1.1430051 2.9332721 -0.80984539
1.170261 2.949605 -0.81634653
1.1897871 2.9459603 -0.81734669
1.211152 2.946665 -0.81959707
1.2437723 2.9740181 -0.82934868
1.2551773 2.9502921 -0.82484794
1.2640322 2.9212062 -0.81884694
1.2714087 2.8894649 -0.81209576
1.3017609 2.9098942 -0.82009715
1.3235973 2.9106667 -0.82259756
1.3353416 2.8893056 -0.81884694
1.3476965 2.8696635 -0.81559634
1.3565266 2.8429873 -0.81034547
1.370146 2.8267682 -0.8080951
1.3943046 2.8322079 -0.81209576
1.4077612 2.8158042 -0.80984539
1.4171263 2.7915714 -0.80534464
1.4395491 2.7931523 -0.80834514
1.4530712 2.7774029 -0.80634481
1.4809798 2.7889605 -0.8123458
1.4824531 2.7508378 -0.80384439
1.5071986 2.7561331 -0.8080951
1.5236119 2.7459867 -0.80784506
1.5257143 2.7104273 -0.80009377
1.5485556 2.7119465 -0.80334431
1.5520692 2.6797688 -0.79659319
1.5704436 2.6735351 -0.79759336
1.5798838 2.6522017 -0.79409277
1.5941259 2.639142 -0.79309261
1.619894 2.6450012 -0.7978434
1.6325191 2.6292531 -0.79609311
1.6439806 2.6118109 -0.79384273
1.6355058 2.5633061 -0.78209072
1.6448957 2.5434649 -0.77909023
1.652512 2.5211756 -0.7753396
1.6727706 2.5182483 -0.77758998
1.699001 2.5240033 -0.78259081
1.7019112 2.4951313 -0.77683985
1.7419536 2.5204899 -0.78809172
1.7396197 2.4843702 -0.78009039
1.7609915 2.4823375 -0.78284085
1.7807089 2.4777765 -0.78484118
1.7782177 2.442534 -0.77708989
1.7891499 2.4261215 -0.7753396
1.8103746 2.4236319 -0.77809006
1.8339719 2.424062 -0.78184068
1.8299712 2.3881662 -0.77383935
1.8439968 2.3761277 -0.77358931
1.8507659 2.3548703 -0.77033877
1.874825 2.3555932 -0.77433944
1.878917 2.3312273 -0.77008873
1.9097112 2.3399112 -0.77683985
1.9110831 2.3124735 -0.77158898
1.9252362 2.3007038 -0.77158898
1.9242988 2.2711148 -0.76558799
1.9438703 2.2658799 -0.76783836
1.9571021 2.2531786 -0.76758832
1.9830362 2.2549448 -0.77233911
1.9910415 2.2362251 -0.77008873
2.0047252 2.2239661 -0.77008873
2.0202911 2.2137697 -0.77083886
2.0272677 2.1942186 -0.76833844
2.0360641 2.1767874 -0.76658815
2.0500479 2.1649566 -0.76683819
2.0492256 2.137656 -0.76158726
2.05691 2.119482 -0.75958693
2.0508807 2.0874784 -0.75258577
2.0766208 2.0879014 -0.75733656
2.0942006 2.0798972 -0.75908685
2.0986311 2.0588696 -0.75608635
2.1160908 2.0506716 -0.75783664
2.1167457 2.0262642 -0.75358593
2.1249185 2.0092456 -0.75208569
2.1485262 2.0067465 -0.75608635
2.1501265 1.9836751 -0.75233573
2.155818 1.964574 -0.75008535
2.1627953 1.9467738 -0.74833506
2.1674652 1.9270315 -0.74583465
2.1843402 1.9181691 -0.74758494
2.1960688 1.9047302 -0.74758494
2.2069793 1.8905895 -0.7473349
2.2104089 1.8701311 -0.74458444
2.2129278 1.8490812 -0.74158394
2.2257252 1.836701 -0.74208403
2.2324507 1.8193384 -0.74058378
2.2382927 1.8013556 -0.73883349
2.2371774 1.7779467 -0.73483276
2.2404289 1.7582068 -0.73233235
2.2504096 1.7438335 -0.73208231
2.2495348 1.7211646 -0.72833169
2.2615981 1.708497 -0.72883177
2.2774708 1.6986411 -0.73058206
2.2948663 1.6898035 -0.73283243
2.3153715 1.6830937 -0.73608303
2.3177898 1.6632086 -0.73358256
2.346911 1.6623915 -0.73958361
2.3665879 1.6546195 -0.74258411
2.3735087 1.6378667 -0.74158394
2.385114 1.6243628 -0.74208403
2.3757524 1.5967309 -0.73608303
2.4056747 1.5955069 -0.74233407
2.3700564 1.551015 -0.72833169
2.3933544 1.5453751 -0.73258239
2.3897276 1.5223343 -0.72858173
2.3818102 1.4968197 -0.72333086
2.3843672 1.4780945 -0.72133052
2.3917398 1.4624258 -0.72083044
2.3890619 1.4407201 -0.71732986
2.357085 1.401774 -0.70507777
2.3948705 1.4044343 -0.71382928
2.4176903 1.3979558 -0.71807998
2.4321098 1.3864527 -0.71983027
2.4135637 1.3563184 -0.71182895
2.4447062 1.3541558 -0.71858007
2.4580677 1.3419148 -0.72008032
2.4807489 1.3346087 -0.72433102
2.4623747 1.305298 -0.71657974
2.4772024 1.2937518 -0.71858007
2.4635725 1.2674491 -0.71232903
2.4618037 1.2474926 -0.70957857
2.4772081 1.2362567 -0.71182895
2.5021245 1.229578 -0.71682978
2.5087504 1.2137803 -0.71657974
2.5135288 1.1971145 -0.71582961
2.5287161 1.1853696 -0.71807998
2.5042942 1.1552236 -0.70907849
2.5448353 1.1550499 -0.71858007
2.5598307 1.1429679 -0.72083044
2.5614772 1.1249024 -0.71933019
2.5709975 1.1103165 -0.72008032
2.5670683 1.0899769 -0.71707982
2.5701342 1.0727125 -0.71607965
2.575772 1.0565547 -0.71582961
2.5750229 1.037833 -0.71382928
2.5939445 1.0270063 -0.71732986
2.5794437 1.0029954 -0.71157891
2.5864539 0.98749495 -0.71182895
2.5779591 0.96616614 -0.70782822
2.5802045 0.94899207 -0.70682806
2.5859787 0.93314242 -0.70682806
2.5825288 0.91402495 -0.70432764
2.5935764 0.90006763 -0.70582789
2.6036334 0.88569695 -0.7070781
2.6025894 0.86755985 -0.70532781
2.6124654 0.85307819 -0.70657802
2.6001294 0.83142525 -0.70182723
2.6051819 0.81545544 -0.70182723
2.6240222 0.80371159 -0.70557785
2.6122105 0.78259021 -0.7010771
2.6634197 0.78016675 -0.71357924
2.6393023 0.75554246 -0.70582789
2.6476183 0.74037766 -0.70682806
2.6240916 0.716461 -0.69932681
2.6331158 0.70159394 -0.70057702
2.613945 0.67933017 -0.69432598
2.61431 0.66232646 -0.69332582
2.6343043 0.65022105 -0.69757652
2.6241236 0.63064796 -0.6938259
2.6204019 0.61276925 -0.69182557
2.6373296 0.59968787 -0.69532615
2.6211064 0.57910299 -0.69007528
2.6340771 0.56504226 -0.69257569
2.6374946 0.54886925 -0.69257569
2.6284747 0.53018391 -0.68932515
2.6155243 0.51088655 -0.68507445
2.6471505 0.50022858 -0.69257569
2.6673138 0.4871116 -0.69707644
2.6473689 0.46669641 -0.69107544
2.6549551 0.45125604 -0.69232565
2.646208 0.43307775 -0.68932515
2.6497719 0.41698352 -0.6895752
2.6427073 0.3992683 -0.68707478
2.6508567 0.38387939 -0.68857503
2.6512442 0.36734059 -0.68807495
2.6563277 0.35144761 -0.68882507
2.6507494 0.33417141 -0.68682474
2.6354461 0.3158226 -0.68232399
2.6508024 0.30117935 -0.68582457
2.6381605 0.28335422 -0.68207395
2.6600785 0.26921356 -0.68732482
2.6414392 0.25095859 -0.68207395
2.6448581 0.2349181 -0.68257403
2.6645832 0.22020461 -0.68732482
2.6755383 0.20459139 -0.68982524
2.6864016 0.188852 -0.69232565
2.6710837 0.17130764 -0.68807495
2.666285 0.15457733 -0.6865747
2.6797533 0.13886878 -0.68982524
2.6853909 0.12264552 -0.69107544
2.6686785 0.10547356 -0.6865747
2.6779847 0.089389637 -0.68882507
2.6581576 0.072397739 -0.6835742
2.6672637 0.056272093 -0.68582457
2.6772401 0.040052131 -0.68832499
2.6842129 0.023685539 -0.69007528
2.5323789 0.0049720262 -0.69702548
2.5275426 -0.010545818 -0.69569266
2.4908073 -0.025672797 -0.68556321
2.4944577 -0.041019436 -0.68662941
2.4999404 -0.056455567 -0.68822885
2.5014737 -0.071849406 -0.68876195
2.4952064 -0.08699467 -0.68716258
2.4763286 -0.10155096 -0.68209785
2.4978018 -0.11779017 -0.68822885
2.4806707 -0.13224015 -0.68369722
2.4807746 -0.14751609 -0.68396378
2.5067515 -0.16450523 -0.69142765
2.5018494 -0.17960678 -0.69036138
2.4958959 -0.19457938 -0.6890285
2.5138633 -0.21150848 -0.69435984
2.4923604 -0.22510642 -0.68876195
2.488054 -0.24011692 -0.68796229
2.4913278 -0.25587168 -0.68929511
2.4791715 -0.27000436 -0.68636286
2.451616 -0.28223217 -0.6791656
2.4708874 -0.29982623 -0.68503004
2.4498801 -0.31254014 -0.67969871
2.4383633 -0.32628706 -0.67703307
2.441088 -0.34191141 -0.67836589
2.4284539 -0.35534704 -0.6754337
2.4071724 -0.367331 -0.67010236
2.412488 -0.38330498 -0.67223489
2.394876 -0.3955856 -0.66796982
2.3781548 -0.40782762 -0.66397136
2.3803523 -0.42325622 -0.66530418
2.380554 -0.4383778 -0.6661039
2.3891804 -0.45514205 -0.6693027
2.3995819 -0.47240108 -0.67303461
2.3919158 -0.48615539 -0.67170179
2.380398 -0.49904191 -0.6693027
2.3763492 -0.51343471 -0.66903609
2.3684502 -0.52695888 -0.66770327
2.3482614 -0.53760797 -0.6629051
2.3505473 -0.55333221 -0.66450447
2.3536654 -0.56933153 -0.66637045
2.3398387 -0.58120561 -0.66343826
2.353039 -0.59983903 -0.66823643
2.3409221 -0.6120705 -0.66583735
2.331537 -0.62492478 -0.66423792
2.3276587 -0.63921911 -0.66423792
2.3199813 -0.65244514 -0.66317165
2.3187129 -0.66746819 -0.66397136
2.3081021 -0.67977613 -0.66210538
2.3121932 -0.69642824 -0.66450447
2.2995865 -0.70804894 -0.66210538
2.3053114 -0.72532874 -0.66503763
2.2953122 -0.73769015 -0.66343826
2.2843325 -0.74965554 -0.66157228
2.2842591 -0.76518911 -0.6629051
2.2813449 -0.77981436 -0.66343826
2.2883477 -0.7979244 -0.66690361
2.2906733 -0.81453454 -0.66903609
2.2811017 -0.82693166 -0.66770327
2.2560959 -0.83356166 -0.66183883
2.2581546 -0.85010648 -0.66397136
2.2699935 -0.87050515 -0.66903609
2.2394729 -0.87459707 -0.66157228
2.2483935 -0.89402133 -0.66583735
2.2777069 -0.92190707 -0.67623341
2.2586403 -0.93035764 -0.67223489
2.2626667 -0.94829798 -0.67516714
2.2497129 -0.95913887 -0.67303461
2.2393644 -0.97100717 -0.67170179
2.2307186 -0.98356259 -0.67090207
2.2264004 -0.99802017 -0.67143518
2.2167268 -1.0100633 -0.67036897
2.2297275 -1.0325583 -0.67623341
2.2050369 -1.0376004 -0.67063552
2.2064543 -1.0548531 -0.67303461
2.1973395 -1.0671083 -0.67223489
2.1924791 -1.0814238 -0.67276806
2.1737385 -1.0888118 -0.66903609
2.1575675 -1.0973217 -0.6661039
2.1447992 -1.1074437 -0.66423792
2.1516216 -1.1277436 -0.66850299
2.1514683 -1.1445466 -0.67063552
2.1452529 -1.1581842 -0.67090207
2.1321895 -1.1680832 -0.66903609
2.1342483 -1.1862959 -0.67196834
2.1428792 -1.2083658 -0.67703307
2.1228762 -1.2143117 -0.67303461
2.0978794 -1.2171553 -0.66743672
2.0887103 -1.229027 -0.66690361
2.0711985 -1.2358924 -0.66370481
2.0553308 -1.2435874 -0.66103917
2.0304103 -1.2455895 -0.65544128
2.0079982 -1.2488604 -0.65064311
2.0117111 -1.2683554 -0.65437502
2.0047028 -1.2811942 -0.65464157
1.9968038 -1.2934709 -0.65464157
2.005748 -1.3168086 -0.66023946
2.035342 -1.354188 -0.67276806
1.9966295 -1.3461732 -0.66263855
1.9899235 -1.3594865 -0.66317165
2.0053167 -1.3881305 -0.67116863
1.9683564 -1.3804824 -0.66157228
1.9535639 -1.3880672 -0.65943974
1.9465744 -1.4011543 -0.65997291
1.9293747 -1.4068245 -0.65704066
1.9346601 -1.4289453 -0.66183883
1.9389744 -1.4506059 -0.66637045
1.9177473 -1.453161 -0.66210538
1.9531378 -1.4989398 -0.67756623
1.911945 -1.4860504 -0.66637045
1.9383826 -1.525776 -0.67889905
1.8995937 -1.5142077 -0.66850299
1.8932666 -1.5282568 -0.66956925
1.8734072 -1.531304 -0.66583735
1.8506125 -1.531707 -0.66103917
1.8478271 -1.5486059 -0.66343826
1.8302072 -1.5530542 -0.66050601
1.8228363 -1.5661396 -0.66130573
1.8204635 -1.5836213 -0.66397136
1.7955248 -1.5813824 -0.65837348
1.7915422 -1.597502 -0.66050601
1.8010205 -1.6259048 -0.66770327
1.7838966 -1.630422 -0.66503763
1.7731515 -1.6406825 -0.66477108
1.7567211 -1.6456006 -0.66237199
1.7605764 -1.6696144 -0.66770327
1.7391756 -1.6697044 -0.66343826
1.7413372 -1.6924373 -0.66823643
1.7309198 -1.7030901 -0.66823643
1.7040504 -1.6973526 -0.66183883
1.7139615 -1.7283096 -0.66983581
1.7201842 -1.7560083 -0.67649996
1.6725191 -1.728431 -0.66183883
1.6618822 -1.7386609 -0.66183883
1.6591219 -1.7572359 -0.66503763
1.6377918 -1.7561042 -0.66077256
1.6328623 -1.7725009 -0.66317165
1.62455 -1.7853383 -0.66423792
1.6135648 -1.7952727 -0.66423792
1.6018791 -1.8044188 -0.66397136
1.5952246 -1.8192872 -0.66583735
1.5884479 -1.8341415 -0.66770327
1.5702734 -1.835796 -0.66477108
1.5651987 -1.8527597 -0.66743672
1.5513314 -1.8593682 -0.66637045
1.5178318 -1.8420714 -0.6567741
1.5259643 -1.8752748 -0.66530418
1.5083927 -1.8770889 -0.66263855
1.4938515 -1.8825337 -0.66130573
1.4846498 -1.8946992 -0.66237199
1.4759449 -1.9075849 -0.66370481
1.4724027 -1.9273286 -0.66743672
1.4466217 -1.917858 -0.66103917
1.4330999 -1.924379 -0.66023946
1.4212651 -1.9331361 -0.66023946
1.4093769 -1.9418204 -0.66023946
1.4008031 -1.955133 -0.66183883
1.3954574 -1.973135 -0.66503763
1.3667765 -1.957949 -0.65704066
1.3678585 -1.9853483 -0.66343826
1.3534834 -1.9905157 -0.66237199
1.3369489 -1.9923799 -0.66023946
1.3395956 -2.0230484 -0.66770327
1.3145069 -2.0118639 -0.66130573
1.3057927 -2.0255628 -0.66317165
1.3036823 -2.0498033 -0.66850299
1.2624002 -2.0120409 -0.6535753
1.2672731 -2.0476158 -0.66263855
1.2667356 -2.075098 -0.66903609
1.2286303 -2.0407169 -0.65544128
1.2431433 -2.0938017 -0.67010236
1.2244302 -2.0914083 -0.66690361
1.2067571 -2.0905342 -0.66423792
1.2005796 -2.1096275 -0.66796982
1.1880841 -2.117795 -0.66823643
1.1741346 -2.123358 -0.66770327
1.1504781 -2.1110563 -0.66157228
1.1438861 -2.1299641 -0.66530418
1.1276405 -2.1309791 -0.66343826
1.1087528 -2.1267469 -0.65997291
1.0970031 -2.1360824 -0.66077256
1.0764817 -2.1281517 -0.65624094
1.063833 -2.1355793 -0.65650755
1.0456171 -2.1316822 -0.65330875
1.0312606 -2.1354542 -0.65250903
1.0218616 -2.1495762 -0.65490812
1.0053859 -2.1488214 -0.65277559
0.99500299 -2.1610787 -0.65464157
0.984905 -2.1741672 -0.6567741
0.97311485 -2.183691 -0.65784037
0.9654997 -2.2028627 -0.66183883
0.9454816 -2.1936979 -0.65730721
0.93501103 -2.2065578 -0.65943974
0.9162674 -2.1997967 -0.65570784
0.90749776 -2.2169738 -0.65917319
0.8931585 -2.2207117 -0.65864003
0.87809944 -2.2225645 -0.65757382
0.86827946 -2.2377951 -0.66050601
0.8603636 -2.2583926 -0.66503763
0.85256493 -2.2798796 -0.66983581
0.83690006 -2.2805438 -0.66850299
0.82974523 -2.3046801 -0.67410088
0.81911725 -2.3197255 -0.67703307
0.79604191 -2.2992051 -0.66956925
0.77820361 -2.2930934 -0.66637045
0.77111143 -2.3188615 -0.67250144
0.75269091 -2.3107188 -0.66876954
0.73439956 -2.302438 -0.66503763
