# .PCD v0.7 - Point Cloud Data file format
VERSION 0.7
FIELDS x y z
SIZE 4 4 4
TYPE F F F
COUNT 1 1 1
WIDTH 1435
HEIGHT 1
VIEWPOINT 0 0 0 1 0 0 0
POINTS 1435
DATA ascii
0.3937524 -2.6093206 -0.57463789
0.37913513 -2.6213555 -0.57677501
0.36451915 -2.6342766 -0.57912588
0.35257897 -2.6684225 -0.58617836
0.33668819 -2.6744125 -0.58703321
0.3184112 -2.6609089 -0.58361381
0.2956782 -2.6065152 -0.57121849
0.28834346 -2.6888986 -0.58895665
0.2712487 -2.6847856 -0.58767438
0.25440022 -2.6825094 -0.58681953
0.23975216 -2.7044539 -0.59130746
0.22130151 -2.6834822 -0.5863921
0.20520452 -2.6896598 -0.58746064
0.19006851 -2.7103579 -0.59173489
0.17437325 -2.7260964 -0.5949406
0.15786937 -2.7310162 -0.59579545
0.14095734 -2.7290065 -0.59515429
0.12412056 -2.7278683 -0.59472686
0.10680073 -2.7139366 -0.5915212
0.090211622 -2.7164936 -0.59194863
0.0737551 -2.7248082 -0.59365833
0.056869268 -2.717396 -0.59194863
0.040238589 -2.7206242 -0.59258974
0.023553075 -2.7217968 -0.59280348
0.0068869097 -2.7345896 -0.59558171
-0.0098162452 -2.7121119 -0.59066635
-0.026596807 -2.7266536 -0.59387201
-0.043189071 -2.7176478 -0.59194863
-0.059480216 -2.6997519 -0.5881018
-0.076426409 -2.7130072 -0.59109378
-0.093703866 -2.7310374 -0.59515429
-0.11100911 -2.7440767 -0.59814626
-0.12730134 -2.7316337 -0.59558171
-0.14441861 -2.7376301 -0.59707773
-0.16184312 -2.7474198 -0.59942853
-0.17964603 -2.7609978 -0.60263425
-0.19706811 -2.7666645 -0.60413021
-0.21396518 -2.7644293 -0.60391653
-0.23157249 -2.7708526 -0.60562623
-0.24804708 -2.7635415 -0.60434395
-0.26229987 -2.7337663 -0.59814626
-0.27827665 -2.7243307 -0.59643656
-0.29761276 -2.7468526 -0.6017794
-0.3163479 -2.7614746 -0.60541248
-0.33106461 -2.7410541 -0.60135198
-0.34861436 -2.7447858 -0.60263425
-0.3632597 -2.7261329 -0.59900111
-0.38038436 -2.7267554 -0.59964228
-0.40048468 -2.747571 -0.60477138
-0.41762915 -2.7469938 -0.6051988
-0.4411881 -2.7868357 -0.61460215
-0.45368433 -2.7561214 -0.60840446
-0.47206634 -2.7619524 -0.6103279
-0.48883417 -2.7580419 -0.61011416
-0.50856674 -2.7703645 -0.61353356
-0.52355313 -2.7566345 -0.61118275
-0.54158539 -2.7591219 -0.61246502
-0.55947393 -2.7605343 -0.61353356
-0.57799929 -2.7646995 -0.61524326
-0.60070807 -2.7878416 -0.6212272
-0.61484277 -2.7707508 -0.61823523
-0.63031131 -2.7602592 -0.61673927
-0.64678985 -2.7544374 -0.61631185
-0.66413653 -2.7523162 -0.61673927
-0.68265522 -2.7548273 -0.61823523
-0.7029137 -2.7638421 -0.6212272
-0.71665615 -2.7471879 -0.61844897
-0.73375124 -2.7436829 -0.61866266
-0.75186217 -2.74384 -0.61973125
-0.77158505 -2.7495217 -0.62208205
-0.80191648 -2.7916851 -0.63276768
-0.81903088 -2.7867119 -0.63276768
-0.83527136 -2.7788272 -0.63212657
-0.8528797 -2.7755175 -0.63255399
-0.87194115 -2.7767568 -0.63404995
-0.89104986 -2.7778664 -0.63554597
-0.90625447 -2.7667761 -0.63426369
-0.92940557 -2.7796941 -0.63853794
-0.95085746 -2.7868841 -0.64152992
-0.96922326 -2.784688 -0.64238477
-0.98433208 -2.7731643 -0.64110249
-1.0059805 -2.7799337 -0.64409447
-1.0324787 -2.7993741 -0.65007842
-1.0527271 -2.8012171 -0.6520018
-1.0681498 -2.7901428 -0.65093327
-1.0813484 -2.7735236 -0.6485824
-1.0987064 -2.7677443 -0.64879614
-1.1211553 -2.774538 -0.6520018
-1.1422434 -2.7775457 -0.65435266
-1.1683102 -2.792115 -0.65948176
-1.1984224 -2.8154576 -0.66674799
-1.2211063 -2.8206034 -0.66973996
-1.2427179 -2.8228936 -0.67209077
-1.2648022 -2.8259161 -0.67465532
-1.2946532 -2.8456697 -0.68128043
-1.3129092 -2.8394458 -0.68170786
-1.326985 -2.8242626 -0.67999816
-1.3283042 -2.7825632 -0.67187709
-1.3568565 -2.7980957 -0.67764729
-1.3744311 -2.7905941 -0.67786103
-1.3819178 -2.7628849 -0.67315936
-1.4045929 -2.7656777 -0.67593759
-1.4286965 -2.7709012 -0.67935699
-1.4470301 -2.7646794 -0.67999816
-1.4474738 -2.7246876 -0.67230451
-1.4827017 -2.750154 -0.68085301
-1.497205 -2.7367189 -0.67978442
-1.5243956 -2.7462738 -0.68448609
-1.5436137 -2.7411251 -0.68555468
-1.5536224 -2.7197251 -0.68256271
-1.5585312 -2.6898525 -0.67743361
-1.5725325 -2.6760271 -0.67636502
-1.5894226 -2.6671672 -0.67657876
-1.6158593 -2.6740885 -0.68085301
-1.6347877 -2.6682889 -0.68192154
-1.6490682 -2.6548882 -0.68106669
-1.6684494 -2.6496804 -0.68234897
-1.6920321 -2.6509228 -0.68534094
-1.718345 -2.6560769 -0.68940151
-1.7335391 -2.6438491 -0.68897408
-1.7594578 -2.64781 -0.69282091
-1.772944 -2.6329124 -0.69175231
-1.7642957 -2.5856667 -0.68213528
-1.7906803 -2.5900621 -0.68619579
-1.8138229 -2.5894291 -0.68897408
-1.8296771 -2.5782509 -0.68897408
-1.8466027 -2.5685623 -0.68940151
-1.8646281 -2.5603426 -0.69025636
-1.8930582 -2.5661507 -0.69495803
-1.9356593 -2.5904896 -0.7047888
-1.9591796 -2.5886919 -0.70756704
-1.9696795 -2.569643 -0.70564365
-1.9919972 -2.5659986 -0.70799446
-2.0221913 -2.5721617 -0.71312356
-2.0202944 -2.5375385 -0.70692593
-2.0376654 -2.5273764 -0.70756704
-2.1006944 -2.5731034 -0.72402292
-2.11831 -2.5624244 -0.72466403
-2.1377542 -2.553874 -0.72594631
-2.1527529 -2.5399635 -0.72573262
-2.1937389 -2.5563653 -0.73428112
-2.195931 -2.5273681 -0.72979313
-2.2075269 -2.509445 -0.72851086
-2.2209342 -2.4936638 -0.72786975
-2.2643173 -2.5111914 -0.73705935
-2.3126078 -2.5333312 -0.74774498
-2.3115358 -2.5011547 -0.7424022
-2.3021491 -2.4605258 -0.73449481
-2.3225765 -2.4520288 -0.7362045
-2.3200021 -2.4193954 -0.73064798
-2.383106 -2.4548905 -0.7458216
-2.3816936 -2.4234965 -0.7406925
-2.3965189 -2.4088371 -0.7406925
-2.4008577 -2.3837607 -0.73748678
-2.4196229 -2.3730893 -0.73876905
-2.4173024 -2.3418813 -0.73363996
-2.4337432 -2.3290317 -0.73428112
-2.438051 -2.3046577 -0.73128915
-2.4557157 -2.292989 -0.73235768
-2.466867 -2.275228 -0.73150283
-2.4389036 -2.2218828 -0.71910751
-2.4844372 -2.2356341 -0.72851086
-2.5170891 -2.2372251 -0.73406738
-2.5388434 -2.2288291 -0.73641825
-2.5450919 -2.2068081 -0.73428112
-2.5422635 -2.1771674 -0.72957945
-2.5675066 -2.1716237 -0.73299885
-2.5425527 -2.1238813 -0.72209948
-2.5653315 -2.1163242 -0.72487777
-2.5964427 -2.115356 -0.73000687
-2.6108954 -2.1006098 -0.7304343
-2.5778496 -2.0480797 -0.71761155
-2.6042004 -2.0430803 -0.72145838
-2.5888896 -2.0055201 -0.71376473
-2.6011465 -1.9895971 -0.71376473
-2.6390274 -1.9930326 -0.72081721
-2.6003084 -1.9388363 -0.70692593
-2.6656461 -1.9622355 -0.72145838
-2.6792164 -1.9469913 -0.7218858
-2.6593657 -1.907732 -0.7133373
-2.6981242 -1.9105784 -0.72060353
-2.7105973 -1.8945469 -0.72081721
-2.6739299 -1.8445867 -0.70799446
-2.7223382 -1.8534418 -0.71782523
-2.759604 -1.8541421 -0.72466403
-2.7652302 -1.8333946 -0.72316808
-2.7707059 -1.8126482 -0.72167206
-2.7932651 -1.8030326 -0.72466403
-2.7845025 -1.7732617 -0.71953493
-2.800293 -1.7592621 -0.72081721
-2.8293009 -1.7533712 -0.72551888
-2.8391728 -1.7354683 -0.7253052
-2.8740273 -1.7326461 -0.73150283
-2.8829253 -1.71398 -0.73107541
-2.9085555 -1.7051545 -0.73492223
-2.9451795 -1.7024361 -0.74154735
-2.9750891 -1.6954613 -0.7464627
-2.9905457 -1.6800464 -0.74774498
-2.9828529 -1.6517237 -0.74325705
-3.0135098 -1.6446257 -0.74838614
-3.0080593 -1.6177725 -0.74453932
-3.0136135 -1.5969969 -0.74347073
-3.0138311 -1.5735006 -0.74111992
-2.9834712 -1.5344183 -0.73128915
-2.9998009 -1.5196162 -0.73299885
-3.0108168 -1.5020536 -0.73342627
-3.0155931 -1.4813969 -0.73235768
-3.0140736 -1.4577596 -0.72979313
-3.0705869 -1.4619238 -0.7413336
-3.0963051 -1.4509344 -0.74539417
-3.0696681 -1.4155387 -0.73684567
-3.0827434 -1.3986958 -0.7379142
-3.0894837 -1.3789575 -0.73748678
-3.1095142 -1.3650819 -0.74026507
-3.1725373 -1.3696053 -0.7533015
-3.1619987 -1.3420944 -0.74881357
-3.1602576 -1.3185279 -0.7464627
-3.15202 -1.292438 -0.74261588
-3.1861665 -1.2836651 -0.74881357
-3.2057908 -1.2687665 -0.7515918
-3.191664 -1.2405742 -0.7464627
-3.170012 -1.2098155 -0.7396239
-3.2103064 -1.2026857 -0.74731755
-3.1626158 -1.1627291 -0.73449481
-3.1788795 -1.1466181 -0.73663193
-3.1978266 -1.1313292 -0.73941022
-3.2111685 -1.1139287 -0.74090618
-3.2364395 -1.1004976 -0.74518043
-3.2616661 -1.0867982 -0.74945468
-3.2394857 -1.0573624 -0.74282962
-3.2431214 -1.0365727 -0.74218845
-3.2680662 -1.0224912 -0.7464627
-3.247191 -0.99412119 -0.74026507
-3.2803674 -0.98231006 -0.7464627
-3.3022704 -0.96683282 -0.75009584
-3.3259847 -0.95166153 -0.75415635
-3.3496363 -0.93623537 -0.75821692
-3.3185649 -0.90562767 -0.7498821
-3.3023484 -0.87946212 -0.74496675
-3.3143008 -0.86090314 -0.7464627
-3.3100512 -0.8381511 -0.74432558
-3.3103898 -0.81665444 -0.74325705
-3.3438332 -0.80317688 -0.74966842
-3.372479 -0.78820682 -0.7550112
-3.3848724 -0.76923209 -0.7567209
-3.3694973 -0.74402148 -0.75223297
-3.3739989 -0.72333264 -0.75223297
-3.3123825 -0.68887943 -0.73748678
-3.3596389 -0.6772368 -0.74710387
-3.3809891 -0.65998179 -0.75095069
-3.3561778 -0.63378042 -0.74453932
-3.4099751 -0.62230438 -0.75565237
-3.4570217 -0.60900402 -0.7652694
-3.4481735 -0.58565193 -0.76249117
-3.4044631 -0.55674917 -0.75201923
-3.4010599 -0.53478587 -0.75052327
-3.4380848 -0.51901722 -0.75800318
-3.4431381 -0.49819186 -0.7584306
-3.4654832 -0.47973844 -0.76270485
-3.4770775 -0.45961931 -0.76462829
-3.4662633 -0.43656424 -0.76163632
-3.4717865 -0.41563633 -0.76227742
-3.4771836 -0.39465705 -0.76291859
-3.5018797 -0.37571493 -0.76783395
-3.5575747 -0.35963407 -0.77958816
-3.5295668 -0.33493221 -0.77296305
-3.5286362 -0.31300941 -0.77232194
-3.4701288 -0.28636009 -0.75907177
-3.4542878 -0.2637206 -0.75522494
-3.4587643 -0.24272624 -0.75586605
-3.509908 -0.22469088 -0.76676542
-3.5170722 -0.20348987 -0.76804769
-3.5221567 -0.18210815 -0.76890254
-3.5349183 -0.16102873 -0.77146709
-3.5358398 -0.13933586 -0.77146709
-3.5200305 -0.11708267 -0.76783395
-3.5275183 -0.095668569 -0.76932997
-3.5378056 -0.074228987 -0.77146709
-3.5616372 -0.052872177 -0.77659619
-3.5667791 -0.031060785 -0.77766472
-3.5669024 -0.0091748545 -0.77766472
-3.57373 0.012734582 -0.77916074
-3.5823762 0.034746058 -0.78108412
-3.5674436 0.056497008 -0.77787846
-3.5807033 0.078683421 -0.78087044
-3.5655053 0.10024349 -0.77766472
-3.5833733 0.12275133 -0.78172529
-3.5806005 0.14465766 -0.78129786
-3.5396359 0.16476975 -0.77253562
-3.5473382 0.1869466 -0.77445906
-3.611464 0.21254312 -0.78877777
-3.5652487 0.23179115 -0.778947
-3.6280725 0.25822905 -0.79305202
-3.6001217 0.27845621 -0.78728181
-3.5856898 0.2994861 -0.78450352
-3.5905957 0.32209158 -0.78599954
-3.6002212 0.34523398 -0.78856409
-3.6096976 0.36850655 -0.79112864
-3.5714326 0.3867631 -0.78322124
-3.6136386 0.41377401 -0.79305202
-3.6304293 0.43827742 -0.79732627
-3.6344557 0.46140516 -0.79882228
-3.6141255 0.48137847 -0.79497546
-3.6072335 0.50300628 -0.79412061
-3.591512 0.52330154 -0.79134232
-3.5988576 0.54694146 -0.79369318
-3.6205218 0.57297933 -0.79924971
-3.6497126 0.60057104 -0.80651593
-3.634403 0.62098157 -0.80395138
-3.6430297 0.64548367 -0.80672961
-3.6620615 0.67205286 -0.81185871
-3.6377137 0.69068688 -0.80737078
-3.6199861 0.71036321 -0.80437881
-3.625134 0.73449987 -0.80651593
-3.5937834 0.75113791 -0.80053198
-3.6359031 0.78324735 -0.81100386
-3.630075 0.80533063 -0.81079018
-3.6879256 0.84192884 -0.8248952
-3.6627173 0.85985643 -0.82040721
-3.6687689 0.8850615 -0.82297176
-3.7286997 0.92375445 -0.83771795
-3.6424825 0.92616707 -0.81955236
-3.6187701 0.94381827 -0.81549186
-3.5572276 0.95112652 -0.80288279
-3.6314135 0.99486208 -0.82104838
-3.6308844 1.0187078 -0.82233065
-3.6057858 1.0355772 -0.8180564
-3.5974889 1.0571319 -0.81762898
-3.5890636 1.0786237 -0.81720155
-3.5730391 1.0977581 -0.81506443
-3.566236 1.1196611 -0.81506443
-3.6197667 1.1609038 -0.82895571
-3.5977206 1.1782303 -0.82553631
-3.5904233 1.2002834 -0.82553631
-3.5478551 1.2103115 -0.81741524
-3.5994134 1.252597 -0.83109283
-3.5456252 1.2583301 -0.82040721
-3.609494 1.3059751 -0.83707678
-3.5794139 1.3199896 -0.83194768
-3.579478 1.3450187 -0.83387113
-3.5574718 1.3617206 -0.83066541
-3.5408571 1.3803312 -0.82874203
-3.5577462 1.4121184 -0.83472598
-3.5997407 1.454407 -0.84669387
-3.5817132 1.4727535 -0.84455675
-3.5897331 1.5018638 -0.84861726
-3.5525835 1.5120068 -0.8419922
-3.5468254 1.5353283 -0.84284705
-3.5185604 1.5488005 -0.83835906
-3.5758712 1.6002784 -0.85438752
-3.5784347 1.6278505 -0.8573795
-3.5692661 1.6501865 -0.85759318
-3.5104396 1.6492174 -0.84583902
-3.4861472 1.6639955 -0.84241962
-3.4785087 1.6866329 -0.84306073
-3.4777355 1.7126909 -0.8454116
-3.4863844 1.7436076 -0.85011327
-3.4982686 1.7764635 -0.8556698
-3.4708037 1.7893924 -0.85160923
-3.4744742 1.8183533 -0.85524237
-3.4934499 1.8556728 -0.86272228
-3.4871578 1.8798537 -0.86400455
-3.4678435 1.896997 -0.86208117
-3.439908 1.9092346 -0.8580206
-3.4502625 1.9427642 -0.86357713
-3.4543958 1.9731013 -0.86763769
-3.4574404 2.0030725 -0.87148452
-3.4425576 2.0227649 -0.87084335
-3.4132955 2.0338514 -0.8665691
-3.4149673 2.0633428 -0.87020224
-3.39891 2.082217 -0.86934739
-3.3694711 2.0927277 -0.86507314
-3.3474727 2.1076388 -0.86272228
-3.3583603 2.1433764 -0.86891997
-3.3164346 2.145376 -0.86144
-3.348963 2.1956725 -0.8734079
-3.3167114 2.2037487 -0.86849254
-3.2998855 2.2218764 -0.86763769
-3.2845759 2.2409811 -0.86721027
-3.2788005 2.2666466 -0.86934739
-3.2640307 2.2861619 -0.86913365
-3.2371929 2.2971034 -0.86571425
-3.2714288 2.3516982 -0.87875074
-3.2632556 2.3763268 -0.88046044
-3.2148046 2.3713746 -0.87127078
-3.197063 2.3887174 -0.87041593
-3.1776714 2.4047527 -0.86913365
-3.1558774 2.4188581 -0.86721027
-3.1409762 2.4381766 -0.86721027
-3.1405504 2.4688721 -0.87127078
-3.1222851 2.4856625 -0.87041593
-3.1069746 2.5047736 -0.87041593
-3.0991156 2.5299671 -0.87255305
-3.0782623 2.5445793 -0.87105709
-3.0820708 2.5797186 -0.87661362
-3.0706561 2.6023703 -0.87789589
-3.0790989 2.6421518 -0.88494837
-3.0458653 2.6462617 -0.88003302
-3.0376403 2.6719971 -0.88238382
-3.0065956 2.6775935 -0.87810957
-2.9864812 2.6927209 -0.87704104
-2.9713461 2.7123122 -0.87746847
-2.9481897 2.7245266 -0.87554502
-2.9228554 2.7345576 -0.87298048
-2.9053121 2.7517688 -0.87276679
-2.8968356 2.7776558 -0.87533134
-2.8818407 2.7974191 -0.87597245
-2.8506842 2.8013568 -0.8716982
-2.8223591 2.8077736 -0.8682788
-2.8140273 2.834049 -0.87105709
-2.8157413 2.8707869 -0.87704104
-2.7824366 2.8718755 -0.87212563
-2.8046205 2.9305279 -0.88473469
-2.7792029 2.9398739 -0.88238382
-2.7484417 2.9433074 -0.87832332
-2.7190688 2.9479105 -0.87469018
-2.7107999 2.9753695 -0.87789589
-2.6304014 2.9229717 -0.85759318
-2.6721361 3.0062208 -0.87725472
-2.6375241 3.00421 -0.87191194
-2.6350439 3.0387857 -0.87725472
-2.6322379 3.0734437 -0.88259757
-2.6070199 3.0820792 -0.88046044
-2.5830483 3.0920208 -0.87875074
-2.5584311 3.1010308 -0.8768273
-2.5461442 3.1250005 -0.87917817
-2.5067089 3.1154506 -0.87212563
-2.4899769 3.133832 -0.87298048
-2.4936202 3.1782534 -0.88110155
-2.4597101 3.1749623 -0.87597245
-2.4490874 3.2016323 -0.87917817
-2.4240963 3.2095842 -0.87725472
-2.4107821 3.2330112 -0.87960559
-2.4036434 3.2650483 -0.88430727
-2.3473747 3.2299557 -0.87084335
-2.3320684 3.2506473 -0.87255305
-2.3442669 3.3103325 -0.88473469
-2.3401449 3.347872 -0.89093232
-2.3162293 3.3573437 -0.88965005
-2.2807374 3.3496926 -0.88387984
-2.2645011 3.37011 -0.88558954
-2.2362201 3.3725441 -0.88259757
-2.2047849 3.3698537 -0.87832332
-2.1485598 3.3283346 -0.86400455
-2.1422694 3.3637004 -0.86977482
-2.1221097 3.3776088 -0.8699885
-2.1136992 3.4104929 -0.8751176
-2.0896749 3.4183977 -0.87383533
-2.0621021 3.4202802 -0.87105709
-2.033586 3.4202747 -0.86785138
-2.0066307 3.4225762 -0.86528683
-1.994395 3.4500465 -0.86913365
-1.9673823 3.452035 -0.8665691
-1.9657879 3.4989576 -0.87533134
-1.9291329 3.4836087 -0.86849254
-1.905849 3.4919503 -0.86763769
-1.8876271 3.5096006 -0.86913365
-1.8733784 3.5349264 -0.87255305
-1.8575329 3.5576115 -0.87533134
-1.8463959 3.5897894 -0.88046044
-1.8261011 3.6045368 -0.88131529
-1.816165 3.6401477 -0.88729924
-1.7881937 3.6398253 -0.88452095
-1.7526358 3.6234689 -0.87789589
-1.7219676 3.6165156 -0.87362164
-1.6997446 3.6270134 -0.87362164
-1.6885074 3.6613247 -0.87939185
-1.6769128 3.6956334 -0.88516212
-1.6195502 3.6282499 -0.8665691
-1.5945072 3.6318579 -0.86507314
-1.5439156 3.5761054 -0.84947211
-1.5502006 3.6520505 -0.86528683
-1.5255048 3.6560845 -0.86400455
-1.4915485 3.6373584 -0.8573795
-1.4651847 3.6364753 -0.85502863
-1.4655029 3.7026186 -0.86849254
-1.4583361 3.7516015 -0.87789589
-1.42588 3.7358384 -0.87212563
-1.3878436 3.7042685 -0.86272228
-1.3681239 3.7209659 -0.86464572
-1.3422821 3.7210205 -0.86272228
-1.321381 3.7347119 -0.86400455
-1.3086909 3.7722816 -0.87084335
-1.2899252 3.7931881 -0.87383533
-1.2579749 3.7750828 -0.86785138
-1.232968 3.7771587 -0.8665691
-1.1883422 3.7176595 -0.85118181
-1.1868155 3.792937 -0.86678284
-1.1686708 3.8169608 -0.87062967
-1.1289645 3.769784 -0.85823435
-1.1146016 3.8066399 -0.86507314
-1.0917614 3.8152857 -0.86550057
-1.0712252 3.8322616 -0.86785138
-1.0446023 3.8274536 -0.86528683
-1.0200915 3.8300152 -0.86443198
-0.98329985 3.7851467 -0.8528915
-0.96821511 3.8233058 -0.86015773
-0.93982023 3.809258 -0.8556698
-0.9180277 3.8216016 -0.85716575
-0.89878905 3.8452358 -0.86122632
-0.87799472 3.8630617 -0.86400455
-0.85469651 3.8702841 -0.86443198
-0.82519418 3.848711 -0.85844803
-0.79897523 3.8412688 -0.8556698
-0.7713331 3.8259895 -0.85118181
-0.7467187 3.8248975 -0.84989953
-0.72523141 3.8399661 -0.8522504
-0.70218289 3.8472266 -0.8528915
-0.67313451 3.8206773 -0.84605271
-0.6635974 3.9065969 -0.86421829
-0.6432448 3.9327686 -0.86913365
-0.61044222 3.8816357 -0.85695207
-0.58880341 3.8997972 -0.86015773
-0.56010133 3.870465 -0.8528915
-0.54331696 3.9241467 -0.86400455
-0.51076794 3.8634889 -0.84989953
-0.4907198 3.8956265 -0.8563109
-0.46704003 3.9005041 -0.85673833
-0.45402229 3.9993904 -0.87789589
-0.42164499 3.9292531 -0.86186743
-0.39644492 3.9210751 -0.85951662
-0.3741349 3.9419115 -0.86357713
-0.34829745 3.9256446 -0.85951662
-0.32613602 3.9510739 -0.86464572
-0.30434644 3.9851441 -0.8716982
-0.27618584 3.9343143 -0.86015773
-0.25235307 3.9408092 -0.86122632
-0.22601713 3.9052238 -0.85310525
-0.20326565 3.9299512 -0.85823435
-0.17852329 3.9174621 -0.85524237
-0.15537156 3.9409347 -0.86015773
-0.13177522 3.9593883 -0.86400455
-0.10819817 3.9864888 -0.86977482
-0.083156839 3.9597304 -0.86379087
-0.058315922 3.9240251 -0.85588348
-0.033517066 3.84323 -0.83814538
-0.010114739 3.9088149 -0.85246408
0.013932357 3.9273643 -0.85652465
0.038216002 3.9467423 -0.8607989
0.063212164 3.9962487 -0.8716982
0.087731488 3.9957857 -0.8716982
0.11271131 4.0117731 -0.87533134
0.1361604 3.9768343 -0.86785138
0.16036291 3.9710433 -0.86678284
0.18305145 3.9338784 -0.85887545
0.2055462 3.9014635 -0.85203665
0.22713509 3.8601449 -0.84327447
0.25751609 3.9620128 -0.86592799
0.27462628 3.8590157 -0.8437019
0.2913093 3.7666759 -0.82382661
0.32171828 3.8524346 -0.84306073
0.34439206 3.839685 -0.84070992
0.36720079 3.8297198 -0.83900023
0.39138594 3.8341978 -0.84049618
0.41889501 3.8686311 -0.84861726
0.44550964 3.891223 -0.85417378
0.46282998 3.8341031 -0.84220588
0.50084507 3.9455492 -0.86742395
0.51152003 3.8407233 -0.84498417
0.56170815 3.8554246 -0.84968585
0.5843277 3.845145 -0.84818983
0.60775751 3.8405223 -0.84797615
0.63099414 3.8347929 -0.84754872
0.64399278 3.7692189 -0.83387113
0.66847026 3.772892 -0.83558083
0.68649882 3.7408538 -0.82938313
0.70343125 3.7048984 -0.82233065
0.73573625 3.7494032 -0.83322996
0.7583406 3.7429035 -0.83280253
0.76611525 3.6655035 -0.81656039
0.79599226 3.6951146 -0.82425404
0.81547874 3.6758547 -0.82104838
0.83932161 3.6764963 -0.82233065
0.85851777 3.657011 -0.81912494
0.8850615 3.6687689 -0.82297176
0.9108426 3.6765449 -0.82596374
0.9348278 3.6765678 -0.82724601
0.949485 3.6405125 -0.82040721
0.97331792 3.6402807 -0.82168949
0.98428565 3.5927823 -0.81228614
1.0131693 3.6111312 -0.81784266
1.0202154 3.5522635 -0.80587476
1.0508008 3.5759306 -0.81271356
1.0662594 3.5478969 -0.80779821
1.0931702 3.5580971 -0.81164503
1.1105946 3.5373414 -0.80843931
1.1289985 3.5202272 -0.80608851
1.1463226 3.5002356 -0.80309653
1.1603482 3.4708986 -0.79796743
1.1942335 3.5006988 -0.80651593
1.2185793 3.5016093 -0.80843931
1.2299179 3.4655249 -0.80181426
1.2597965 3.4817986 -0.80737078
1.2838395 3.4813359 -0.80908048
1.2852552 3.4203506 -0.79668516
1.2992364 3.3941519 -0.79241091
1.33919 3.4352691 -0.80395138
1.3602433 3.4269872 -0.80395138
1.373929 3.40046 -0.79967713
1.3943967 3.3910623 -0.79946339
1.4106548 3.3716273 -0.79689884
1.432081 3.3647063 -0.79732627
1.4461048 3.3406141 -0.79369318
1.4516251 3.2976995 -0.78557211
1.4861925 3.320833 -0.79326576
1.4940054 3.2840838 -0.78664064
1.5042926 3.2535722 -0.78151155
1.5341938 3.2655027 -0.78664064
1.5394784 3.2251687 -0.77916074
1.5810975 3.2104166 -0.78022927
1.606882 3.2128875 -0.78322124
1.6256813 3.2012253 -0.78279382
1.6238124 3.1495085 -0.77253562
1.6444653 3.1420825 -0.77317679
1.6828997 3.121666 -0.77317679
1.7062404 3.1189952 -0.77510017
1.7352988 3.126406 -0.77958816
1.7386367 3.0876064 -0.77253562
1.7444707 3.0539749 -0.76676542
1.7636664 3.0440588 -0.7669791
1.7773635 3.0247564 -0.76484197
1.7828916 2.9919722 -0.75928545
1.8340454 3.0353296 -0.77317679
1.8342687 2.9940276 -0.76548314
1.8809459 3.0283635 -0.7772373
1.8573426 2.9497972 -0.75992662
1.8964243 2.9712875 -0.76847512
1.9056021 2.9456499 -0.76484197
1.908111 2.9102073 -0.75864434
1.9291747 2.903327 -0.75992662
1.932225 2.869554 -0.75415635
1.9696118 2.886698 -0.76185
1.9822887 2.8673255 -0.75992662
1.9886388 2.8391037 -0.75565237
1.9975436 2.8148963 -0.75244665
2.0472727 2.847805 -0.76462829
2.0675828 2.8391383 -0.76569682
2.0712845 2.7720704 -0.75437009
2.1012208 2.7764487 -0.75907177
2.0986104 2.7379138 -0.75201923
2.1147714 2.7242138 -0.75180554
2.1543846 2.7403741 -0.75992662
2.1273594 2.6720686 -0.74453932
2.163944 2.6840656 -0.7515918
2.1643596 2.61815 -0.74047875
2.1741145 2.5973284 -0.73834163
2.1874845 2.5809581 -0.73748678
2.1937389 2.5563653 -0.73428112
2.2042587 2.5369563 -0.73257142
2.2113974 2.5138466 -0.72979313
2.2215836 2.4943933 -0.72808343
2.2303066 2.4734585 -0.72594631
2.2434661 2.4575624 -0.7253052
2.2465708 2.4308345 -0.72145838
2.2514343 2.406302 -0.71825266
2.2641418 2.3903141 -0.71761155
2.283498 2.3813131 -0.71910751
2.296706 2.365855 -0.71868008
2.3173406 2.3579898 -0.72060353
2.3531203 2.3651991 -0.72722858
2.3648162 2.3479626 -0.72637373
2.336642 2.2916741 -0.7133373
2.3857348 2.3112872 -0.72402292
2.3659997 2.2641788 -0.71376473
2.3592641 2.2301533 -0.70756704
2.3721898 2.2149684 -0.70735335
2.3965056 2.2103081 -0.71055901
2.3450401 2.1363389 -0.69132489
2.4176404 2.175504 -0.70884931
2.4265633 2.156734 -0.70756704
2.4338791 2.1366472 -0.70585734
2.4602268 2.1331949 -0.70970416
2.4369178 2.0869162 -0.69923228
2.4466939 2.0694001 -0.69837743
2.4930782 2.0825377 -0.70799446
2.4447803 2.0168345 -0.69068378
2.4540806 1.9993268 -0.68982893
2.4663017 1.9842315 -0.68982893
2.4967847 1.9836491 -0.69495803
2.5035298 1.96407 -0.69346201
2.5078125 1.9426875 -0.69132489
2.4653778 1.8857073 -0.67636502
2.4394882 1.842278 -0.66610682
2.4538784 1.8296113 -0.66696167
2.4548326 1.8069896 -0.66418344
2.4682446 1.7936164 -0.66482455
2.4768224 1.7767289 -0.66418344
2.5028231 1.7722273 -0.66824394
2.4464004 1.709814 -0.6502921
2.4600616 1.6969904 -0.65114695
2.4244056 1.6505177 -0.63896537
2.4693501 1.6590444 -0.64815497
2.4550607 1.6276621 -0.6417436
2.4208624 1.5836788 -0.63020313
2.4428439 1.5767442 -0.63340884
2.450001 1.5601506 -0.63276768
2.4363689 1.530533 -0.62678373
2.4639804 1.5268794 -0.6314854
2.469969 1.5096934 -0.63063055
2.4925704 1.502582 -0.63404995
2.4992244 1.4857614 -0.63340884
2.5015523 1.4664447 -0.63169914
2.5045836 1.4476445 -0.63020313
2.5728252 1.4661187 -0.645163
2.539192 1.426373 -0.63447738
2.5513144 1.4126595 -0.63533223
2.5530748 1.3932333 -0.63362253
2.5555537 1.3743016 -0.63212657
2.5587595 1.3558495 -0.6308443
2.548847 1.3306259 -0.6263563
2.5639126 1.3185371 -0.628066
2.5832827 1.3085215 -0.6308443
2.5868926 1.2904648 -0.6297757
2.6175573 1.2857709 -0.63533223
2.6086893 1.2616011 -0.63127172
2.6075618 1.2413696 -0.6291346
2.6275129 1.2311522 -0.63212657
2.6261473 1.2109144 -0.62998945
2.6424232 1.1988158 -0.63212657
2.6515133 1.1833763 -0.63255399
2.6515689 1.1639419 -0.6308443
2.6380339 1.138741 -0.62592888
2.687233 1.1404797 -0.63597339
2.6815591 1.1187011 -0.63298142
2.7073526 1.1100128 -0.63746935
2.7077701 1.0908233 -0.63597339
2.7171371 1.0752672 -0.6366145
2.7100267 1.0532637 -0.63340884
2.736516 1.0442822 -0.63811052
2.7456164 1.0285002 -0.63875163
2.7454576 1.0092733 -0.63725567
2.7764087 1.0013626 -0.64302588
2.7456646 0.97126842 -0.63447738
2.7635698 0.95856738 -0.63725567
2.7444291 0.93309641 -0.6314854
2.7575169 0.91871125 -0.6331951
2.7696023 0.90389717 -0.63469112
2.7620699 0.88271993 -0.63169914
2.7692988 0.86633933 -0.63212657
2.7857709 0.85276473 -0.63469112
2.7956297 0.83705753 -0.63575965
2.784776 0.81521887 -0.63212657
2.785969 0.79704082 -0.63127172
2.7955112 0.78124714 -0.63234025
2.8247542 0.77077079 -0.63789678
2.8294303 0.75342399 -0.63789678
2.8444002 0.73875225 -0.64024764
2.8678188 0.72608489 -0.64452189
2.8475614 0.70238656 -0.63896537
2.8784127 0.69129431 -0.64494932
2.8607223 0.66850221 -0.6400339
2.8447664 0.64638668 -0.63554597
2.8572638 0.6308167 -0.63746935
2.8773181 0.61675715 -0.64110249
2.8896561 0.60088247 -0.64302588
2.8817976 0.58082193 -0.64046133
2.890101 0.56406534 -0.64152992
2.9213445 0.55158341 -0.64772755
2.9285178 0.53435022 -0.6485824
2.9182727 0.51399595 -0.64559042
2.9040363 0.49313256 -0.6417436
2.9166481 0.47688282 -0.64388072
2.8809187 0.45290083 -0.63533223
2.9126213 0.43959522 -0.6417436
2.9171972 0.42199555 -0.64217103
2.9052172 0.40207607 -0.63896537
2.9153771 0.38526794 -0.64067507
2.9205937 0.36773902 -0.64131618
2.9208553 0.34957907 -0.64088875
2.9122682 0.33043668 -0.63853794
2.9365809 0.314962 -0.6434533
2.9384582 0.29693756 -0.6434533
2.9139669 0.27640551 -0.63768309
2.9078236 0.25782862 -0.63597339
2.9249282 0.24126999 -0.63939279
2.9156389 0.22249845 -0.63704193
2.942286 0.20638692 -0.64259845
2.9629948 0.18958119 -0.6468727
2.921191 0.16890658 -0.63746935
2.9582689 0.1528521 -0.64537674
2.9532959 0.13442986 -0.64409447
2.9589458 0.11649945 -0.645163
2.9586287 0.098308854 -0.64494932
2.9767537 0.080633052 -0.64879614
2.9674256 0.062159847 -0.64665902
2.9599369 0.043833513 -0.64494932
2.961127 0.025679536 -0.645163
2.7046666 0.0071712537 -0.63698006
2.7231493 -0.0094906595 -0.6413542
2.7386093 -0.02635074 -0.64503771
2.7218547 -0.042891745 -0.64112401
2.7380798 -0.059955705 -0.64503771
2.7454424 -0.076974057 -0.64687949
2.7225492 -0.093051605 -0.64158446
2.7540145 -0.1110521 -0.64918166
2.7318954 -0.12695241 -0.64411688
2.7485571 -0.1446348 -0.64826083
2.7379034 -0.16092497 -0.6459586
2.7436621 -0.17816348 -0.64757013
2.7473705 -0.19534047 -0.64872122
2.7383583 -0.21159382 -0.64687949
2.7564039 -0.23001245 -0.65148389
2.7423403 -0.24579051 -0.64849102
2.7533736 -0.26382044 -0.65148389
2.7575116 -0.28130296 -0.65286517
2.7315466 -0.29559764 -0.64710969
2.7393496 -0.31345981 -0.64941192
2.7354424 -0.33002892 -0.64895147
2.733366 -0.34680709 -0.64895147
2.7292573 -0.36331514 -0.64849102
2.7337234 -0.38099566 -0.65010256
2.738075 -0.39874464 -0.65171409
2.7355769 -0.41553763 -0.65171409
2.7377815 -0.4330757 -0.65286517
2.7187488 -0.44717968 -0.64895147
2.7092392 -0.46270573 -0.64733994
2.7092237 -0.47983003 -0.64803058
2.6880426 -0.49310651 -0.64365643
2.6935709 -0.51122475 -0.64572841
2.6961129 -0.52886707 -0.64710969
2.6899559 -0.54482031 -0.64641905
2.7141862 -0.56708968 -0.65309542
2.7230225 -0.58639741 -0.65608829
2.7355237 -0.60667801 -0.66000199
2.6966472 -0.61543661 -0.65148389
2.6568196 -0.62351882 -0.64273554
2.6396999 -0.63661367 -0.63951248
2.6310213 -0.65162832 -0.63836139
2.6354616 -0.66991818 -0.64043337
2.6171768 -0.68239224 -0.63698006
2.5988388 -0.69466728 -0.63352674
2.6086059 -0.71445769 -0.63698006
2.601362 -0.72966158 -0.63628942
2.5697117 -0.7378186 -0.62961304
2.5810082 -0.75823671 -0.63352674
2.5828309 -0.77601999 -0.63513827
2.5696487 -0.78928089 -0.6330663
2.5805409 -0.80998909 -0.63698006
2.6153679 -0.838588 -0.64687949
2.5889027 -0.84765321 -0.64158446
2.6150324 -0.87401366 -0.64941192
2.598568 -0.88627201 -0.6466493
2.6022718 -0.90539861 -0.64895147
2.592999 -0.92004675 -0.64803058
2.600116 -0.94057548 -0.65125364
2.6089041 -0.96189946 -0.65493715
2.5993092 -0.97652006 -0.65401632
2.5878153 -0.99036318 -0.65263498
2.5816901 -1.0062231 -0.65263498
2.5781808 -1.0231222 -0.65332562
2.5682454 -1.037464 -0.65240479
2.5798314 -1.0606052 -0.65700912
2.5858433 -1.0816735 -0.66023225
2.5657265 -1.0918026 -0.65677893
2.5857704 -1.1191235 -0.6636855
2.5494633 -1.1220295 -0.65608829
2.5531895 -1.1424222 -0.65885091
2.5496747 -1.1596788 -0.6597718
2.5380948 -1.1732594 -0.65862072
2.5343709 -1.1904659 -0.65954155
2.5419483 -1.2131209 -0.66345531
2.5379593 -1.2303936 -0.6643762
2.522505 -1.2420734 -0.66230422
2.5174475 -1.2588338 -0.66299486
2.5018671 -1.2702911 -0.66092288
2.4654825 -1.2709016 -0.65332562
2.480917 -1.2981895 -0.65954155
2.4264972 -1.2887344 -0.64710969
2.4142611 -1.3012899 -0.6459586
2.4557476 -1.3431681 -0.65931135
2.4483109 -1.3586833 -0.65954155
2.4416237 -1.3746352 -0.66000199
2.4551129 -1.4021409 -0.66598773
2.4641457 -1.427424 -0.67082232
2.4343655 -1.4301912 -0.66506684
2.4171848 -1.4401196 -0.66276467
2.4241276 -1.4644865 -0.66713881
2.3976705 -1.468657 -0.66230422
2.3894405 -1.4838547 -0.66253442
2.3794675 -1.4979695 -0.66230422
2.3677704 -1.5109707 -0.66161352
2.3412964 -1.5143702 -0.65677893
2.3148706 -1.5175022 -0.65194434
2.3201048 -1.5413717 -0.65608829
2.312218 -1.5566657 -0.65654874
2.3154845 -1.5795997 -0.66023225
2.3209574 -1.6042923 -0.66460639
2.3007081 -1.6112452 -0.66161352
2.3026826 -1.6337795 -0.66506684
2.2965653 -1.6507181 -0.66621792
2.2777405 -1.6584767 -0.6636855
2.2831836 -1.6839755 -0.6682899
2.2470827 -1.6787306 -0.66069269
2.2452755 -1.6989468 -0.66322505
2.2162724 -1.6984832 -0.65769982
2.2111897 -1.7162272 -0.65931135
2.1983225 -1.7279583 -0.65862072
2.1602714 -1.7195936 -0.65033281
2.163316 -1.7438107 -0.65447676
2.1420219 -1.7484357 -0.65125364
2.0712509 -1.7119424 -0.6328361
2.1002569 -1.7577248 -0.64503771
2.0886898 -1.7699494 -0.64480752
2.0785289 -1.7833658 -0.64503771
2.0433056 -1.7750231 -0.6374405
2.0469892 -1.8003824 -0.6420449
2.0366304 -1.8135557 -0.64227509
2.0153463 -1.8168947 -0.63905203
2.0314708 -1.8541582 -0.64780039
2.0157676 -1.8626252 -0.64641905
2.0085645 -1.878948 -0.64780039
1.973683 -1.8691527 -0.64020312
1.955153 -1.8744924 -0.63790095
1.9582776 -1.9006883 -0.64273554
1.9576833 -1.9235821 -0.64641905
1.9589511 -1.9485986 -0.65079319
1.9558712 -1.9695593 -0.65378606
1.9314843 -1.9690173 -0.64964211
1.9288459 -1.9906168 -0.65286517
1.8883371 -1.9728853 -0.64319599
1.8494567 -1.9561471 -0.63398719
1.8301136 -1.9596342 -0.63145477
1.8292711 -1.9829874 -0.63536853
1.8046173 -1.9805061 -0.63099432
1.813261 -2.0146899 -0.63836139
1.8002186 -2.0250509 -0.63813114
1.7845492 -2.032402 -0.63698006
1.7758701 -2.047725 -0.63836139
1.76074 -2.0556264 -0.6374405
1.7575203 -2.0775366 -0.64089376
1.7316387 -2.0725975 -0.63605917
1.7176502 -2.0816822 -0.63559872
1.6956252 -2.0808656 -0.63214546
1.6718451 -2.0775828 -0.62800151
1.6645139 -2.0946593 -0.63007349
1.6528313 -2.1063645 -0.63053387
1.6374921 -2.113389 -0.62961304
1.6244936 -2.1233969 -0.62961304
1.6108477 -2.1325481 -0.62938279
1.5948238 -2.1384909 -0.6282317
1.5759033 -2.1403995 -0.62592953
1.55988 -2.1460924 -0.62477839
1.5461153 -2.1548326 -0.6245482
1.5193676 -2.1452184 -0.61902291
1.5128659 -2.164072 -0.62178558
1.4962434 -2.1685081 -0.62040424
1.4861956 -2.1824744 -0.62178558
1.471148 -2.1891291 -0.62109488
1.4657542 -2.2102807 -0.6245482
1.4633524 -2.2363341 -0.62938279
1.4279653 -2.2117493 -0.6199438
1.4175036 -2.2253942 -0.62132514
1.3976102 -2.2241619 -0.61856246
1.3834239 -2.2318685 -0.61833227
1.371226 -2.242806 -0.61902291
1.3619604 -2.2586782 -0.62109488
1.3440975 -2.2603006 -0.61925316
1.3282346 -2.2651472 -0.61833227
1.3099279 -2.2656717 -0.61626029
1.2921468 -2.2669027 -0.61441851
1.2715403 -2.2629106 -0.61119545
1.2576314 -2.2706699 -0.61119545
1.2408781 -2.2732186 -0.60981417
1.2204536 -2.268791 -0.60659105
1.2138001 -2.2899947 -0.61027455
1.2046802 -2.3068886 -0.61280698
1.1811563 -2.2960634 -0.60797238
1.1815574 -2.3319154 -0.61556965
1.1602762 -2.3251886 -0.61188614
1.150278 -2.3409986 -0.61418831
1.1392817 -2.3550212 -0.6160301
1.1185354 -2.3487875 -0.61257678
1.1041025 -2.3556066 -0.61257678
1.083923 -2.3499651 -0.60935372
1.0662669 -2.3494821 -0.60751194
1.0490543 -2.3497598 -0.60590041
1.0393107 -2.3668451 -0.60866302
1.0147405 -2.3499482 -0.60267735
1.0086668 -2.3758378 -0.60774219
0.9910723 -2.3747971 -0.60590041
0.97315955 -2.37273 -0.60382843
0.9604007 -2.3831699 -0.60497952
0.942895 -2.381779 -0.60313779
0.92297471 -2.3739142 -0.59968448
0.9070034 -2.375896 -0.59876359
0.8978703 -2.3959973 -0.60244709
0.87509286 -2.3795404 -0.59692186
0.85981548 -2.3830342 -0.59646142
0.84874737 -2.3983569 -0.59899384
0.83114505 -2.3952451 -0.59692186
0.81862533 -2.406749 -0.59853339
0.80630338 -2.4191127 -0.60037512
0.79174668 -2.4249396 -0.60060537
0.77537137 -2.4251173 -0.59945428
0.76163876 -2.4335442 -0.60037512
0.74640763 -2.4372411 -0.60014492
0.73004323 -2.437114 -0.59899384
0.71644276 -2.4462171 -0.60014492
0.70329338 -2.4571164 -0.60175645
0.68532217 -2.451076 -0.59922403
0.66565835 -2.4383361 -0.59508008
0.65068448 -2.4423747 -0.59508008
0.6356861 -2.4463212 -0.59508008
0.62161928 -2.4539492 -0.59600097
0.61097872 -2.4756687 -0.60037512
0.59645867 -2.4822097 -0.60106581
0.58320999 -2.4943511 -0.60313779
0.56789392 -2.4978828 -0.60313779
0.55381542 -2.5070219 -0.60451907
0.53883016 -2.5122757 -0.60497952
0.52340496 -2.5155349 -0.60497952
0.50834465 -2.5206068 -0.60543996
0.49212322 -2.5198581 -0.60451907
0.47520787 -2.5151803 -0.60267735
0.45959136 -2.5170915 -0.60244709
0.44413814 -2.5198641 -0.60244709
0.42687592 -2.5119884 -0.59991467
0.41679409 -2.5472133 -0.60774219
0.40251714 -2.5583749 -0.60981417
0.38434252 -2.5444384 -0.60590041
0.36649346 -2.5313389 -0.6022169
0.35148829 -2.537396 -0.60313779
0.33718759 -2.5491521 -0.60543996
0.32129675 -2.5492423 -0.60497952
0.30541751 -2.5492332 -0.60451907
0.29042834 -2.5568607 -0.60590041
0.27546084 -2.5653679 -0.60751194
0.2606934 -2.5766919 -0.60981417
0.24561355 -2.5859931 -0.61165589
0.22974154 -2.5874517 -0.61165589
0.21298072 -2.5781441 -0.60912347
0.19649093 -2.5706697 -0.60705149
0.18159935 -2.5844469 -0.61004436
0.16443285 -2.5651181 -0.60520977
0.14930859 -2.5767655 -0.60774219
0.1338969 -2.5854077 -0.60958391
0.11785354 -2.5822923 -0.60866302
0.10204498 -2.5839391 -0.60889328
0.086446971 -2.5922976 -0.610735
0.070750229 -2.6005614 -0.61257678
0.054608591 -2.59219 -0.61050481
0.038615633 -2.5866382 -0.60912347
0.022752045 -2.5877995 -0.60935372
0.0068930481 -2.5956755 -0.61119545
-0.0091001028 -2.6141584 -0.61556965
-0.025187396 -2.6189189 -0.61672074
-0.041194592 -2.6148229 -0.61579984
-0.057366461 -2.6203585 -0.61718118
-0.073252022 -2.613148 -0.61556965
-0.088851251 -2.6000059 -0.61257678
-0.10570688 -2.6217756 -0.61787182
-0.12333094 -2.6541286 -0.62569928
-0.1398702 -2.6581807 -0.62685037
-0.15629224 -2.6592155 -0.62731081
-0.17191125 -2.6475244 -0.62477839
-0.18725449 -2.6338007 -0.62178558
-0.20333658 -2.6316321 -0.62155533
-0.21956117 -2.6313047 -0.62178558
-0.23544151 -2.6270003 -0.62109488
-0.252671 -2.6371305 -0.62385756
-0.26766112 -2.623913 -0.62109488
-0.285328 -2.6367338 -0.6245482
-0.3009477 -2.6300991 -0.62339711
-0.31708002 -2.6282029 -0.62339711
-0.33271006 -2.6223466 -0.62247622
-0.34956524 -2.6260433 -0.62385756
-0.36486521 -2.6180661 -0.62247622
-0.38344851 -2.6331115 -0.62662017
-0.39959773 -2.6307092 -0.62662017
-0.41618836 -2.6310914 -0.62731081
-0.43390492 -2.6380904 -0.62961304
-0.44991982 -2.634419 -0.62938279
-0.46505705 -2.6258595 -0.62800151
-0.4850252 -2.6440139 -0.6330663
-0.49924242 -2.6304712 -0.63053387
-0.51818448 -2.6416824 -0.63398719
-0.53496355 -2.6413145 -0.63467783
-0.5509612 -2.6370296 -0.63444763
-0.56754124 -2.6355019 -0.63490808
-0.58749592 -2.6490707 -0.63905203
-0.60287279 -2.6416211 -0.63813114
-0.62040478 -2.6435564 -0.63951248
-0.63592893 -2.6368618 -0.63882178
-0.64975595 -2.6234646 -0.63651961
-0.66799951 -2.6279166 -0.63859159
-0.67772555 -2.5992858 -0.63260585
-0.69843811 -2.6129405 -0.63698006
-0.7214008 -2.6339464 -0.64319599
-0.7407037 -2.6407139 -0.6459586
-0.75528097 -2.6305075 -0.64457732
-0.77360231 -2.6332929 -0.64641905
-0.79478729 -2.6452718 -0.650563
-0.81186086 -2.6431358 -0.65125364
-0.82864666 -2.6399615 -0.65171409
-0.85285437 -2.6598465 -0.65793002
-0.8740052 -2.6693602 -0.66161352
-0.89314473 -2.6722536 -0.6636855
-0.90858179 -2.66396 -0.66299486
-0.92587012 -2.661092 -0.6636855
-0.94478476 -2.6626978 -0.66552728
-0.96540964 -2.6687465 -0.66852015
-0.98277676 -2.6655116 -0.66921079
-1.0018522 -2.6667187 -0.67105258
-1.0161085 -2.6550682 -0.66967124
-1.0291992 -2.6406236 -0.66759926
-1.0392789 -2.6188824 -0.6636855
-1.0782969 -2.6692989 -0.67818934
-1.1035377 -2.6842327 -0.68371463
-1.1256214 -2.690877 -0.68716794
-1.1402055 -2.6794424 -0.6860168
-1.1631972 -2.6875777 -0.68993056
-1.1796659 -2.6803899 -0.68993056
-1.2000657 -2.6819835 -0.69223273
-1.2156936 -2.6727979 -0.69177228
-1.2304369 -2.6617551 -0.69085145
-1.2351589 -2.6294937 -0.68440527
-1.2504315 -2.6201091 -0.68394482
-1.2677585 -2.6150141 -0.68463552
-1.2910894 -2.6220269 -0.68854922
-1.3080243 -2.6157963 -0.68900967
-1.336388 -2.6320157 -0.69545585
-1.3542964 -2.6272259 -0.69637668
-1.3663299 -2.6111069 -0.6943047
-1.3832387 -2.604393 -0.69476515
-1.4001166 -2.5975697 -0.6952256
-1.4020169 -2.563318 -0.68831903
-1.4044948 -2.5308433 -0.68187284
-1.4109249 -2.5060668 -0.6774987
-1.4320676 -2.5075026 -0.68026131
-1.4576715 -2.5163505 -0.68509597
-1.4804795 -2.519944 -0.68854922
-1.5018916 -2.5208442 -0.6913119
-1.5515541 -2.5682178 -0.70696682
-1.5647411 -2.5545003 -0.70581573
-1.5701166 -2.5283182 -0.70121133
-1.5933784 -2.5309889 -0.70466459
-1.5957891 -2.5006573 -0.6989091
-1.6000022 -2.4736602 -0.69407451
-1.6231543 -2.4760034 -0.69752783
-1.6431633 -2.4732916 -0.6995998
-1.6517857 -2.4534767 -0.69683713
-1.6733907 -2.4529414 -0.6995998
-1.6983715 -2.4570358 -0.70374376
-1.7217903 -2.4585242 -0.70719701
-1.7588073 -2.4788642 -0.71617556
-1.7978424 -2.5012116 -0.7258448
-1.8183117 -2.4972129 -0.72791678
-1.8364885 -2.4899244 -0.72906786
-1.8616341 -2.4918613 -0.73298162
-1.8827616 -2.4881513 -0.73528379
-1.8743124 -2.4456584 -0.72607505
-1.9179271 -2.471009 -0.73712558
-1.9300458 -2.4553692 -0.73597449
-1.9650778 -2.4686041 -0.7435717
-1.9710259 -2.4451363 -0.74011844
-1.9767604 -2.421689 -0.73666513
-1.9736012 -2.3877633 -0.72998875
-1.9994583 -2.3890405 -0.73413271
-1.9926867 -2.3514867 -0.72630525
-1.9810941 -2.3089375 -0.71686625
-2.0392644 -2.3474247 -0.73275137
-2.0510585 -2.3319452 -0.73183054
-2.0504422 -2.3026021 -0.72653544
-2.074959 -2.3015409 -0.73021901
-2.0706711 -2.2686424 -0.72377282
-2.0700214 -2.2401714 -0.71870798
-2.1016793 -2.2466142 -0.72492391
-2.1020403 -2.2195461 -0.72031951
-2.1129255 -2.2037969 -0.71939868
-2.1270857 -2.191489 -0.71962887
-2.1432209 -2.1811724 -0.72054976
-2.1201873 -2.131418 -0.7083481
-2.1677542 -2.1526508 -0.71985912
-2.1503518 -2.1093278 -0.70972943
-2.1988997 -2.1306267 -0.72147065
-2.1760747 -2.0827808 -0.70972943
-2.1803272 -2.0613675 -0.70696682
-2.1723073 -2.0286906 -0.70029044
-2.1954443 -2.0252199 -0.70374376
-2.2179008 -2.0208857 -0.70696682
-2.2411096 -2.0170028 -0.71042007
-2.2592626 -2.0083854 -0.71226186
-2.2722745 -1.9951272 -0.71249205
-2.2940319 -1.9894347 -0.71548492
-2.2840214 -1.956332 -0.70857835
-2.3257027 -1.967418 -0.71778715
-2.3474398 -1.9612211 -0.72077996
-2.3324053 -1.9244866 -0.71249205
-2.3373799 -1.9046072 -0.71042007
-2.3452313 -1.8871795 -0.70926899
-2.3270509 -1.8491453 -0.70029044
-2.3383534 -1.834832 -0.70029044
-2.3811092 -1.8448836 -0.70972943
-2.335186 -1.7864882 -0.69269317
-2.3631883 -1.7850285 -0.69775802
-2.3803375 -1.7751482 -0.6995998
-2.4021566 -1.7685858 -0.70282286
-2.4365802 -1.7709752 -0.70972943
-2.4616339 -1.7662015 -0.71387339
-2.4922798 -1.7651234 -0.71962887
-2.4998727 -1.7475678 -0.71870798
-2.5201609 -1.7388269 -0.72147065
-2.5420444 -1.730998 -0.72469372
-2.5477712 -1.7121114 -0.72331238
-2.5736389 -1.7066635 -0.72768658
-2.5848768 -1.6913726 -0.72791678
-2.614011 -1.6876185 -0.73321182
-2.6169293 -1.6668429 -0.73113984
-2.6048591 -1.6367772 -0.72492391
-2.6545579 -1.6453685 -0.73597449
-2.6289003 -1.6072258 -0.72607505
-2.6353791 -1.5890553 -0.72515416
-2.6417336 -1.5708659 -0.72423327
-2.6479647 -1.5526582 -0.72331238
-2.6431189 -1.5281025 -0.71939868
-2.6685097 -1.5210104 -0.72377282
-2.7083356 -1.5217664 -0.73206073
-2.69719 -1.493806 -0.72653544
-2.6952002 -1.4711679 -0.72354263
-2.7298882 -1.4684305 -0.7304492
-2.7147706 -1.4388942 -0.72400308
-2.7123339 -1.4163549 -0.72101021
-2.7149155 -1.3965701 -0.71939868
-2.7303786 -1.3834034 -0.7212404
-2.7388155 -1.3666241 -0.7212404
-2.771606 -1.3618071 -0.72768658
-2.7825379 -1.3460463 -0.72837722
-2.7916234 -1.329366 -0.72860742
-2.8305693 -1.326664 -0.73666513
-2.8192146 -1.3003058 -0.73160028
-2.8617015 -1.2986639 -0.74057883
-2.8802798 -1.2858398 -0.74334151
-2.8738585 -1.2618839 -0.739658
-2.9003096 -1.2523259 -0.74449259
-2.9016685 -1.231845 -0.74288106
-2.8957005 -1.208397 -0.73942775
-2.9138653 -1.1950368 -0.74219042
-2.8967719 -1.1673166 -0.73597449
-2.8930216 -1.1452231 -0.73321182
-2.8745973 -1.1175791 -0.72676569
-2.8932197 -1.1044304 -0.72975856
-2.8862724 -1.0815365 -0.72630525
-2.9120352 -1.0708578 -0.73113984
-2.9423516 -1.0615544 -0.73712558
-2.9194524 -1.0330946 -0.72975856
-2.9487214 -1.0231348 -0.73551404
-2.9355958 -0.99844378 -0.73067939
-2.9499757 -0.98318112 -0.73275137
-2.9689045 -0.969289 -0.73597449
-2.958111 -0.94572133 -0.73183054
-3.0028656 -0.93975663 -0.74149972
-3.0076447 -0.92102885 -0.74126953
-3.030952 -0.90786082 -0.74564368
-3.0009758 -0.87885606 -0.73689532
-3.0203459 -0.86444122 -0.74034864
-3.0162208 -0.84327298 -0.73804647
-3.0241547 -0.82551849 -0.73873711
-3.0216403 -0.80494368 -0.73689532
-3.0284061 -0.78687739 -0.73735577
-3.0331774 -0.76828063 -0.73735577
-3.0378344 -0.74965495 -0.73735577
-3.0499468 -0.7328192 -0.73919755
-3.0941854 -0.72339249 -0.74886674
-3.0776889 -0.69964927 -0.74380195
-3.1037798 -0.68557745 -0.74909699
-3.089849 -0.66264451 -0.74472278
-3.0681324 -0.63832343 -0.73850691
-3.0948863 -0.62410057 -0.74403214
-3.0824203 -0.60192966 -0.74011844
-3.070756 -0.58011591 -0.73643494
-3.1058495 -0.56702811 -0.74403214
-3.1006448 -0.5464409 -0.74196017
-3.1288838 -0.53164172 -0.7479459
-3.1407304 -0.51384664 -0.75001788
-3.1428628 -0.49441463 -0.74978763
-3.1573842 -0.47686404 -0.7525503
-3.1573613 -0.45706367 -0.75185961
-3.168782 -0.43888274 -0.75393158
-3.1608031 -0.41802859 -0.75139916
-3.1671705 -0.39911273 -0.75232005
-3.1859858 -0.38163805 -0.75623381
-3.19697 -0.36306959 -0.75830579
-3.168175 -0.34012511 -0.75093871
-3.192471 -0.3229298 -0.75623381
-3.181798 -0.30214024 -0.75324094
-3.20104 -0.2841588 -0.7573849
-3.1813867 -0.26275185 -0.75232005
-3.1751766 -0.24263376 -0.75047833
-3.2086406 -0.22539434 -0.75807554
-3.2245302 -0.20663452 -0.76152885
-3.228652 -0.18701386 -0.76221949
-3.2151611 -0.16644625 -0.75876623
-3.2132056 -0.14658245 -0.75807554
-3.2169616 -0.12697874 -0.75876623
-3.2118447 -0.10704345 -0.7573849
-3.1997948 -0.086991176 -0.75439203
-3.2099974 -0.067559928 -0.75669426
-3.2239742 -0.04806444 -0.75991732
-3.2446434 -0.028459154 -0.76475191
-3.2184823 -0.0084827933 -0.75853598
-3.2486408 0.011373703 -0.7656728
-3.2309942 0.031136528 -0.76152885
-3.2716091 0.051608954 -0.77119803
-3.2634475 0.071511008 -0.76935631
-3.2551653 0.09131486 -0.76751453
-3.253571 0.11125313 -0.76728433
-3.2353251 0.13050711 -0.76314038
-3.2587655 0.15148795 -0.76889586
-3.2431979 0.17071202 -0.76544255
-3.2420893 0.19060871 -0.76544255
-3.2554252 0.21144551 -0.76889586
-3.2424181 0.23058711 -0.76613325
-3.2816923 0.25363064 -0.77580243
-3.2713466 0.27303278 -0.77373046
-3.2909331 0.29501349 -0.7787953
-3.2551568 0.31194884 -0.77073765
-3.2628622 0.33290473 -0.77303982
-3.2414088 0.35082319 -0.76843542
-3.2527304 0.37225568 -0.77165848
-3.2214015 0.38870734 -0.76475191
-3.2488828 0.41226625 -0.77188873
-3.2366459 0.43090817 -0.7695865
-3.278276 0.45694309 -0.78017664
-3.263855 0.47536567 -0.77741396
-3.2801187 0.49830809 -0.78201836
-3.2943003 0.52116364 -0.78616232
-3.2987225 0.54263151 -0.7880041
-3.312597 0.56581247 -0.79214805
-3.2956479 0.58375031 -0.78892499
-3.2948754 0.60448802 -0.78961563
-3.3111815 0.62850618 -0.79445022
-3.2700207 0.64150232 -0.78547168
-3.2965434 0.66773927 -0.79283869
-3.321913 0.69412655 -0.79997551
-3.29476 0.70957738 -0.79445022
-3.2751434 0.72640759 -0.79076672
-3.3095224 0.75537109 -0.80020571
-3.2811406 0.77010292 -0.79445022
-3.2933815 0.79432952 -0.79859418
-3.2714434 0.81030953 -0.79445022
-3.235287 0.82245296 -0.78685302
-3.2970352 0.85972762 -0.80319858
-3.2794766 0.87667364 -0.80020571
-3.2928066 0.9019227 -0.80481011
-3.2647238 0.91580021 -0.79928488
-3.2618492 0.93662089 -0.79997551
-3.2392349 0.95167857 -0.79583156
-3.2314706 0.97097605 -0.79537112
-3.2421958 0.99593049 -0.79951507
-3.24438 1.0184293 -0.80158705
-3.2491896 1.0418838 -0.80434966
-3.2270138 1.0566516 -0.80043596
-3.2324677 1.0804436 -0.80342883
-3.2506447 1.1087413 -0.80964476
-3.2391851 1.1270667 -0.80849361
-3.2514675 1.1537563 -0.81332827
-3.2370062 1.1710362 -0.81148648
-3.2388902 1.1942433 -0.81378871
-3.2524531 1.2219679 -0.81908375
-3.2230823 1.2335516 -0.81355846
-3.2063861 1.2497702 -0.81125629
-3.2438815 1.2873724 -0.82276726
-3.2169735 1.2995961 -0.81793267
-3.2188389 1.3233818 -0.82046503
-3.2196357 1.3468636 -0.82276726
-3.2086244 1.3654501 -0.82207662
-3.2091162 1.3889784 -0.82437879
-3.2103305 1.4129558 -0.82691121
-3.2184768 1.4401808 -0.83128536
-3.2069221 1.4586929 -0.83059472
-3.1926117 1.4758923 -0.82921338
-3.2019918 1.5041442 -0.83404803
-3.1672342 1.5116056 -0.82737166
-3.1675313 1.5356816 -0.82990408
-3.1240017 1.5383196 -0.82092547
-3.1380036 1.5692127 -0.8271414
-3.1586838 1.6038601 -0.83519912
-3.1384039 1.6178597 -0.83243644
-3.1370399 1.6415988 -0.83473867
-3.0933914 1.6430112 -0.82576013
-3.1303639 1.6873604 -0.83842218
-3.112268 1.7023326 -0.8363502
-3.1315439 1.7379271 -0.84440792
-3.0894475 1.7394418 -0.83588976
-3.1632156 1.8066345 -0.85891175
-3.1023917 1.7972256 -0.84532875
-3.1013739 1.8221439 -0.84809142
-3.0901351 1.8411393 -0.84809142
-3.070451 1.8550326 -0.84578919
-3.109628 1.9048488 -0.85983258
-3.082175 1.9141376 -0.85545844
-3.0926063 1.9470135 -0.86167437
-3.0707579 1.9596699 -0.85891175
-2.9786038 1.9266727 -0.8363502
-3.0391543 1.9924029 -0.85683978
-3.0122826 2.0013189 -0.85269582
-3.0007534 2.0203078 -0.85292602
-2.985889 2.0370367 -0.85223538
-2.9653292 2.0497851 -0.84993315
-2.9654489 2.0768745 -0.85361665
-2.9716961 2.1085474 -0.85914195
-2.9357884 2.1102686 -0.85246557
-2.9361577 2.1379817 -0.85637933
-2.9292488 2.1605787 -0.85822105
-2.9003456 2.1668615 -0.85361665
-2.9009628 2.1951878 -0.85776061
-2.8619514 2.1934099 -0.8501634
-2.8276842 2.1948171 -0.84394747
-2.8394094 2.2319741 -0.85154468
-2.8287063 2.2517791 -0.85246557
-2.7936239 2.251991 -0.84601945
-2.777492 2.2672436 -0.84532875
-2.7680283 2.2879636 -0.84671009
-2.7509527 2.3024061 -0.84578919
-2.7783458 2.3544776 -0.8586815
-2.7778783 2.383522 -0.86305565
-2.7654045 2.4024367 -0.86374635
-2.7732618 2.4392853 -0.87088317
-2.734988 2.4355443 -0.86351609
-2.7228832 2.4548869 -0.86443698
-2.7099252 2.4735162 -0.86512762
-2.6839769 2.48019 -0.86167437
-2.6843414 2.5112391 -0.86673921
-2.6921968 2.5497468 -0.87433642
-2.6448939 2.5359085 -0.86397654
-2.64674 2.5690355 -0.86973202
-2.579566 2.5347512 -0.85269582
-2.5915594 2.5779855 -0.86190456
-2.5750067 2.593148 -0.86167437
-2.5249772 2.5741606 -0.8501634
-2.5375738 2.6189604 -0.85983258
-2.5382769 2.6520584 -0.86558807
-2.5192823 2.6647544 -0.86466724
-2.5048766 2.682296 -0.86535788
-2.4672592 2.6747241 -0.85799086
