# .PCD v0.7 - Point Cloud Data file format
VERSION 0.7
FIELDS x y z
SIZE 4 4 4
TYPE F F F
COUNT 1 1 1
WIDTH 1449
HEIGHT 1
VIEWPOINT 0 0 0 1 0 0 0
POINTS 1449
DATA ascii
-0.075324297 3.5895696 -0.78279382
-0.05342976 3.5987551 -0.78471726
-0.031737782 3.6429741 -0.79433429
-0.0094219102 3.6567764 -0.79732627
0.012949651 3.6372278 -0.79305202
0.035155382 3.6253579 -0.79048747
0.057108868 3.6065147 -0.78642696
0.079322107 3.6100032 -0.78728181
0.10149845 3.610425 -0.78749549
0.12348334 3.6048527 -0.78642696
0.14630671 3.6215971 -0.79027379
0.16829939 3.615752 -0.78920519
0.19330019 3.6683066 -0.80095941
0.21540429 3.6602249 -0.79946339
0.23678446 3.642262 -0.79583031
0.25746799 3.6173537 -0.79070121
0.28446934 3.6780419 -0.80437881
0.3071132 3.6772008 -0.80459249
0.32775381 3.653841 -0.79989082
0.35035336 3.6537061 -0.80031824
0.37236932 3.6476002 -0.79946339
0.39978385 3.6918659 -0.80972159
0.4165481 3.637903 -0.79839486
0.44365561 3.6750436 -0.80715704
0.46337101 3.6499617 -0.80224168
0.48987994 3.6780376 -0.80908048
0.50866574 3.647871 -0.80309653
0.53413415 3.6659489 -0.80779821
0.55412549 3.6461835 -0.80416507
0.5787757 3.6571887 -0.80737078
0.60057104 3.6497126 -0.80651593
0.62854242 3.6786997 -0.81378216
0.65450805 3.6940126 -0.8180564
0.67628092 3.6851227 -0.81698781
0.69705909 3.6713061 -0.81485069
0.71844494 3.6612079 -0.81356841
0.74535418 3.6787527 -0.81848383
0.76931047 3.6808038 -0.81997979
0.79290879 3.6807892 -0.82104838
0.81125039 3.6567798 -0.81677413
0.83627987 3.6631625 -0.81933868
0.86320299 3.6769836 -0.82361293
0.88116956 3.6526241 -0.81933868
0.89816552 3.6253386 -0.81442326
0.91943103 3.6159718 -0.81356841
0.94529659 3.6244421 -0.81677413
0.96297872 3.6015854 -0.81292731
0.98583341 3.5984356 -0.81356841
1.0071033 3.5894969 -0.81292731
1.0353076 3.6048467 -0.81784266
1.065665 3.6265457 -0.82425404
1.093798 3.6395864 -0.82874203
1.0974712 3.5721052 -0.81485069
1.1281427 3.5932667 -0.82126206
1.149573 3.5844162 -0.82083464
1.1703293 3.5735815 -0.81997979
1.2036887 3.6006155 -0.82788718
1.2267047 3.5959358 -0.82852829
1.2487459 3.5883412 -0.82852829
1.2658414 3.5668011 -0.82532263
1.2933507 3.5745845 -0.82895571
1.3155974 3.5674977 -0.82916945
1.3374624 3.5593584 -0.82916945
1.3554373 3.5410485 -0.82681859
1.3813952 3.5435877 -0.82938313
1.4063545 3.5432174 -0.83130658
1.4324584 3.5453913 -0.83387113
1.4471297 3.5193677 -0.82981056
1.468697 3.510422 -0.82981056
1.4871495 3.4941528 -0.82810086
1.4783028 3.4150295 -0.81143129
0.85795081 1.948392 -0.46308002
0.8639062 1.9297148 -0.45987433
0.87289989 1.9181528 -0.45837834
0.89366895 1.9322698 -0.46308002
0.90758455 1.9311712 -0.46414858
0.93930995 1.936591 -0.46820912
0.95333225 1.9351734 -0.46927768
1.6702213 3.3395875 -0.81420958
1.7326881 3.4120302 -0.83451223
1.7513537 3.3969927 -0.8334437
1.77307 3.3879139 -0.83387113
1.7910756 3.371794 -0.83258885
1.8015356 3.3418212 -0.82788718
1.8182572 3.3238473 -0.82617748
1.8414613 3.3177533 -0.82745975
1.8704091 3.3217154 -0.83130658
1.8868804 3.3033895 -0.82959688
1.1130105 1.9205737 -0.48295528
1.1049836 1.8800147 -0.47440678
1.1050001 1.8538955 -0.46949139
1.1183748 1.8504252 -0.47034624
1.1144023 1.8185354 -0.46393487
1.140483 1.8357319 -0.47013253
1.1849924 1.8561876 -0.47910845
2.0801277 3.2155354 -0.8351534
2.0767925 3.167578 -0.82596374
2.1156471 3.1840703 -0.83365738
2.1444178 3.1848063 -0.83729053
2.1567631 3.1610966 -0.83451223
2.1555693 3.118068 -0.8266049
2.1578515 3.080776 -0.82019353
2.1970618 3.0961618 -0.82788718
2.2211487 3.0897624 -0.82981056
2.2325912 3.0658081 -0.82703233
2.2803495 3.0913639 -0.83771795
2.3133051 3.0960979 -0.84284705
2.3163455 3.0608106 -0.83707678
2.3386476 3.0511928 -0.83835906
2.3609188 3.0414164 -0.83964133
2.3867793 3.0360899 -0.84220588
2.4163134 3.0351465 -0.84605271
2.4183402 2.9997263 -0.8402825
2.4243474 2.9696939 -0.83600825
2.4443905 2.9570215 -0.83664936
2.4668765 2.947212 -0.83814538
2.4830196 2.9297841 -0.83750421
2.5047657 2.9189422 -0.83878648
2.4982867 2.8754914 -0.83066541
2.5307207 2.876981 -0.83558083
2.5665143 2.8818283 -0.84156477
2.5841484 2.8660262 -0.84156477
2.5871987 2.8342409 -0.8368631
2.5766985 2.7881756 -0.82788718
2.596427 2.7751667 -0.82874203
2.604003 2.7492521 -0.82575005
2.6411033 2.7543793 -0.83216143
2.6715605 2.7521431 -0.83643568
2.676074 2.723155 -0.83258885
2.6796441 2.6935232 -0.82852829
2.7224588 2.7031906 -0.83664936
2.7341127 2.6816459 -0.8351534
2.7378886 2.6525815 -0.83130658
2.7505846 2.6323547 -0.83023798
2.7766218 2.6248248 -0.83322996
2.8040977 2.6184077 -0.83664936
2.8344705 2.6144018 -0.84092361
2.8446825 2.5916963 -0.83921391
2.8590794 2.5728858 -0.83878648
2.8843029 2.5637329 -0.84156477
2.9153938 2.5595241 -0.84605271
2.9443271 2.5531094 -0.84989953
2.9532604 2.5292752 -0.84797615
2.9530632 2.4978554 -0.84348816
2.9698334 2.4809415 -0.84391558
2.9774659 2.4564543 -0.84177846
2.9902108 2.4362869 -0.84113735
3.0104301 2.4221814 -0.84263331
3.0260005 2.4042718 -0.84284705
3.0406959 2.3856595 -0.84284705
3.0606821 2.3711462 -0.84434301
3.046468 2.3303559 -0.83643568
3.0646067 2.3145638 -0.83750421
3.080317 2.2968843 -0.83793163
3.0817664 2.2686722 -0.83451223
3.1035306 2.2554648 -0.83664936
3.1069937 2.2289746 -0.83387113
3.116626 2.2070451 -0.83280253
3.1381156 2.1934781 -0.83493966
3.1587517 2.1791756 -0.8368631
3.1761003 2.1625025 -0.83793163
3.2063353 2.154418 -0.84241962
3.2032125 2.123904 -0.83814538
3.2153668 2.1036747 -0.83793163
3.2356 2.0886755 -0.83985507
3.2491791 2.0693076 -0.84006876
3.2510624 2.0425744 -0.83729053
3.2602134 2.0205286 -0.83643568
3.2742167 2.0015056 -0.8368631
3.294801 1.986423 -0.83900023
3.3094466 1.9676672 -0.83964133
3.3265133 1.9502892 -0.84092361
3.3308065 1.92544 -0.83900023
3.3272822 1.896257 -0.8351534
3.3354483 1.8738911 -0.83429855
3.3605561 1.8609642 -0.83771795
3.3942044 1.8524808 -0.84327447
3.4012058 1.8293052 -0.84220588
3.4089136 1.8065709 -0.84135103
3.4294593 1.7905953 -0.8437019
3.4334323 1.7659433 -0.8419922
3.4424605 1.7439595 -0.84156477
3.4565928 1.7245492 -0.84241962
3.4337938 1.6869335 -0.83429855
3.4344068 1.6611519 -0.83194768
3.4524724 1.6438284 -0.83387113
3.4518797 1.6176373 -0.83130658
3.4333549 1.5833305 -0.82446778
3.4394472 1.5606189 -0.82361293
3.4516344 1.5406804 -0.82425404
3.501272 1.5371509 -0.83387113
3.5025663 1.5121524 -0.83194768
3.4901986 1.4814683 -0.82681859
3.5028291 1.4615302 -0.82767344
3.524384 1.4452007 -0.83066541
3.4924128 1.407113 -0.82104838
3.5064306 1.3878154 -0.82233065
3.5075963 1.3634416 -0.82062095
3.496731 1.3345753 -0.81613296
3.5542502 1.3316104 -0.82767344
3.5586867 1.3084278 -0.82681859
3.5482705 1.2799349 -0.82254434
3.5578988 1.258791 -0.82297176
3.5480208 1.2308501 -0.81891125
3.5564313 1.2093713 -0.81912494
3.5702722 1.1896896 -0.82062095
3.5654325 1.1638176 -0.81784266
3.5808809 1.1445969 -0.8197661
3.613008 1.1304841 -0.82553631
3.6067998 1.1042877 -0.82254434
3.5966635 1.0770887 -0.81869751
3.607892 1.056373 -0.8197661
3.6077318 1.0323331 -0.81827009
3.5961232 1.0051775 -0.81420958
3.6078775 0.98463726 -0.81549186
3.6072435 0.96072024 -0.81399584
3.6225252 0.94102627 -0.81613296
3.6225493 0.91734141 -0.81485069
3.603451 0.88900852 -0.80929416
3.5926907 0.8629998 -0.80566108
3.6188452 0.8458342 -0.81036276
3.6344452 0.82599664 -0.81271356
3.6346757 0.80262655 -0.81164503
3.6242495 0.77703029 -0.80822563
3.6385131 0.75676852 -0.81036276
3.636385 0.73307627 -0.80886674
3.6321857 0.70906401 -0.80694336
3.61535 0.68277204 -0.80224168
3.6271594 0.66198027 -0.80395138
3.6465459 0.64242649 -0.80737078
3.6244161 0.61561835 -0.80160052
3.6290894 0.59352559 -0.80181426
3.653893 0.57458901 -0.80651593
3.6892254 0.5569762 -0.81356841
3.6713037 0.53124762 -0.80886674
3.6590121 0.5065648 -0.80544734
3.6175027 0.47820714 -0.79561657
2.2072496 0.27776498 -0.48402384
2.2118223 0.26456523 -0.48466498
2.2104921 0.25065774 -0.48402384
2.1964476 0.23541951 -0.48060444
2.1832719 0.22046155 -0.47739875
2.1923635 0.20780076 -0.47910845
2.2004087 0.19495021 -0.48060444
2.1928015 0.18072042 -0.47868103
3.5848103 0.27370936 -0.78386241
3.6400192 0.25547928 -0.79561657
3.5888741 0.2297602 -0.78407609
2.1517143 0.12424829 -0.46885026
2.103657 0.10851248 -0.45816463
2.0964763 0.095245607 -0.45645493
2.0853076 0.081916392 -0.45389038
2.0867474 0.069152296 -0.4541041
2.0910385 0.056453586 -0.45495895
2.0913455 0.043622151 -0.45495895
2.0984113 0.030891787 -0.45645493
2.0956309 0.017989559 -0.4558138
3.2467031 0.0085548284 -0.76521236
3.249614 -0.01137719 -0.765903
3.2621331 -0.031439185 -0.76889586
3.3076105 -0.052179813 -0.77971619
3.2556643 -0.071339823 -0.76751453
3.2648928 -0.091588534 -0.76981676
3.2487082 -0.11108644 -0.76613325
3.2314358 -0.13034989 -0.76221949
3.2539051 -0.15126161 -0.76774478
3.2121007 -0.16907258 -0.75807554
3.2469466 -0.19089468 -0.76659369
3.2729046 -0.21258228 -0.77303982
3.2725093 -0.23272955 -0.77327001
3.2933352 -0.25453141 -0.77856511
3.2878325 -0.2744101 -0.77764422
3.2376246 -0.29023033 -0.76613325
3.216409 -0.30823234 -0.76152885
3.242532 -0.33082882 -0.76820523
3.225929 -0.34914652 -0.76475191
3.2333941 -0.37004113 -0.76705414
3.2387917 -0.39080715 -0.76889586
3.2701213 -0.41496307 -0.77695358
3.2395399 -0.4312937 -0.7702772
3.2483981 -0.45277607 -0.77303982
3.1993363 -0.46596345 -0.7619893
3.1916065 -0.48485425 -0.76083821
3.1731927 -0.50199425 -0.75715464
3.1710131 -0.52161318 -0.7573849
3.1946113 -0.54565006 -0.76383102
3.1816211 -0.56354356 -0.76152885
3.1580031 -0.57936567 -0.75669426
3.1629932 -0.60036594 -0.75876623
3.1659343 -0.62107426 -0.76037776
3.1220064 -0.63237107 -0.75070852
3.0790129 -0.64335161 -0.74126953
3.0959361 -0.66674107 -0.74633437
3.1183877 -0.69162697 -0.7527805
3.0903673 -0.70533264 -0.74702501
3.125771 -0.73362374 -0.75669426
3.1098588 -0.75005037 -0.75393158
3.0881958 -0.76490521 -0.74978763
3.0843873 -0.78407943 -0.75001788
3.1153004 -0.81232357 -0.75876623
3.0604317 -0.81809974 -0.74656457
3.0440917 -0.83377695 -0.74380195
3.007062 -0.84350061 -0.73597449
2.9990239 -0.86112976 -0.73528379
2.9908826 -0.87869203 -0.73459315
2.9686596 -0.89198524 -0.7304492
2.9854558 -0.91704351 -0.73597449
2.9714167 -0.93272102 -0.73390251
2.9665644 -0.95123291 -0.73413271
2.9773183 -0.97486967 -0.73827666
2.9334407 -0.98046863 -0.72883767
2.9439476 -1.0041053 -0.73298162
2.9119973 -1.013194 -0.72653544
2.9213161 -1.036576 -0.7304492
2.928627 -1.0594482 -0.73390251
2.9494617 -1.0874999 -0.74080908
2.9600415 -1.1120812 -0.74518323
2.9504354 -1.129179 -0.74449259
2.9235048 -1.1394848 -0.73942775
2.9381657 -1.1660184 -0.74495304
2.9083991 -1.1749102 -0.73919755
2.9020352 -1.1931038 -0.73942775
2.8470807 -1.1909798 -0.72722614
2.8433008 -1.2099513 -0.72814703
2.8402884 -1.2293078 -0.72929811
2.8220043 -1.2420073 -0.72653544
2.8178833 -1.2608896 -0.72745633
2.8021214 -1.2745292 -0.72538435
2.8004315 -1.2945576 -0.72699589
2.8021238 -1.3162683 -0.72952831
2.8018987 -1.3372101 -0.73160028
2.7831333 -1.3492818 -0.72883767
2.749485 -1.3538644 -0.72216129
2.7419965 -1.3711448 -0.72239149
2.7456789 -1.3941126 -0.72561461
2.7292886 -1.4069198 -0.72354263
2.7206044 -1.42364 -0.72354263
2.718693 -1.4439588 -0.72538435
2.6977897 -1.4541479 -0.72216129
2.687963 -1.4702069 -0.7219311
2.6295419 -1.4592797 -0.70857835
2.6612394 -1.4983065 -0.71962887
1.3447946 -0.76788706 -0.3634792
1.3105872 -0.75904888 -0.35542151
1.295837 -0.7611599 -0.35265887
1.2886344 -0.76760221 -0.3519682
1.285566 -0.77650124 -0.35242864
1.2733091 -0.77979922 -0.35035667
1.2676737 -0.78708398 -0.35012645
1.2685848 -0.79847711 -0.35173798
1.2587399 -0.80310458 -0.35035667
1.260325 -0.81504166 -0.35219842
1.2789005 -0.83823389 -0.3588748
1.2713015 -0.84444952 -0.35818413
1.2725537 -0.85658252 -0.36002588
1.2753123 -0.86985958 -0.36232808
2.3873956 -1.650225 -0.68371463
2.4178746 -1.6933166 -0.69545585
2.4026775 -1.7047412 -0.69407451
2.3313315 -1.6757122 -0.67634761
1.2574691 -0.91544479 -0.36509073
1.2392986 -0.91390002 -0.36140722
1.2204154 -0.9115845 -0.35749349
1.2179028 -0.92140478 -0.35841435
1.1983241 -0.91820401 -0.3542704
1.178831 -0.91479808 -0.35012645
1.1739607 -0.92261553 -0.35035667
1.1629484 -0.92555851 -0.34874514
1.1617928 -0.93634158 -0.35012645
1.1567795 -0.94406801 -0.35035667
1.1547151 -0.95424831 -0.35150778
1.1577928 -0.96881109 -0.3542704
1.1807786 -1.0004358 -0.36324897
1.2056345 -1.0342795 -0.37291819
2.2394404 -1.9454397 -0.6989091
2.1989658 -1.9340763 -0.68993056
2.1805167 -1.9417074 -0.68785858
2.1822932 -1.9674321 -0.69223273
2.1780858 -1.9880025 -0.69476515
2.1658466 -2.0013297 -0.69476515
2.1407354 -2.0026138 -0.6906212
2.1121576 -2.0003192 -0.68532616
2.1328561 -2.044898 -0.69614649
2.100718 -2.0389669 -0.68970031
2.0867796 -2.0504541 -0.68923992
2.1010637 -2.0899875 -0.69821846
2.0731161 -2.0876477 -0.69315362
2.0704885 -2.11075 -0.69660693
2.051404 -2.1171243 -0.69453496
2.0235732 -2.1142039 -0.68947011
2.0118995 -2.127995 -0.68993056
1.9954836 -2.1367433 -0.68877947
1.9816756 -2.1482317 -0.68854922
1.9468302 -2.136611 -0.68095201
1.9499568 -2.1666009 -0.6867075
1.924343 -2.164705 -0.68233329
1.9315686 -2.1998739 -0.68970031
1.8791461 -2.1668346 -0.67565691
1.9126561 -2.2330205 -0.69269317
1.8618407 -2.2008765 -0.67911023
1.8695129 -2.2376523 -0.68693769
1.8334539 -2.2220571 -0.67864978
1.8179411 -2.2310019 -0.67795914
1.8090979 -2.2481802 -0.67980087
1.7970853 -2.2615242 -0.68049157
1.7771684 -2.2648518 -0.67818934
1.7620462 -2.2741752 -0.67772889
1.7285485 -2.2594366 -0.67013168
1.7527728 -2.320477 -0.68509597
1.7024368 -2.2828188 -0.67082232
1.6722445 -2.2712781 -0.6643762
1.6691462 -2.2964532 -0.66875035
1.6510533 -2.3011167 -0.66713881
1.6346534 -2.3080275 -0.66621792
1.6226907 -2.3212044 -0.66713881
1.6067598 -2.3287144 -0.66644818
1.592441 -2.3385293 -0.66644818
1.6019412 -2.3837974 -0.67657781
1.560397 -2.3530285 -0.66506684
1.5480609 -2.3658161 -0.66598773
1.5303489 -2.3703647 -0.66460639
1.509503 -2.3698602 -0.66184378
1.4975219 -2.3831978 -0.66299486
1.4762067 -2.3815882 -0.66000199
1.4504001 -2.3723345 -0.65493715
1.4534013 -2.4103587 -0.66299486
1.4351032 -2.4133756 -0.66138333
1.4089483 -2.4028273 -0.65608829
1.3951523 -2.4131119 -0.65654874
1.3730922 -2.4089448 -0.65309542
1.3673412 -2.4334447 -0.65746957
1.3420131 -2.4230595 -0.65240479
1.3355114 -2.446624 -0.65654874
1.3283098 -2.4693425 -0.66046244
1.3081208 -2.467988 -0.65793002
1.2866479 -2.4638908 -0.65470695
1.2799618 -2.4881816 -0.6590811
1.2576345 -2.4820988 -0.65539759
1.2436842 -2.4923811 -0.65608829
1.2197865 -2.4824965 -0.65148389
1.2074971 -2.4960666 -0.65309542
1.1929954 -2.5051858 -0.65355587
1.1771885 -2.5115776 -0.65332562
1.1405655 -2.4728007 -0.6413542
1.1386397 -2.5089967 -0.64895147
1.1188604 -2.506161 -0.64641905
1.1018971 -2.5094149 -0.64549816
1.0926499 -2.5304239 -0.64918166
1.0740614 -2.5299141 -0.64733994
1.0588926 -2.5373549 -0.64757013
1.0503182 -2.5609119 -0.65194434
1.0324031 -2.5618925 -0.650563
1.0134413 -2.5600352 -0.64849102
1.0005344 -2.5734618 -0.65033281
0.97639781 -2.5577321 -0.64480752
0.96409941 -2.572788 -0.64710969
0.94963801 -2.5823085 -0.64803058
0.93740737 -2.5981562 -0.650563
0.92144769 -2.6038594 -0.650563
0.90545338 -2.6094642 -0.650563
0.89255768 -2.6241841 -0.65286517
0.86413467 -2.5926819 -0.64365643
0.84247303 -2.580358 -0.63928223
0.82573569 -2.5826981 -0.63859159
0.81655604 -2.6090772 -0.64388663
0.80366516 -2.624274 -0.64641905
0.78698951 -2.6272912 -0.6459586
0.77085394 -2.6320705 -0.6459586
0.75656319 -2.6433003 -0.64757013
0.74242544 -2.6553903 -0.64941192
0.72483736 -2.6552017 -0.64826083
0.70978379 -2.6643012 -0.64941192
0.69219935 -2.6638968 -0.64826083
0.67584097 -2.6680937 -0.64826083
0.65829182 -2.6674664 -0.64710969
0.63986677 -2.6629393 -0.64503771
0.62860876 -2.6886103 -0.65033281
0.60239613 -2.6497142 -0.63997293
0.58738536 -2.6590621 -0.6413542
0.57676995 -2.6892586 -0.64780039
0.55728608 -2.6784558 -0.64434707
0.53853351 -2.6703775 -0.64158446
0.52493465 -2.6879582 -0.64503771
0.50265372 -2.6605289 -0.6376707
0.48806646 -2.6731362 -0.63997293
0.47030467 -2.6684136 -0.63813114
0.45652971 -2.6865995 -0.64181465
0.44160688 -2.6989541 -0.64411688
0.42715412 -2.7150714 -0.64733994
0.40467691 -2.6791518 -0.63813114
0.39018103 -2.6950679 -0.6413542
0.37150228 -2.681988 -0.6376707
0.35542145 -2.6871114 -0.63836139
0.34038597 -2.7008278 -0.64112401
0.32114741 -2.6806419 -0.63582897
0.30590028 -2.6931982 -0.63836139
0.2887466 -2.689219 -0.63698006
0.27537182 -2.7219226 -0.64434707
0.25636742 -2.6993413 -0.63859159
0.23885408 -2.690201 -0.63605917
0.22210276 -2.6887064 -0.63536853
0.2049344 -2.6812859 -0.63329655
0.1884785 -2.6824927 -0.63329655
0.17288561 -2.6971948 -0.63651961
0.15678221 -2.705977 -0.63836139
0.13987432 -2.701057 -0.63698006
0.12276711 -2.6901989 -0.63421744
0.10553034 -2.6724262 -0.62984324
0.089033656 -2.6701057 -0.6291526
0.072622158 -2.6696289 -0.62892234
0.056423817 -2.6787803 -0.63099432
0.040087048 -2.6858876 -0.63260585
0.023589088 -2.6841366 -0.63214546
0.0070992182 -2.6764457 -0.63030368
-0.0092465617 -2.65503 -0.62523884
-0.025802171 -2.6821699 -0.63168502
-0.042212885 -2.6790421 -0.63099432
-0.058393601 -2.6670578 -0.6282317
-0.075222515 -2.6831861 -0.63214546
-0.091151446 -2.6671128 -0.6284619
-0.10778994 -2.67331 -0.63007349
-0.12319513 -2.6512122 -0.62500864
-0.13905048 -2.6426322 -0.62316686
-0.15423326 -2.624243 -0.61902291
-0.17235333 -2.6543221 -0.62638992
-0.1891896 -2.66098 -0.6282317
-0.20626415 -2.6694715 -0.63053387
-0.22142458 -2.6536093 -0.62708062
-0.23805051 -2.6560776 -0.62800151
-0.2534143 -2.6448801 -0.62569928
-0.26726571 -2.6200407 -0.62017399
-0.28595674 -2.6425385 -0.62592953
-0.2976259 -2.6010945 -0.61649048
-0.31474686 -2.6088805 -0.61879271
-0.33038101 -2.6040041 -0.61810201
-0.34686664 -2.6057866 -0.61902291
-0.36446196 -2.6151748 -0.62178558
-0.38134351 -2.6186671 -0.62316686
-0.39638051 -2.6095433 -0.62155533
-0.41390631 -2.6166737 -0.62385756
-0.42868984 -2.6064029 -0.62201577
-0.44549394 -2.6085198 -0.62316686
-0.46030253 -2.5990298 -0.62155533
-0.47325462 -2.5798848 -0.61764163
-0.48653388 -2.5635476 -0.61441851
-0.50094247 -2.5538297 -0.61280698
-0.51660305 -2.5507078 -0.61280698
-0.53224415 -2.5474899 -0.61280698
-0.54622561 -2.5365658 -0.61096525
-0.56494123 -2.5474169 -0.61441851
-0.58012801 -2.5420053 -0.61395812
-0.59727162 -2.5450292 -0.61556965
-0.6108222 -2.5328026 -0.61349767
-0.62822402 -2.5365636 -0.6153394
-0.63993889 -2.5175712 -0.61165589
-0.65439194 -2.5098307 -0.610735
-0.66952825 -2.5048282 -0.61050481
-0.68874228 -2.514751 -0.61395812
-0.70284504 -2.5057929 -0.61280698
-0.7184757 -2.5023685 -0.61303723
-0.73875529 -2.5147188 -0.61718118
-0.75221068 -2.5036147 -0.61556965
-0.76898754 -2.5036032 -0.61672074
-0.77762985 -2.4774835 -0.6114257
-0.79519445 -2.4800785 -0.61326742
-0.80464196 -2.4575813 -0.60889328
-0.82217479 -2.4599812 -0.610735
-0.83945292 -2.4613373 -0.61234653
-0.85517937 -2.4579782 -0.61280698
-0.87805712 -2.474695 -0.61833227
-0.88958275 -2.4591949 -0.61579984
-0.89825743 -2.4363427 -0.6114257
-0.92962134 -2.4745104 -0.62247622
-0.93678522 -2.4478567 -0.61718118
-0.95744306 -2.4565694 -0.62086469
-0.96352232 -2.4280362 -0.61510921
-0.96381921 -2.3859878 -0.60590041
-0.99842697 -2.4286296 -0.61833227
-1.0224379 -2.4027636 -0.61487895
-1.0390949 -2.4009099 -0.6160301
-1.0984251 -2.4150364 -0.62477839
-1.1070967 -2.3950019 -0.62132514
-1.1205298 -2.3855214 -0.62063444
-1.1317922 -2.3715756 -0.61879271
-1.1501441 -2.3724668 -0.62086469
-1.1749988 -2.386317 -0.62638992
-1.1800419 -2.359915 -0.62132514
-1.2033129 -2.369983 -0.62592953
-1.2120346 -2.3513107 -0.62293667
-1.2187678 -2.3291724 -0.61902291
-1.2417105 -2.3379791 -0.62339711
-1.2444876 -2.3089013 -0.61764163
-1.2604996 -2.304637 -0.61856246
-1.2793397 -2.3053677 -0.62086469
-1.2882086 -2.2881472 -0.61833227
-1.2877434 -2.2548501 -0.6114257
-1.2878945 -2.2233298 -0.60497952
-1.2886938 -2.1935713 -0.59899384
-1.3091033 -2.1973264 -0.6022169
-1.315012 -2.176759 -0.59876359
-1.3390195 -2.186075 -0.60359824
-1.3611368 -2.1918707 -0.60751194
-1.3750787 -2.1843011 -0.60774219
-1.3884554 -2.1758227 -0.60774219
-1.4097087 -2.1795182 -0.61119545
-1.4209212 -2.1675723 -0.61027455
-1.425577 -2.1458447 -0.60659105
-1.4359992 -2.1330211 -0.60543996
-1.4644178 -2.1466775 -0.61188614
-1.4659404 -2.120842 -0.60705149
-1.4979086 -2.1389067 -0.61487895
-1.5138203 -2.1336436 -0.6160301
-1.5513097 -2.1582909 -0.62592953
-1.5609251 -2.1163812 -0.61925316
-1.5960642 -2.0826571 -0.61787182
-1.6308926 -2.1012664 -0.62638992
-1.6371392 -2.0828044 -0.62385756
-1.6426146 -2.0635843 -0.62109488
-1.6686831 -2.0701334 -0.62615973
-1.6610446 -2.0349796 -0.61856246
-1.6797001 -2.0322495 -0.62086469
-1.7046307 -2.036829 -0.62546909
-1.6912992 -1.9958943 -0.6160301
-1.6876704 -1.9670169 -0.61027455
-1.7016227 -1.9588282 -0.61096525
-1.7110388 -1.9454278 -0.61004436
-1.7190601 -1.9305322 -0.60866302
-1.7276149 -1.9163344 -0.60751194
-1.7491822 -1.9164784 -0.61096525
-1.7483592 -1.8921309 -0.60659105
-1.7798823 -1.9026855 -0.61349767
-1.8022308 -1.9030327 -0.61718118
-1.8313859 -1.9102004 -0.62316686
-1.8301932 -1.8856608 -0.61879271
-1.8383185 -1.8709252 -0.61764163
-1.8374093 -1.8471926 -0.61349767
-1.8466371 -1.8338268 -0.61280698
-1.8550754 -1.8197359 -0.61188614
-1.8669051 -1.8089962 -0.61211634
-1.8709389 -1.7907789 -0.60981417
-1.8635048 -1.7618846 -0.60382843
-1.878548 -1.754402 -0.60520977
-1.854941 -1.711174 -0.59415919
-1.8704413 -1.7043475 -0.59577072
-1.8808638 -1.6928387 -0.59577072
-1.8955797 -1.6851449 -0.59715205
-1.8993019 -1.6677041 -0.59508008
-1.9072933 -1.6541063 -0.59438944
-1.9247983 -1.648702 -0.59669161
-1.9304202 -1.63309 -0.59531033
-1.9463792 -1.6262054 -0.59715205
-1.964578 -1.621044 -0.59968448
-1.9842955 -1.6169496 -0.60267735
-1.9873557 -1.5992537 -0.60060537
-2.0032265 -1.5918722 -0.60244709
-2.0144877 -1.5807519 -0.60290754
-2.0272262 -1.5707453 -0.60382843
-2.0236859 -1.5482261 -0.59991467
-2.0440195 -1.5439904 -0.60313779
-2.0526745 -1.5308379 -0.60290754
-2.0494897 -1.5089837 -0.59922403
-2.0587101 -1.4963799 -0.59922403
-2.0812953 -1.4933625 -0.60313779
-2.0832715 -1.4755026 -0.60106581
-2.1002619 -1.468267 -0.60336798
-2.1060274 -1.453142 -0.60244709
-2.1149042 -1.4401923 -0.60244709
-2.1285477 -1.4304447 -0.60382843
-2.1251187 -1.409291 -0.60037512
-2.1410551 -1.4010199 -0.60244709
-2.1348944 -1.3783568 -0.59830314
-2.1515198 -1.3704585 -0.60060537
-2.1648324 -1.3603374 -0.60198665
-2.1714842 -1.3460033 -0.60152626
-2.1722295 -1.3280863 -0.59945428
-2.187005 -1.3187522 -0.60129601
-2.2193131 -1.3197298 -0.60797238
-2.2198136 -1.301658 -0.60590041
-2.2395537 -1.294831 -0.60912347
-2.2669027 -1.2921468 -0.61441851
-2.259517 -1.2696338 -0.61027455
-2.2613053 -1.2524459 -0.60866302
-2.2740729 -1.2413443 -0.61004436
-2.2773616 -1.2250628 -0.60889328
-2.288275 -1.2128888 -0.60981417
-2.2930861 -1.1974744 -0.60912347
-2.3047175 -1.185607 -0.61027455
-2.3128171 -1.171883 -0.61050481
-2.3077729 -1.1515878 -0.60728174
-2.3270237 -1.1434129 -0.61050481
-2.3287394 -1.1265708 -0.60912347
-2.323307 -1.1064043 -0.60590041
-2.3397453 -1.09667 -0.60843283
-2.3437791 -1.0810704 -0.60774219
-2.3530269 -1.0678751 -0.60843283
-2.3613122 -1.0542104 -0.60889328
-2.3757558 -1.0432223 -0.61096525
-2.379432 -1.0274682 -0.61027455
-2.4475012 -1.0390829 -0.62615973
-2.4340723 -1.0158024 -0.62109488
-2.4267535 -0.99531037 -0.61764163
-2.4445493 -0.98512876 -0.62063444
-2.4442139 -0.9676041 -0.61902291
-2.4564543 -0.95505625 -0.62063444
-2.4659047 -0.94135362 -0.62155533
-2.4698119 -0.92552263 -0.62109488
-2.4790978 -0.91169387 -0.62201577
-2.4791527 -0.89448422 -0.62063444
-2.4836771 -0.87893099 -0.62040424
-2.4835069 -0.86176133 -0.61902291
-2.4776919 -0.84274733 -0.61626029
-2.4689677 -0.82291448 -0.61280698
-2.479521 -0.80956131 -0.61418831
-2.4427292 -0.78100032 -0.60382843
-2.4539766 -0.76803124 -0.60543996
-2.4363105 -0.74612278 -0.59991467
-2.444572 -0.73227644 -0.60083556
-2.449019 -0.71726298 -0.60083556
-2.4683435 -0.70650566 -0.60451907
-2.4838786 -0.69449013 -0.60728174
-2.5002978 -0.68256664 -0.61027455
-2.4931545 -0.66420722 -0.60751194
-2.4774034 -0.64375943 -0.60267735
-2.5011175 -0.63356239 -0.60751194
-2.4888961 -0.61424172 -0.60359824
-2.4859946 -0.5973677 -0.60198665
-2.4971941 -0.58387434 -0.60382843
-2.56336 -0.58277303 -0.61902291
-2.5279274 -0.55843127 -0.60958391
-2.5303547 -0.54270571 -0.60935372
-2.526015 -0.52558446 -0.60751194
-2.517745 -0.5077678 -0.60474932
-2.5227234 -0.49268252 -0.60520977
-2.5256989 -0.47719407 -0.60520977
-2.5228355 -0.46063954 -0.60382843
-2.5371149 -0.44717681 -0.60659105
-2.5273387 -0.42948285 -0.60359824
-2.5251245 -0.41318211 -0.60244709
-2.5353029 -0.3988896 -0.60428888
-2.5328915 -0.38259956 -0.60313779
-2.5371175 -0.36732948 -0.60359824
-2.5508912 -0.35335624 -0.60636085
-2.5568702 -0.33820766 -0.60728174
-2.5868974 -0.32603866 -0.61395812
-2.6004438 -0.31154755 -0.61672074
-2.6003728 -0.2953662 -0.61626029
-2.6176176 -0.28106579 -0.6199438
-2.6008971 -0.26313981 -0.61556965
-2.5927746 -0.24625693 -0.61326742
-2.608777 -0.23163283 -0.61672074
-2.5946314 -0.21434103 -0.61303723
-2.6201558 -0.20026827 -0.61879271
-2.5825052 -0.18146312 -0.60958391
-2.58357 -0.16561376 -0.60958391
-2.5923097 -0.15020768 -0.6114257
-2.6825919 -0.13891995 -0.63260585
-2.6552022 -0.12117352 -0.62592953
-2.6325583 -0.10396001 -0.62040424
-2.6808043 -0.089389324 -0.63168502
-2.6579554 -0.072305776 -0.62615973
-2.6622407 -0.056077089 -0.62708062
-2.6917257 -0.040173601 -0.63398719
-2.6656477 -0.023428444 -0.62777126
-2.6725533 -0.0070892824 -0.62938279
-2.6822777 0.0093442006 -0.63168502
-2.6704929 0.025688674 -0.62892234
-2.6897452 0.042382598 -0.63352674
-2.695272 0.059014164 -0.63490808
-2.7240417 0.076371968 -0.64181465
-2.725467 0.093151614 -0.64227509
-2.7228994 0.1097944 -0.64181465
-2.716342 0.12622812 -0.64043337
-2.6853909 0.1413047 -0.63329655
-2.6903021 0.15812247 -0.63467783
-2.6902523 0.17469002 -0.63490808
-2.7017486 0.19209225 -0.63790095
-2.7761977 0.21452138 -0.65585804
-2.7166436 0.22669072 -0.6420449
-2.7559099 0.24700804 -0.65171409
-2.730125 0.26159054 -0.6459586
-2.7323408 0.27873275 -0.64687949
-2.7160671 0.29392096 -0.64342618
-2.749018 0.31456706 -0.65171409
-2.7364087 0.33014557 -0.64918166
-2.7314353 0.34656191 -0.64849102
-2.725399 0.36280113 -0.64757013
-2.7385423 0.38166776 -0.65125364
-2.7457788 0.3998673 -0.65355587
-2.7740602 0.42138714 -0.66092288
-2.78584 0.44068259 -0.6643762
-2.7869246 0.45840001 -0.66529703
-2.7965295 0.4776226 -0.6682899
-2.8002536 0.49596146 -0.66990143
-2.8067293 0.51489091 -0.67220366
-2.7824838 0.52810889 -0.66713881
-2.8021092 0.54966986 -0.67266411
-2.7872388 0.56453371 -0.66990143
-2.778007 0.58043057 -0.66852015
-2.7743933 0.59746516 -0.66852015
-2.7868257 0.61806071 -0.67243385
-2.779186 0.63428229 -0.67151296
-2.7998736 0.6571064 -0.6774987
-2.8014648 0.67564321 -0.67888004
-2.807657 0.6953944 -0.6814124
-2.8099389 0.71428758 -0.68302399
-2.8252776 0.73667359 -0.68785858
-2.7718186 0.74092299 -0.67588717
-2.7653432 0.75740236 -0.67542672
-2.7887523 0.78224313 -0.68233329
-2.7642584 0.79369819 -0.6774987
-2.7481325 0.80735171 -0.67473608
-2.7645619 0.83064133 -0.68003112
-2.7482505 0.84415883 -0.67726851
-2.7606595 0.8665449 -0.68164265
-2.735831 0.87722611 -0.67680806
-2.7442689 0.89853978 -0.68026131
-2.7137852 0.90703017 -0.67404538
-2.7348778 0.93277693 -0.68072176
-2.7134788 0.94410253 -0.67680806
-2.719557 0.96496582 -0.67980087
-2.738292 0.9905749 -0.6860168
-2.7367272 1.0090417 -0.68716794
-2.723197 1.0230764 -0.68532616
-2.6859682 1.0279374 -0.6774987
-2.6932104 1.0497011 -0.68095201
-2.7011907 1.071951 -0.68463552
-2.699976 1.0906925 -0.6860168
-2.707633 1.1131605 -0.68970031
-2.661252 1.1132258 -0.67957067
-2.6669068 1.1348697 -0.68279374
-2.6688237 1.1550783 -0.68509597
-2.6705925 1.1753531 -0.68739814
-2.6784306 1.1984756 -0.6913119
-2.6701405 1.2144846 -0.69108164
-2.6326065 1.2169594 -0.68325418
-2.6215668 1.2314345 -0.68233329
-2.6297693 1.2550429 -0.68647724
-2.6193922 1.2698815 -0.6857866
-2.603694 1.2820601 -0.68371463
-2.6036117 1.3019298 -0.6857866
-2.6094565 1.3249311 -0.68947011
-2.6021426 1.3413635 -0.68970031
-2.5852413 1.3527921 -0.68739814
-2.5743139 1.3672597 -0.6867075
-2.564163 1.3821061 -0.68624705
-2.5812464 1.4118251 -0.69315362
-2.5606229 1.4210247 -0.68993056
-2.5654225 1.4443495 -0.69361407
-2.5751019 1.4706827 -0.69867891
-2.5374007 1.4698682 -0.69085145
-2.5283341 1.4854097 -0.69085145
-2.5367274 1.5113567 -0.69568604
-2.5423982 1.5359523 -0.69983
-2.5246279 1.5464394 -0.69752783
-2.5175717 1.5634416 -0.69821846
-2.498873 1.5731559 -0.69568604
-2.5080397 1.6005012 -0.70098108
-2.4761114 1.601588 -0.69476515
-2.4906518 1.632759 -0.70167178
-2.4562709 1.6318531 -0.69476515
-2.4583199 1.6550469 -0.69821846
-2.4569607 1.6761333 -0.70075089
-2.4266183 1.6773421 -0.6949954
-2.4314246 1.7028078 -0.69936955
-2.4336283 1.7267056 -0.70305306
-2.4356301 1.7506945 -0.70673656
-2.3847234 1.7363892 -0.6949954
-2.3654101 1.744634 -0.69246298
-2.3531015 1.7579499 -0.69200253
-2.3647735 1.789386 -0.69867891
-2.3328962 1.7878779 -0.69246298
-2.3464804 1.8212544 -0.69983
-2.3436763 1.842234 -0.70236242
-2.340703 1.8632473 -0.70489484
-2.302711 1.8561968 -0.69683713
-2.2867553 1.8665984 -0.69545585
-2.3060102 1.9060163 -0.70489484
-2.3032262 1.9276253 -0.70765746
-2.2727962 1.9259914 -0.70190197
-2.2594588 1.9386333 -0.70144153
-2.240175 1.9460779 -0.69913936
-2.2501116 1.9790695 -0.70604593
-2.2386527 1.9934858 -0.70627612
-2.2068653 1.9895892 -0.70006019
-2.2082715 2.0155587 -0.70443439
-2.1729932 2.0079346 -0.69706738
-2.1961617 2.0544736 -0.70857835
-2.1813951 2.0659025 -0.70788771
-2.1679752 2.0785749 -0.70765746
-2.1440089 2.0809929 -0.70397395
-2.1367524 2.099566 -0.70581573
-2.1541836 2.1428368 -0.71594536
-2.1108265 2.1256292 -0.70581573
-2.111372 2.1524363 -0.71042007
-2.1076047 2.1751361 -0.71364319
-2.0787439 2.1718562 -0.7083481
-2.067384 2.186692 -0.70903879
-2.0446298 2.189378 -0.70581573
-2.0318174 2.2025979 -0.70604593
-2.0130212 2.2092681 -0.70420414
-2.0150499 2.2389395 -0.70972943
-2.0012743 2.2512617 -0.70972943
-1.9951272 2.2722745 -0.71249205
-1.9798722 2.2830031 -0.7120316
-1.9639277 2.292891 -0.71134096
-1.9598767 2.3167865 -0.71502447
-1.9412574 2.3235404 -0.71341294
-1.9356335 2.3459175 -0.716636
-1.9113684 2.3456788 -0.71295249
-1.8999897 2.3611536 -0.71410358
-1.8987839 2.3895299 -0.71916842
-1.877479 2.3927138 -0.716636
-1.8746812 2.4195747 -0.7212404
-1.8663031 2.4395347 -0.72377282
-1.8700662 2.4757903 -0.73113984
-1.8315723 2.456012 -0.7219311
-1.8130065 2.462502 -0.72054976
-1.7932862 2.4672821 -0.71870798
-1.7758445 2.4750762 -0.71778715
-1.781432 2.5153112 -0.72630525
-1.7670797 2.5277896 -0.72676569
-1.7283279 2.5049415 -0.71709645
-1.7189496 2.5243475 -0.71962887
-1.7001718 2.5300007 -0.71824753
-1.6910689 2.550118 -0.72101021
-1.6871105 2.578362 -0.72607505
-1.6765357 2.5968413 -0.72837722
-1.6715474 2.6243167 -0.73321182
-1.6497191 2.6254597 -0.73067939
-1.6392171 2.6446316 -0.73321182
-1.6123011 2.6372035 -0.72837722
-1.6011134 2.655381 -0.73067939
-1.5698712 2.6400607 -0.72377282
-1.5472445 2.63873 -0.72077996
-1.5290765 2.644804 -0.71985912
-1.5161922 2.6600549 -0.72147065
-1.5198599 2.704942 -0.73113984
-1.4947488 2.6988926 -0.72699589
-1.4851532 2.7208266 -0.7304492
-1.4559857 2.7067475 -0.72423327
-1.4439064 2.7242291 -0.72653544
-1.4555372 2.7873845 -0.74103928
-1.4272799 2.7746279 -0.73528379
-1.4102283 2.7833335 -0.73528379
-1.3848696 2.775389 -0.73090965
-1.3656688 2.7794669 -0.72975856
-1.3621469 2.8158281 -0.73712558
-1.3402421 2.8144679 -0.73459315
-1.3233606 2.8235197 -0.73482335
-1.3088634 2.8377726 -0.73643494
-1.2922307 2.8475225 -0.73689532
-1.2763208 2.8589523 -0.73781621
-1.2607104 2.8711853 -0.7389673
-1.2538687 2.9038832 -0.74541348
-1.231845 2.9016685 -0.74288106
-1.2143922 2.9100702 -0.74311125
-1.1858072 2.8913555 -0.73643494
-1.1764078 2.919338 -0.74172997
-1.1495204 2.9038799 -0.73597449
-1.1337961 2.9163208 -0.73735577
-1.1079003 2.9023116 -0.73206073
-1.1027025 2.9427726 -0.74057883
-1.0849609 2.9503968 -0.74080908
-1.0767426 2.9844606 -0.74771565
-1.049647 2.9662409 -0.74149972
-1.0279186 2.9625123 -0.7389673
-1.0184933 2.9945612 -0.74541348
-0.99640846 2.9896753 -0.74265081
-0.97925311 2.9994333 -0.7435717
-0.96083063 3.0053854 -0.7435717
-0.9545756 3.0502317 -0.75324094
-0.93299311 3.0467262 -0.75093871
-0.90395272 3.0179007 -0.74242061
-0.89088666 3.042069 -0.74702501
-0.87273955 3.0493495 -0.74748546
-0.86396641 3.0902615 -0.75623381
-0.84703809 3.1030149 -0.75807554
-0.83399248 3.1307228 -0.76360083
-0.81378847 3.1320136 -0.76267993
-0.79001713 3.1190238 -0.75830579
-0.76503754 3.1001923 -0.7525503
-0.74600077 3.1048281 -0.7525503
-0.7256071 3.1036613 -0.75116897
-0.69792414 3.0700972 -0.74196017
-0.6843186 3.0980783 -0.74771565
-0.67100757 3.1288614 -0.75416183
-0.64565444 3.1033845 -0.74702501
-0.62429285 3.0958402 -0.7442624
-0.61442041 3.1464131 -0.75554311
-0.60449213 3.1998484 -0.76751453
-0.57628685 3.1565881 -0.75623381
-0.56197202 3.1888161 -0.76314038
-0.54549098 3.210433 -0.76751453
-0.51855791 3.1695418 -0.75692445
-0.49486807 3.1457469 -0.75047833
-0.48165715 3.1891382 -0.76014751
-0.46375194 3.2035906 -0.76291019
-0.4446201 3.2102318 -0.76383102
-0.42555165 3.2177231 -0.76498216
-0.40652955 3.2260668 -0.76636344
-0.3862645 3.2246356 -0.76544255
-0.36712962 3.2327466 -0.76682389
-0.3501932 3.2620308 -0.77327001
-0.33173686 3.2796094 -0.77695358
-0.3094933 3.2593009 -0.77165848
-0.28716767 3.2349668 -0.76544255
-0.26683277 3.2308488 -0.76406127
-0.24989219 3.2702675 -0.77303982
-0.23063883 3.2833884 -0.77580243
-0.21086091 3.2905686 -0.77718377
-0.19066638 3.2918005 -0.77718377
-0.16880709 3.2608376 -0.7695865
-0.14857444 3.2569513 -0.76843542
-0.12881717 3.2636361 -0.76981676
-0.10940379 3.2828445 -0.7741909
-0.090893224 3.3437665 -0.78846455
-0.070700876 3.3598278 -0.79214805
-0.04992535 3.3494952 -0.78961563
-0.029101733 3.3185992 -0.78224862
-0.0086690914 3.2914674 -0.77580243
0.011478317 3.2778349 -0.77257937
0.031524308 3.270891 -0.77096784
0.05187124 3.2881503 -0.77511179
0.071896188 3.2809598 -0.77350026
0.092163265 3.2853208 -0.77465135
0.1129866 3.3041446 -0.77925575
0.13471253 3.339366 -0.78777385
0.15515471 3.3375044 -0.78754365
0.17547663 3.3335743 -0.78685302
0.19592775 3.3324349 -0.78685302
0.21479265 3.3068926 -0.78109753
0.23722178 3.3356035 -0.78823429
0.25745898 3.3311746 -0.78754365
0.27886605 3.3411694 -0.79030627
0.29631799 3.3054717 -0.78224862
0.31520075 3.2890611 -0.7787953
0.33764973 3.3093314 -0.78409034
0.36077845 3.3333194 -0.79030627
0.38255325 3.3426447 -0.79306895
0.40480599 3.3547261 -0.7965222
0.42758909 3.3695562 -0.80066615
0.44671416 3.3552938 -0.79790354
0.46648693 3.3467066 -0.7965222
0.48350489 3.3197072 -0.79076672
0.50956839 3.3541994 -0.79974526
0.53029191 3.3519707 -0.79997551
0.5424735 3.2977622 -0.78777385
0.57335287 3.3567219 -0.80273813
0.59190089 3.3416421 -0.79997551
0.60659617 3.3063612 -0.79237825
0.6310479 3.3245661 -0.79767334
0.64375126 3.2814798 -0.78823429
0.67759597 3.3451848 -0.80457991
0.70010006 3.3504896 -0.80688208
0.71593106 3.3242505 -0.80158705
0.73315293 3.3055446 -0.79813373
0.75688744 3.3161635 -0.80181724
0.77677596 3.309562 -0.80135685
0.79843789 3.3104093 -0.80273813
0.81967127 3.3092265 -0.80365902
0.83420485 3.2814999 -0.79813373
0.85948205 3.2960937 -0.80296838
0.87767917 3.283237 -0.8011266
0.89960831 3.2843597 -0.80273813
0.92210996 3.2872107 -0.80481011
0.9433372 3.2852321 -0.805731
0.95689189 3.2569742 -0.80020571
0.98414123 3.2752724 -0.80619144
1.0053626 3.272893 -0.80711234
1.0222191 3.2564497 -0.80457991
1.0424782 3.2510428 -0.80481011
1.0584691 3.2325625 -0.80181724
1.0807523 3.2333906 -0.80365902
1.106856 3.2451186 -0.80826342
1.1309052 3.2502139 -0.81125629
1.1488737 3.2377112 -0.80987495
1.1710362 3.2370062 -0.81148648
1.1902026 3.2279339 -0.81102604
1.1976627 3.1877763 -0.80273813
1.2171999 3.1803675 -0.80273813
1.2377518 3.1755593 -0.80342883
1.2507508 3.151624 -0.79928488
1.2707944 3.1456947 -0.79974526
1.3022857 3.1675384 -0.80734253
1.3243262 3.1657722 -0.80895406
1.3231453 3.1092348 -0.7965222
1.3418117 3.1001647 -0.79629201
0.86521471 1.9660832 -0.50529444
0.90539581 1.9907488 -0.51450324
0.91105914 1.9710233 -0.51081973
0.91817009 1.9548268 -0.50805706
0.94188553 1.9737462 -0.51450324
0.94208968 1.9434123 -0.50805706
1.4635056 2.9720998 -0.78086728
1.539176 3.0779498 -0.81125629
1.5346787 3.0224617 -0.79905462
1.5670202 3.0398011 -0.80619144
1.6009854 3.0594432 -0.81401891
1.597357 3.0074515 -0.80273813
1.6134713 2.9933107 -0.80158705
1.6392803 2.9970143 -0.80527055
1.64961 2.9724348 -0.80135685
1.6740249 2.9732802 -0.80434966
1.6869276 2.9536579 -0.80181724
1.1249475 1.9420973 -0.52808619
1.1402267 1.9139349 -0.52417248
1.1499358 1.9035709 -0.52325159
1.1691012 1.8827028 -0.52140981
1.1661125 1.8524364 -0.51496369
1.7643784 2.7647903 -0.77303982
1.8394548 2.8437889 -0.79836398
1.8750118 2.8601179 -0.80619144
1.8774455 2.8258648 -0.79974526
1.8963799 2.8167136 -0.80043596
1.9174669 2.8106513 -0.80204749
1.9363366 2.8012345 -0.80273813
1.9596298 2.798068 -0.80527055
1.9671872 2.7725 -0.80135685
1.9864342 2.7635381 -0.80227768
2.0142384 2.7662435 -0.80665189
2.0357955 2.7600973 -0.80849361
2.0276453 2.7140331 -0.79859418
2.0730362 2.7395627 -0.80987495
2.0785584 2.7121167 -0.80550081
2.1190305 2.7300596 -0.81470954
2.1405537 2.7231264 -0.81655133
2.1311584 2.6772044 -0.80665189
2.1505992 2.6678655 -0.80780298
2.1663129 2.6538656 -0.80757278
2.1763556 2.633023 -0.80527055
2.1887226 2.6151423 -0.80388921
2.1959188 2.5912702 -0.80066615
2.2181149 2.5851326 -0.80296838
2.2447855 2.5839615 -0.80688208
2.274096 2.5854831 -0.81171674
2.2815034 2.5620337 -0.80872387
2.2926192 2.5429275 -0.80711234
2.2983377 2.5180318 -0.80365902
2.3183682 2.5088847 -0.80527055
2.3210864 2.481111 -0.80089641
2.3496506 2.4809525 -0.80550081
2.374259 2.4763217 -0.80872387
2.3921199 2.4645 -0.80964476
2.4153821 2.4581046 -0.81240737
2.4256148 2.4384089 -0.81079584
2.4377687 2.420737 -0.80987495
2.4636924 2.4166358 -0.81355846
2.4812701 2.4041817 -0.81447935
2.5008967 2.3936214 -0.81609088
2.5247302 2.3869216 -0.81908375
2.522969 2.3561101 -0.81378871
2.5380936 2.3412449 -0.81401891
2.5488145 2.3223505 -0.81286782
2.57025 2.3131769 -0.81516999
2.5713027 2.2857258 -0.81102604
2.5940547 2.2776098 -0.81378871
2.5859239 2.2425249 -0.80688208
2.594461 2.2221849 -0.80527055
2.6110194 2.2087374 -0.80619144
2.6021171 2.173959 -0.79928488
2.6289194 2.1690986 -0.80342883
2.6527414 2.1615322 -0.80665189
2.7061398 2.1775453 -0.8188535
2.6927819 2.1397126 -0.81079584
2.704329 2.1219482 -0.8103354
2.7265298 2.1124663 -0.81309801
2.7394404 2.0956969 -0.81309801
2.7499182 2.0770891 -0.81240737
2.7719729 2.0671573 -0.81516999
2.7846045 2.0501099 -0.81516999
2.8120887 2.0438545 -0.8195442
2.8158786 2.0203218 -0.81701177
2.8131328 1.9923209 -0.81263757
2.821316 1.9722348 -0.81148648
2.8125377 1.9405193 -0.80550081
2.841284 1.9347262 -0.8103354
2.8321002 1.9031456 -0.80434966
2.8469687 1.8878832 -0.80527055
2.898402 1.8964841 -0.81655133
2.9116194 1.8797197 -0.81701177
2.8910859 1.8414327 -0.80803317
2.9015064 1.823141 -0.80780298
2.9118111 1.8047907 -0.80757278
2.9278123 1.7899354 -0.80895406
2.9337397 1.7689224 -0.80757278
2.9646134 1.7628232 -0.81309801
2.9510283 1.730327 -0.80642164
2.9674876 1.7155962 -0.80803317
2.9830313 1.7002467 -0.80941451
2.9866202 1.6780981 -0.80757278
3.013036 1.6686977 -0.81194693
3.0403025 1.6595021 -0.81655133
3.0581412 1.6449643 -0.8186233
3.0191646 1.6001965 -0.80550081
3.052218 1.5938013 -0.81171674
3.0593436 1.5737079 -0.81102604
3.0324814 1.5364369 -0.80135685
3.0618799 1.5277927 -0.80665189
3.0877922 1.5171288 -0.81102604
3.1215727 1.5100175 -0.81747222
3.0956335 1.4741027 -0.80826342
3.100214 1.453016 -0.80711234
3.1011178 1.4302986 -0.80504036
3.1036322 1.4084291 -0.80342883
3.1202135 1.3929287 -0.80550081
3.0948415 1.3588929 -0.79675245
3.0888262 1.3337066 -0.79306895
3.1390538 1.3325983 -0.80388921
3.1489673 1.3140618 -0.80434966
3.1578715 1.2950845 -0.80457991
3.1567323 1.2720473 -0.80227768
3.1608584 1.2512217 -0.80135685
3.1521497 1.2254577 -0.7972129
3.1777933 1.2130327 -0.80181724
3.1888216 1.1948769 -0.80273813
3.2034001 1.1779745 -0.80457991
3.1840208 1.1487215 -0.79790354
3.1873398 1.1278648 -0.79698265
3.1951196 1.1086053 -0.7972129
3.2424004 1.1027635 -0.80734253
3.23895 1.0794641 -0.80481011
3.2288606 1.054135 -0.80066615
3.2436104 1.0369697 -0.80273813
3.2573421 1.0193721 -0.80457991
3.2114267 0.98341393 -0.79168761
3.2630804 0.97736877 -0.80296838
3.2708836 0.95787531 -0.80342883
3.2523742 0.93082768 -0.79744309
3.2589614 0.91111588 -0.79767334
3.2635517 0.89084589 -0.79744309
3.236984 0.86229002 -0.78961563
3.2469234 0.84363526 -0.79076672
3.2520387 0.82369667 -0.79076672
3.2551422 0.80326086 -0.79030627
3.2836652 0.78895432 -0.79606175
3.258121 0.76170462 -0.78869474
3.2731719 0.74407083 -0.79122716
3.2881286 0.72628099 -0.79375958
3.2868137 0.70486784 -0.79237825
3.3225179 0.69122559 -0.79997551
3.2999861 0.66544193 -0.79352939
3.3011415 0.64462185 -0.79283869
3.2773037 0.61911786 -0.78616232
3.2954009 0.60161746 -0.78961563
3.2798626 0.57800961 -0.78501123
3.2603219 0.55396348 -0.77948594
3.2425311 0.5304932 -0.77442116
3.3312833 0.52403945 -0.79491067
3.3171158 0.50097483 -0.79076672
3.3297582 0.48200533 -0.79306895
3.3220499 0.46009758 -0.79053652
3.2775376 0.43345726 -0.77925575
3.2511704 0.40969083 -0.77234918
3.0748682 0.36833704 -0.72975856
2.2281039 0.25312015 -0.52762574
2.2402585 0.24058576 -0.53015816
2.2484698 0.22752024 -0.53176969
2.2294791 0.21178943 -0.5269351
2.2239513 0.19750383 -0.52532357
2.2338498 0.18457438 -0.52739555
2.2378514 0.17108646 -0.52808619
2.2806013 0.16028079 -0.53798562
3.0468094 0.19526058 -0.71939868
2.1104383 0.12233613 -0.49723676
2.1315579 0.11043926 -0.50207138
2.0855331 0.095233396 -0.49102083
2.0617685 0.0814775 -0.48526534
2.0758462 0.06927786 -0.48848841
2.072341 0.056433946 -0.48756754
2.075567 0.043778423 -0.48825821
2.0767696 0.031056585 -0.48848841
2.0817866 0.018355457 -0.48963952
3.0270612 0.0082170917 -0.77859014
3.028023 -0.010359873 -0.77884018
3.0153158 -0.02882161 -0.77558964
3.0247636 -0.047472619 -0.77809006
3.0079591 -0.065675482 -0.77383935
3.003628 -0.084023252 -0.77283919
3.0040238 -0.1024844 -0.77308923
2.977217 -0.11986866 -0.76633811
2.9822285 -0.13840236 -0.76783836
2.9755218 -0.15639468 -0.76633811
2.9667735 -0.17419681 -0.76433778
2.96275 -0.19220988 -0.76358765
2.9731047 -0.2112062 -0.76658815
2.9369993 -0.226769 -0.7575866
2.9837978 -0.2487984 -0.77008873
2.9831793 -0.2671881 -0.77033877
2.9814837 -0.28548753 -0.77033877
2.9825656 -0.30407017 -0.7710889
2.9594655 -0.32007921 -0.76558799
2.9882298 -0.34174609 -0.77358931
2.9726183 -0.35845509 -0.77008873
2.9588361 -0.3752287 -0.76708823
2.9430406 -0.39159173 -0.76358765
2.9415417 -0.40977585 -0.7638377
2.9322648 -0.42684224 -0.76208735
2.9544802 -0.44860002 -0.76858848
2.9296751 -0.46324652 -0.76283753
2.9487526 -0.48482224 -0.76858848
2.9294965 -0.50013977 -0.76433778
2.9063501 -0.51456487 -0.75908685
2.8850429 -0.52907383 -0.75433606
2.8884013 -0.54802811 -0.75608635
2.8450768 -0.55792379 -0.74558461
2.8472941 -0.57652205 -0.74708486
2.7953639 -0.58389598 -0.73433268
2.8276989 -0.60877287 -0.74383432
2.8239105 -0.62611181 -0.74383432
2.8275676 -0.64514863 -0.74583465
2.8395815 -0.66624248 -0.75008535
2.8128486 -0.67821145 -0.74408436
2.8227329 -0.6989457 -0.74783498
2.7874219 -0.70838934 -0.73958361
2.7942665 -0.72840768 -0.74258411
2.7757127 -0.74179262 -0.73883349
2.7514966 -0.75344437 -0.73358256
2.7747917 -0.77815014 -0.74108386
2.7690339 -0.79489434 -0.74083382
2.753885 -0.80887061 -0.73808336
2.7488701 -0.82575291 -0.73808336
2.7641153 -0.84885299 -0.74358428
2.7570071 -0.86521792 -0.74308419
2.7175295 -0.87118936 -0.7338326
2.713053 -0.88814837 -0.73408264
2.7194915 -0.90876544 -0.73733324
2.7221127 -0.92824543 -0.73958361
2.721853 -0.94683808 -0.74108386
2.7242053 -0.96643293 -0.74333423
2.7100289 -0.9801681 -0.74108386
2.7030551 -0.99644339 -0.74083382
2.6814802 -1.0072258 -0.73658311
2.677058 -1.0243517 -0.7370832
2.6725271 -1.0414612 -0.73758328
2.6840875 -1.0649778 -0.74258411
2.6810939 -1.0828767 -0.74358428
2.6815639 -1.1022505 -0.74558461
2.6533098 -1.1097219 -0.73958361
2.647342 -1.1263602 -0.73983365
2.6386034 -1.1418141 -0.73933357
2.6271162 -1.156034 -0.73808336
2.6173217 -1.1709462 -0.73733324
2.6039176 -1.1841793 -0.73558295
2.5799017 -1.1924199 -0.7308321
2.5690305 -1.2065817 -0.72983193
2.5545874 -1.2189881 -0.7278316
2.5488024 -1.235484 -0.72833169
2.532486 -1.2468252 -0.72583127
2.5204575 -1.2601767 -0.72458106
2.5005894 -1.2694848 -0.72108048
2.5177145 -1.2976626 -0.72833169
2.4788165 -1.2969346 -0.71933019
2.4545624 -1.3034953 -0.7145794
2.4593046 -1.3254192 -0.71833003
2.4417801 -1.335376 -0.71557957
2.4462416 -1.3573772 -0.71933019
2.3771102 -1.3381776 -0.70132715
1.3076247 -0.74704725 -0.38577411
1.3005024 -0.75360137 -0.38502398
1.2966889 -0.76205713 -0.38527402
1.2894928 -0.76851314 -0.3845239
1.2830952 -0.77540994 -0.38402382
1.287397 -0.78882891 -0.38677427
1.2784193 -0.79416054 -0.38552406
1.27762 -0.80456787 -0.38677427
1.2775573 -0.81551576 -0.38827452
1.276595 -0.82596749 -0.38952473
1.2771722 -0.83749926 -0.39127502
1.2760425 -0.8479979 -0.39252526
1.2740285 -0.85797358 -0.39352542
1.2695402 -0.86632019 -0.39377546
1.2857097 -0.88895237 -0.40052658
2.246398 -1.5730594 -0.70507777
2.2493408 -1.5957744 -0.70907849
2.2056932 -1.5852557 -0.69832665
2.0244725 -1.4739937 -0.64356744
1.205618 -0.88948143 -0.38377377
1.1939307 -0.89222801 -0.38177344
1.1899782 -0.90070504 -0.38227352
1.1859666 -0.90916717 -0.38277361
1.1719502 -0.90989906 -0.38002315
1.164061 -0.91527843 -0.37927303
1.1553922 -0.91999257 -0.37827283
1.1519876 -0.92888683 -0.37902299
1.1537688 -0.94205838 -0.3815234
1.1614033 -0.96021956 -0.38602415
1.1554897 -0.96732777 -0.38602415
1.1561822 -0.98003137 -0.38827452
1.1655821 -1.000343 -0.39352542
1.8225485 -1.5832185 -0.62031353
2.0418715 -1.7957357 -0.69907677
2.023582 -1.8017935 -0.69657636
2.0239973 -1.8245461 -0.70057702
2.0199172 -1.843456 -0.70307744
2.0057228 -1.8531878 -0.70207727
1.9801688 -1.8522346 -0.69707644
1.9729856 -1.8683434 -0.69857669
1.9614846 -1.8804142 -0.69857669
1.9526894 -1.8951108 -0.69957685
1.9320439 -1.8982372 -0.69632632
1.9080005 -1.8977689 -0.69182557
1.8888131 -1.901885 -0.68907511
1.8662565 -1.9023826 -0.68507445
1.864658 -1.9242253 -0.68882507
1.8715671 -1.9552104 -0.69582623
1.8668542 -1.9743947 -0.69857669
1.8163633 -1.94478 -0.68407428
1.8076798 -1.959446 -0.68532449
1.7812716 -1.9547595 -0.67982352
1.7737794 -1.9706888 -0.68157387
1.7738805 -1.9952813 -0.68632466
1.758409 -2.002491 -0.68507445
1.7479926 -2.0154366 -0.68582457
1.7280324 -2.0173018 -0.68282408
1.7099921 -2.0212157 -0.68057364
1.6975579 -2.0316699 -0.68057364
1.6986213 -2.0584741 -0.68607461
1.6835113 -2.0658562 -0.68507445
1.6525872 -2.0535223 -0.67757314
1.6345328 -2.0568027 -0.67532277
1.6308504 -2.0782168 -0.67907339
1.6299328 -2.1034887 -0.68407428
1.6175838 -2.114219 -0.68432432
1.6051646 -2.124877 -0.68457437
1.5758829 -2.112958 -0.67757314
1.56174 -2.1210284 -0.67707306
1.5572383 -2.1423171 -0.68082368
1.5186541 -2.1164379 -0.66957182
1.5056392 -2.1257162 -0.66957182
1.5008923 -2.1468158 -0.67332244
1.5036441 -2.1790915 -0.68057364
1.4787961 -2.1714735 -0.67532277
1.4676056 -2.1837204 -0.67632294
1.4547142 -2.193491 -0.67657298
1.4401671 -2.2007556 -0.6760729
1.4166539 -2.1940982 -0.67132211
1.4036849 -2.2035658 -0.67157215
1.3958067 -2.2211537 -0.67432261
1.375007 -2.2181571 -0.67082202
1.3694552 -2.2397671 -0.67482269
1.3531854 -2.2439826 -0.67357248
1.338896 -2.2514112 -0.67332244
1.3275063 -2.2637599 -0.67457265
1.2975911 -2.2442055 -0.66632128
1.2866746 -2.2571714 -0.66782153
1.2661573 -2.2532082 -0.66432095
1.2527773 -2.2617815 -0.66457099
1.2393398 -2.2702756 -0.66482103
1.2235507 -2.2744272 -0.66382086
