# .PCD v0.7 - Point Cloud Data file format
VERSION 0.7
FIELDS x y z
SIZE 4 4 4
TYPE F F F
COUNT 1 1 1
WIDTH 1449
HEIGHT 1
VIEWPOINT 0 0 0 1 0 0 0
POINTS 1449
DATA ascii
-2.780653 0.67062181 -0.67381519
-2.7698739 0.68603265 -0.67220366
-2.771271 0.70445436 -0.67358494
-2.7640715 0.72070849 -0.6728943
-2.7595973 0.73765492 -0.6728943
-2.7559576 0.75483078 -0.67312455
-2.757833 0.77356714 -0.67473608
-2.7670643 0.79450411 -0.67818934
-2.7705402 0.81393701 -0.68026131
-2.7626979 0.83008111 -0.67957067
-2.7408087 0.84187222 -0.67542672
-2.7485898 0.86275506 -0.67864978
-2.7330511 0.87633443 -0.67611736
-2.7183745 0.8900587 -0.67381519
-2.7303977 0.9125843 -0.67818934
-2.6998794 0.92083645 -0.67197341
-2.7263458 0.94858068 -0.68003112
-2.7434013 0.97342885 -0.6857866
-2.7053492 0.9786545 -0.67772889
-2.7075107 0.99826634 -0.67980087
-2.722286 1.022734 -0.68509597
-2.7186859 1.0404621 -0.6857866
-2.7167838 1.0588915 -0.68693769
-2.7138534 1.0769776 -0.68785858
-2.7153144 1.0968903 -0.68993056
-2.6869328 1.104648 -0.68440527
-2.6953654 1.1274996 -0.68831903
-2.6830239 1.14173 -0.68693769
-2.6607864 1.1515988 -0.68302399
-2.6545608 1.1682955 -0.68325418
-2.6597776 1.1901273 -0.68647724
-2.636481 1.1991712 -0.68233329
-2.6529222 1.2263528 -0.68854922
-2.6629629 1.2508842 -0.69315362
-2.641186 1.2604928 -0.68947011
-2.6552925 1.2872901 -0.6952256
-2.6290109 1.2945292 -0.690391
-2.6157963 1.3080243 -0.68900967
-2.6172655 1.328897 -0.69154209
-2.6038725 1.3422555 -0.69016075
-2.5964499 1.3586584 -0.690391
-2.6018147 1.3818691 -0.69407451
-2.5838645 1.3927276 -0.69154209
-2.556488 1.3982805 -0.68647724
-2.5623248 1.4219693 -0.690391
-2.5543993 1.4381422 -0.6906212
-2.5556669 1.4595809 -0.69338387
-2.5710814 1.4893827 -0.70006019
-2.5576992 1.5026655 -0.6989091
-2.5618064 1.5263015 -0.70259261
-2.5490613 1.5399786 -0.70167178
-2.5329258 1.5515232 -0.69983
-2.5183983 1.5639551 -0.69844866
-2.5104017 1.5804152 -0.6989091
-2.5146022 1.6046897 -0.70282286
-2.5063426 1.621146 -0.70328331
-2.4890242 1.6316918 -0.70121133
-2.4797759 1.6474719 -0.70144153
-2.4817286 1.6708097 -0.70489484
-2.4834876 1.6942333 -0.7083481
-2.4570358 1.6983715 -0.70374376
-2.452945 1.7178822 -0.70558548
-2.4455326 1.7351534 -0.70650637
-2.4285188 1.745582 -0.70466459
-2.4476545 1.7822199 -0.71341294
-2.4272757 1.7902725 -0.71065032
-2.4045517 1.7963947 -0.70719701
-2.3795168 1.8005441 -0.70305306
-2.4078135 1.8453035 -0.71479428
-2.3964455 1.8600429 -0.71479428
-2.3964627 1.8837341 -0.71824753
-2.3688717 1.8856742 -0.71341294
-2.3542266 1.8977307 -0.71249205
-2.3696754 1.9342958 -0.72077996
-2.3585122 1.9494195 -0.72101021
-2.3435216 1.9613556 -0.72008932
-2.3255038 1.9706647 -0.71824753
-2.3192763 1.9899666 -0.72008932
-2.2937999 1.9926713 -0.71594536
-2.2639942 1.991282 -0.71042007
-2.2822545 2.0323198 -0.72008932
-2.2863638 2.0612738 -0.72538435
-2.269361 2.0713272 -0.72400308
-2.2694726 2.0971017 -0.72814703
-2.2601154 2.1143119 -0.72929811
-2.2654688 2.1455393 -0.73528379
-2.2627971 2.1695027 -0.73873711
-2.2305903 2.1650445 -0.73252118
-2.2311451 2.1923327 -0.73712558
-2.2211006 2.2094133 -0.73827666
-2.2027028 2.2181661 -0.73666513
-2.2163064 2.2594304 -0.74587393
-2.2057867 2.2764816 -0.74702501
-2.1810119 2.278724 -0.74334151
-2.1696627 2.2948923 -0.7442624
-2.1542125 2.3067393 -0.74380195
-2.1558523 2.3370821 -0.74932718
-2.1781716 2.3905513 -0.76221949
-2.1172464 2.3525109 -0.74587393
-2.1402676 2.4076452 -0.75922662
-2.0676739 2.3549135 -0.73850691
-2.1003609 2.4219644 -0.75554311
-2.1101468 2.4636328 -0.76452172
-2.0849354 2.4646459 -0.76083821
-2.0697737 2.4773924 -0.76083821
-2.0669188 2.505059 -0.76544255
-2.060729 2.529011 -0.76889586
-2.0506628 2.5484319 -0.77096784
-2.0168269 2.5381081 -0.76406127
-2.0300469 2.5871863 -0.77511179
-2.0057909 2.5888233 -0.77188873
-1.9957805 2.6088114 -0.7741909
-1.9756303 2.6155722 -0.77257937
-1.960126 2.6284254 -0.77280962
-1.9335773 2.6262963 -0.76866567
-1.9328722 2.6593661 -0.7748816
-1.9358041 2.6980608 -0.78270906
-1.9231493 2.7154472 -0.78432059
-1.924291 2.7527201 -0.79168761
-1.9206264 2.7837005 -0.7972129
-1.907891 2.8018682 -0.79905462
-1.8700402 2.7828274 -0.79030627
-1.8631469 2.8096595 -0.79468048
-1.833086 2.8014941 -0.78915519
-1.8396107 2.8494813 -0.79951507
-1.8137282 2.8475821 -0.79583156
-1.7812091 2.8347607 -0.78915519
-1.7601935 2.8398464 -0.78754365
-1.7290322 2.8281751 -0.78132772
-1.732748 2.873734 -0.79099697
-1.722542 2.8968589 -0.79445022
-1.7101486 2.9166086 -0.79698265
-1.7004993 2.9413695 -0.80089641
-1.6819376 2.9509027 -0.80066615
-1.6556969 2.9467442 -0.79675245
-1.6394705 2.9602532 -0.79767334
-1.6282685 2.9830701 -0.8011266
-1.628371 3.0272872 -0.8103354
-1.5906277 3.0011072 -0.80066615
-1.5983049 3.0608444 -0.81401891
-1.5759332 3.0636706 -0.81217712
-1.5619426 3.0828319 -0.81470954
-1.5399563 3.0862622 -0.81309801
-1.5235648 3.1008937 -0.81447935
-1.5070516 3.1154401 -0.81586069
-1.4908353 3.130779 -0.81747222
-1.4757264 3.1486797 -0.81977439
-1.4547486 3.1541405 -0.8188535
-1.4337596 3.1594625 -0.81793267
-1.419106 3.178864 -0.82069528
-1.3933154 3.1732547 -0.81701177
-1.393103 3.2264166 -0.82852274
-1.3763216 3.24207 -0.83036447
-1.3631471 3.2666197 -0.83450842
-1.3449239 3.2794244 -0.83565956
-1.3247763 3.2876151 -0.83565956
-1.2949102 3.2712507 -0.82944363
-1.2790444 3.290019 -0.83220625
-1.2647316 3.313261 -0.83612001
-1.2474506 3.3291607 -0.83819199
-1.2364017 3.3623266 -0.84463811
-1.1989086 3.3231635 -0.83289689
-1.181741 3.3396318 -0.83519912
-1.1653731 3.358772 -0.83819199
-1.1318979 3.3280847 -0.82875293
-1.1299127 3.3903615 -0.84256613
-1.1042575 3.3824289 -0.83888263
-1.0849638 3.3937757 -0.84003371
-1.0780667 3.4449487 -0.85108423
-1.0523509 3.4366105 -0.84740072
-1.0225909 3.4141035 -0.84026396
-1.0114663 3.4539354 -0.84855187
-0.98168832 3.4301376 -0.84118479
-0.95093101 3.4014192 -0.8326667
-0.94131458 3.4484978 -0.84279633
-0.91888511 3.4495068 -0.84164524
-0.89476627 3.4437776 -0.83888263
-0.88030702 3.4756169 -0.84532875
-0.85849833 3.4790635 -0.8448683
-0.84099859 3.5003517 -0.84878206
-0.81706899 3.4950223 -0.84624964
-0.78612041 3.4582162 -0.83612001
-0.76761401 3.4753282 -0.83911282
-0.74933499 3.4942453 -0.84256613
-0.73303211 3.5235491 -0.84855187
-0.71793592 3.560415 -0.85637933
-0.6908561 3.5380099 -0.84993315
-0.66407847 3.5154076 -0.84348702
-0.65035707 3.5624959 -0.85384691
-0.62831694 3.5654609 -0.85361665
-0.60284334 3.5481424 -0.84855187
-0.58640045 3.5844276 -0.85637933
-0.56243086 3.5754609 -0.85338646
-0.53961021 3.5730712 -0.85200512
-0.52157754 3.603282 -0.85845131
-0.49745706 3.5919552 -0.85499799
-0.48203835 3.6451068 -0.86696941
-0.45917693 3.644134 -0.86604851
-0.43287584 3.6140306 -0.85822105
-0.41398433 3.6456268 -0.86512762
-0.3913998 3.6461632 -0.86466724
-0.37136853 3.6717329 -0.87019247
-0.34947562 3.6807239 -0.871804
-0.3258529 3.6711671 -0.86904138
-0.30212066 3.6585495 -0.86558807
-0.27877775 3.6486909 -0.86282545
-0.25379637 3.6134441 -0.8540771
-0.23317373 3.6392121 -0.85983258
-0.21095192 3.6425173 -0.86029303
-0.18995412 3.6699829 -0.86650896
-0.16251837 3.5631728 -0.8409546
-0.1404606 3.5592411 -0.83980352
-0.1200092 3.6018577 -0.84970295
-0.10038468 3.6939678 -0.87134355
-0.076146558 3.6195989 -0.85361665
-0.054382879 3.650162 -0.86075348
-0.032331534 3.6903243 -0.87019247
-0.0096428106 3.6729364 -0.86604851
0.0129987 3.7021205 -0.87295514
0.03545887 3.6756976 -0.86673921
0.057564426 3.6471934 -0.86006284
0.079300143 3.6175845 -0.85315621
0.10217993 3.6413486 -0.85891175
0.12522097 3.661077 -0.86374635
0.1457174 3.6116226 -0.85223538
0.16710559 3.594135 -0.84832162
0.19187094 3.6445467 -0.86052328
0.21051225 3.5801563 -0.845559
0.23531763 3.6224961 -0.85591888
0.25747129 3.6200132 -0.85568863
0.28223068 3.6513534 -0.86351609
0.30706018 3.6786458 -0.87042272
0.33075669 3.6892927 -0.87341553
0.34846321 3.6358531 -0.86121392
0.36928302 3.6191249 -0.85776061
0.39305449 3.6313031 -0.86121392
0.42020032 3.6713629 -0.87134355
0.44073629 3.6522915 -0.86742985
0.46534455 3.6668956 -0.87157381
0.48256674 3.6244218 -0.86213481
0.49982315 3.5857315 -0.85361665
0.52742869 3.6211159 -0.86282545
0.54949123 3.6168494 -0.86259526
0.57212991 3.6162932 -0.8632859
0.59241188 3.601192 -0.86052328
0.61548072 3.6032448 -0.86190456
0.6389367 3.6070662 -0.86374635
0.66386807 3.618392 -0.86742985
0.68369746 3.6018217 -0.86443698
0.70034999 3.5698662 -0.85776061
0.71721607 3.5407043 -0.85177493
0.74669349 3.5733862 -0.86075348
0.75835747 3.5211718 -0.84924251
0.78332132 3.5316529 -0.85292602
0.79956096 3.503062 -0.84717053
0.84061456 3.581459 -0.86742985
0.84568417 3.5062301 -0.85039359
0.87279904 3.5236452 -0.85591888
0.88217175 3.4701242 -0.84417766
0.90271062 3.4618211 -0.84348702
0.92192382 3.4486959 -0.84164524
0.94923896 3.4654994 -0.84717053
0.97390282 3.4717901 -0.8501634
0.99545562 3.4666843 -0.85039359
1.0057325 3.4231648 -0.84118479
1.0275582 3.4197252 -0.84187549
1.049951 3.4180069 -0.84302658
1.0720699 3.4152141 -0.84394747
1.0840884 3.3807726 -0.83704084
1.1057209 3.3768313 -0.83773154
1.1285799 3.3764436 -0.83934307
1.1464479 3.361166 -0.83727109
1.1545753 3.3182247 -0.82829255
1.1749138 3.3110781 -0.82829255
1.2071285 3.3367491 -0.8365804
1.2181512 3.3037148 -0.83013427
1.2466154 3.3180408 -0.83565956
1.2606885 3.2939703 -0.83151561
1.2805228 3.2852664 -0.83128536
1.3010157 3.2782519 -0.83151561
1.3170959 3.2602823 -0.82898319
1.3400366 3.2593396 -0.83082491
1.3678985 3.2699082 -0.83565956
1.3795516 3.2417543 -0.83059472
1.4090821 3.2555547 -0.8363502
1.4251105 3.2379408 -0.83404803
1.4493243 3.2389061 -0.8365804
1.4703795 3.2326095 -0.83727109
1.4987633 3.2420759 -0.84210569
1.5198696 3.2354608 -0.84279633
1.5380164 3.2225614 -0.84187549
1.5603085 3.2183173 -0.84325677
1.5568081 3.1615407 -0.83082491
1.5800955 3.1597621 -0.83289689
1.5937253 3.1387277 -0.82990408
1.6134001 3.1297545 -0.83013427
1.6163282 3.0887575 -0.82184637
1.6430112 3.0933914 -0.82576013
1.6568811 3.0738294 -0.8232277
1.6687047 3.0507994 -0.81977439
1.6826699 3.0319943 -0.81747222
1.6998097 3.0190687 -0.81678152
1.7009256 2.9781625 -0.80849361
1.7128249 2.9567235 -0.80550081
1.7472045 2.9738452 -0.81309801
1.7738875 2.9772801 -0.81701177
1.780547 2.9471831 -0.81171674
1.7838539 2.9121385 -0.80504036
1.8016889 2.9011381 -0.80504036
1.8189374 2.8892052 -0.80481011
1.8350604 2.8755293 -0.80411947
1.857427 2.8715689 -0.80619144
1.8590039 2.8357038 -0.79928488
1.8785226 2.8274858 -0.80020571
1.8789866 2.7908833 -0.79306895
1.9235002 2.8194935 -0.80457991
1.9269288 2.7876265 -0.79882443
1.9412055 2.7717655 -0.79767334
1.9379014 2.7312322 -0.78938544
1.948375 2.7105987 -0.78685302
1.9758551 2.7135386 -0.79122716
1.9872684 2.6943161 -0.78915519
2.0107529 2.6914263 -0.7919178
2.0213566 2.6712782 -0.78961563
2.0276451 2.6456952 -0.78570187
2.0414536 2.6301293 -0.78478104
2.0731912 2.637444 -0.79076672
2.0784247 2.61097 -0.78662276
2.0870767 2.589077 -0.78386015
2.1164632 2.5928061 -0.78892499
2.1341927 2.582021 -0.78961563
2.1462474 2.5644 -0.78823429
2.1650879 2.5548944 -0.78938544
2.197835 2.5615008 -0.79560137
2.212234 2.5464976 -0.79514092
2.1988933 2.4999962 -0.78478104
2.2245471 2.4980841 -0.78846455
2.2228897 2.4655969 -0.78247881
2.2386324 2.45263 -0.78270906
2.2655284 2.4517117 -0.78685302
2.2725508 2.4292374 -0.78409034
2.2994595 2.4279647 -0.78823429
2.315661 2.4152143 -0.78869474
2.3270476 2.397469 -0.78754365
2.3430786 2.3845336 -0.7880041
2.3508022 2.3632133 -0.78570187
2.3486848 2.3322892 -0.78017664
2.3573928 2.3123827 -0.77833486
2.3701391 2.2965202 -0.77787441
2.3827796 2.2805886 -0.77741396
2.4172368 2.2853112 -0.78409034
2.4233897 2.2631309 -0.78155792
2.4329381 2.2442601 -0.78017664
2.4373109 2.2207699 -0.77718377
2.4552317 2.2096786 -0.77856511
2.4883828 2.2120271 -0.78478104
2.4938641 2.1896551 -0.78224862
2.5050468 2.1723993 -0.78155792
2.5375471 2.1734452 -0.78754365
2.5642095 2.1691458 -0.79168761
2.5222037 2.1072054 -0.77465135
2.5410912 2.0966439 -0.77649313
2.5674882 2.0920763 -0.78063709
2.5916498 2.0854335 -0.78409034
2.6021111 2.0676761 -0.7833997
2.5979052 2.0384564 -0.77833486
2.618057 2.0284371 -0.78063709
2.6335459 2.0146997 -0.78155792
2.630327 1.9867733 -0.77695358
2.6416879 1.9700148 -0.77672333
2.6631303 1.9606913 -0.77948594
2.6916425 1.9563272 -0.78432059
2.7130845 1.9465815 -0.78708321
2.6733551 1.8933438 -0.77211893
2.731982 1.9097964 -0.78570187
2.7332354 1.8858137 -0.78270906
2.7085569 1.844363 -0.77234918
2.7432475 1.8434473 -0.77902555
2.753696 1.8260425 -0.7787953
2.7444897 1.7957931 -0.77303982
2.7464631 1.7731141 -0.7705074
2.7589326 1.7572742 -0.77096784
2.7844956 1.7496308 -0.77511179
2.777808 1.7217476 -0.7702772
2.7982838 1.7107612 -0.77303982
2.8170624 1.6985834 -0.77534199
2.8332868 1.6847473 -0.77695358
2.8343363 1.6619171 -0.77442116
2.8419526 1.6430337 -0.77373046
2.8545172 1.6270103 -0.77442116
2.8457811 1.598979 -0.76935631
2.8836329 1.597044 -0.77695358
2.8762934 1.5699968 -0.77234918
2.8884439 1.5537014 -0.77303982
2.8953433 1.534582 -0.77234918
2.8943529 1.5113832 -0.7695865
2.9156876 1.4998263 -0.77280962
2.911814 1.4753115 -0.76935631
2.9277778 1.4608926 -0.77119803
2.9165974 1.433032 -0.765903
2.9209552 1.4129907 -0.76475191
2.9286914 1.394623 -0.76452172
2.9354312 1.3758008 -0.76406127
2.9650266 1.3675435 -0.7695865
2.9627275 1.3444998 -0.76682389
2.9549258 1.3191563 -0.76267993
2.9504898 1.2955241 -0.75945687
2.9691048 1.2820241 -0.76221949
3.0261838 1.284693 -0.7748816
3.0205379 1.2604799 -0.77142829
3.0291154 1.2422918 -0.77165848
3.0231416 1.2182274 -0.76820523
3.0197012 1.1953576 -0.76544255
2.9961398 1.1648201 -0.75761509
3.0368702 1.159252 -0.76613325
2.9883373 1.1197718 -0.75208986
3.010679 1.107123 -0.75600356
3.0018535 1.083016 -0.75208986
3.0011029 1.0619801 -0.75024807
1.8316551 0.63564718 -0.45579726
1.8032742 0.61343181 -0.44773954
1.8042345 0.6014328 -0.4470489
1.8041904 0.5891431 -0.44612801
1.8096253 0.57865429 -0.44658846
1.8112842 0.56695855 -0.44612801
1.8156594 0.55611891 -0.44635823
1.8218342 0.54580522 -0.4470489
1.8279507 0.53543663 -0.44773954
1.8340085 0.52501357 -0.44843021
1.843756 0.51558399 -0.45004174
1.8403131 0.50246787 -0.44843021
1.8696917 0.49817824 -0.45487636
2.8287265 0.73501241 -0.68854922
1.9417002 0.4919171 -0.47099173
1.9059446 0.47043794 -0.46155274
1.9021716 0.4571436 -0.45994118
1.9002028 0.4443562 -0.45879009
1.8971999 0.43139455 -0.45740879
1.8931594 0.41827676 -0.45579726
1.8918841 0.40583676 -0.45487636
1.889575 0.39323008 -0.45372528
1.8890903 0.3810516 -0.45303461
1.8923481 0.36963961 -0.45326483
1.8945804 0.35802144 -0.45326483
1.970456 0.35984117 -0.47099173
3.2012751 0.56416667 -0.76613325
3.1931636 0.54255819 -0.76337057
3.1964326 0.52295512 -0.76337057
3.1861227 0.50121623 -0.76014751
3.17278 0.47918797 -0.75623381
3.1660295 0.45831773 -0.75393158
3.094558 0.42860889 -0.73620468
3.2366142 0.36756852 -0.76774478
3.2649336 0.35050461 -0.77396071
3.292196 0.33300897 -0.77994639
3.2893336 0.31234261 -0.7787953
3.2553227 0.28897297 -0.7702772
3.2541249 0.2687532 -0.7695865
3.2445583 0.22791442 -0.76659369
3.2565782 0.20868556 -0.76912612
3.1840622 0.16483888 -0.75139916
3.1975138 0.12621273 -0.75416183
3.1778035 0.10591177 -0.74932718
3.145319 0.085514732 -0.74149972
3.2450228 0.068294175 -0.76498216
3.160727 0.04712677 -0.74495304
3.1463602 0.027605202 -0.74149972
2.9767134 0.0080699027 -0.76558799
2.9195812 -0.010011503 -0.75083548
2.9223695 -0.027952682 -0.7515856
2.930856 -0.046018403 -0.75383598
2.88115 -0.062933408 -0.74108386
2.8681273 -0.080261305 -0.73783332
2.8627427 -0.097694248 -0.73658311
2.8620892 -0.11525787 -0.73658311
2.8593938 -0.13272777 -0.73608303
2.8759298 -0.15118128 -0.74058378
2.8720484 -0.16865516 -0.73983365
2.8622634 -0.18571225 -0.73758328
2.8572068 -0.20299765 -0.73658311
2.8462539 -0.21978204 -0.73408264
2.8332727 -0.23627916 -0.73108214
2.8279121 -0.25331464 -0.73008198
2.7993169 -0.26808321 -0.72308081
2.7976191 -0.28525445 -0.72308081
2.7919657 -0.30199933 -0.72208065
2.7881362 -0.3189052 -0.72158056
2.7861269 -0.33600688 -0.72158056
2.7715254 -0.351515 -0.71833003
2.7817936 -0.37017167 -0.72158056
2.7765932 -0.38683325 -0.72083044
2.7588365 -0.40163454 -0.71682978
2.762064 -0.41942573 -0.71833003
2.7460492 -0.43425134 -0.71482944
2.7328231 -0.4493669 -0.71207899
2.7185607 -0.46417385 -0.70907849
2.6994529 -0.47797975 -0.70482773
2.6840882 -0.49226654 -0.70157719
2.6715043 -0.50692368 -0.69907677
2.6645427 -0.52256173 -0.69807661
2.652745 -0.53717375 -0.69582623
2.6456077 -0.5526495 -0.69482607
2.6421671 -0.56887227 -0.69482607
2.6235015 -0.58172351 -0.6908254
2.6227148 -0.59845555 -0.69157553
2.5944836 -0.60879195 -0.68507445
2.5530469 -0.61563021 -0.67507273
2.5257239 -0.62547094 -0.66882169
2.5162077 -0.63952702 -0.66732144
2.4963076 -0.65080559 -0.66307074
2.4875901 -0.6648615 -0.66182053
2.4713228 -0.67679095 -0.65856999
2.4643266 -0.69115824 -0.65781987
2.463762 -0.70733386 -0.65882003
2.4315042 -0.71425813 -0.65131873
2.4270759 -0.72916412 -0.65131873
2.3688691 -0.72756839 -0.63681632
2.3440349 -0.73571616 -0.63131541
2.3145804 -0.74210989 -0.62456423
2.3118238 -0.75689989 -0.62506431
2.2997892 -0.76861745 -0.62306398
2.3060274 -0.78646177 -0.62606448
2.3048167 -0.8018682 -0.62706465
2.2852516 -0.81081879 -0.62306398
2.2656641 -0.81955975 -0.61906332
2.2587759 -0.83277678 -0.61856323
2.2409327 -0.84185696 -0.61506265
2.2248726 -0.85144138 -0.61206216
2.2150953 -0.86332005 -0.61081195
2.1917551 -0.86975753 -0.60581112
2.1675222 -0.875579 -0.60056019
2.1576309 -0.88702255 -0.59930998
2.1655476 -0.90584588 -0.60306066
2.1724231 -0.9244206 -0.60656124
2.1693761 -0.93888587 -0.60731137
2.1635745 -0.95217931 -0.60731137
2.1550395 -0.96425122 -0.60656124
2.1393864 -0.97304916 -0.60381079
2.1307385 -0.98493981 -0.60306066
2.1158903 -0.99388111 -0.60056019
2.1018865 -1.0030942 -0.59830981
2.1061485 -1.0210379 -0.60131037
2.0868125 -1.0275297 -0.59755969
2.070075 -1.0351211 -0.59455919
2.0455523 -1.0386032 -0.58930832
2.052052 -1.0577859 -0.59305894
2.043807 -1.0694598 -0.59255886
2.0183914 -1.0719938 -0.58705795
2.0109231 -1.0838991 -0.58680791
2.0110314 -1.0999326 -0.58880824
1.9890033 -1.1037987 -0.58430749
1.9754423 -1.112184 -0.58230716
1.9753082 -1.1281238 -0.58430749
1.9549417 -1.1324612 -0.58030683
1.9504613 -1.1459059 -0.58105695
1.9259228 -1.14745 -0.57580608
1.9196748 -1.1597461 -0.57605612
1.9075677 -1.16847 -0.57455587
1.8806181 -1.167899 -0.56855482
1.874236 -1.1799318 -0.56880486
1.8702263 -1.1934922 -0.56980503
1.8466052 -1.1944326 -0.5648042
1.8327622 -1.2014958 -0.56280386
1.8197092 -1.2089698 -0.56105357
1.8154701 -1.2222747 -0.56205374
1.7999363 -1.227937 -0.55955333
1.7780285 -1.2290522 -0.55505258
1.741897 -1.2199516 -0.54605103
1.7004166 -1.2065343 -0.53529924
1.59154 -1.1440738 -0.50304383
1.5758783 -1.1475511 -0.50029337
1.5625724 -1.1526029 -0.49829301
1.5352989 -1.1471078 -0.49179193
1.5228256 -1.1524185 -0.49004164
1.5041959 -1.1529094 -0.48629102
1.4848528 -1.152622 -0.48229033
1.4754683 -1.1599168 -0.4815402
1.4645349 -1.1659342 -0.48029
1.4505674 -1.1694316 -0.47803962
1.438863 -1.1746378 -0.47653937
1.4271497 -1.1797445 -0.47503912
1.4235975 -1.1915852 -0.47628933
1.4103483 -1.1952918 -0.474289
1.3971076 -1.1988808 -0.47228864
1.3904562 -1.2080654 -0.47253868
1.3822904 -1.2159351 -0.47228864
1.3842061 -1.2327619 -0.47553921
1.3924408 -1.2554908 -0.48104012
1.389003 -1.2679262 -0.48254037
1.3982682 -1.2921908 -0.48854139
1.5444961 -1.4449003 -0.54305053
1.5735736 -1.4902914 -0.55655283
1.6140352 -1.5474806 -0.57430583
1.6357833 -1.5876924 -0.5855577
1.6453537 -1.616695 -0.59255886
1.6463891 -1.6376826 -0.59655952
1.6397216 -1.6511879 -0.59780973
1.6356633 -1.6674372 -0.60006011
1.6159657 -1.6677097 -0.59655952
1.6097206 -1.6817894 -0.59805977
1.6140094 -1.7071093 -0.60356075
1.5988771 -1.7120283 -0.60181046
1.606073 -1.741017 -0.60856158
1.5947077 -1.7501234 -0.60831153
1.5424725 -1.7138274 -0.59230882
1.5370754 -1.7290473 -0.59430915
1.5590283 -1.7755433 -0.60706133
1.5722179 -1.8128654 -0.6165629
1.5673654 -1.8298301 -0.61906332
1.5435975 -1.824632 -0.61406249
1.5392036 -1.8422405 -0.61681294
1.4415711 -1.7471182 -0.58180708
1.5152569 -1.8594893 -0.61631286
1.4983538 -1.8619643 -0.61406249
1.4796699 -1.8620285 -0.61106199
1.4700106 -1.8733572 -0.61181211
1.4561152 -1.8792808 -0.61081195
1.4286666 -1.8674214 -0.60406083
1.4125111 -1.8699728 -0.6020605
1.4079591 -1.8879168 -0.60506099
1.405537 -1.9089929 -0.60906166
1.4068952 -1.9355915 -0.61481261
1.3944275 -1.943401 -0.61456257
1.3791177 -1.9471805 -0.61306232
1.3710289 -1.9611598 -0.61481261
1.3523685 -1.9599738 -0.61181211
1.3272324 -1.9490314 -0.60581112
1.3228122 -1.9683871 -0.6093117
1.3085681 -1.9732395 -0.60831153
1.2974967 -1.9828517 -0.60881162
1.2816279 -1.9850826 -0.60706133
1.2829537 -2.0141382 -0.61356241
1.2592328 -2.0039394 -0.60806149
1.2545683 -2.0239706 -0.61181211
1.257284 -2.0564086 -0.61931336
1.2251347 -2.0317526 -0.60956174
1.2146256 -2.0425599 -0.61056191
1.2025597 -2.0508094 -0.61081195
1.1875293 -2.0539589 -0.60956174
1.1868966 -2.082233 -0.61581278
1.1721998 -2.0861006 -0.61481261
1.1551535 -2.0856318 -0.61256224
1.1390857 -2.0867324 -0.61081195
1.1088214 -2.0612848 -0.60131037
1.1124851 -2.0988429 -0.61031187
1.0686449 -2.046418 -0.59305894
1.0618291 -2.0641279 -0.59630948
1.0513332 -2.0749223 -0.59755969
1.0459352 -2.0960603 -0.60181046
1.0228009 -2.0815854 -0.5958094
1.0201346 -2.1087375 -0.60181046
1.0188392 -2.139431 -0.60881162
1.0015812 -2.1368761 -0.6063112
1.0119855 -2.1939697 -0.62081361
0.99370009 -2.189559 -0.61781311
0.9960447 -2.2309756 -0.62781483
0.96753508 -2.203361 -0.61831319
0.94785202 -2.1950355 -0.61431253
0.94307393 -2.2213063 -0.62006348
0.925695 -2.2181165 -0.61756307
0.9028762 -2.2013619 -0.61131203
0.89550841 -2.2221255 -0.61556274
0.89148593 -2.251883 -0.62231386
0.86501217 -2.2248266 -0.61331236
0.8544547 -2.2382326 -0.61556274
0.84104502 -2.2443397 -0.61581278
0.82926476 -2.25491 -0.61731303
0.81804413 -2.2672412 -0.61931336
0.8025009 -2.2676547 -0.61806315
0.78221875 -2.2542431 -0.61306232
0.74902612 -2.2021725 -0.59755969
0.72722679 -2.1819282 -0.59080857
0.71713346 -2.1964729 -0.59355903
0.72311991 -2.2616947 -0.61006182
0.70749211 -2.2605453 -0.60856158
0.69304079 -2.2629924 -0.60806149
0.67747378 -2.2616377 -0.60656124
0.66440105 -2.2685394 -0.60731137
0.65126914 -2.2753656 -0.60806149
0.63442487 -2.2690628 -0.60531104
0.61385393 -2.2486291 -0.5988099
0.59006476 -2.2149317 -0.58880824
0.57621932 -2.2175736 -0.5885582
0.56188768 -2.2182519 -0.58780807
0.54965961 -2.2272978 -0.58930832
0.5430035 -2.2598109 -0.59705961
0.52007896 -2.2244477 -0.58680791
0.51458651 -2.2634721 -0.59630948
0.49922469 -2.2599692 -0.59455919
0.48900777 -2.2800295 -0.59905994
0.47678596 -2.2915182 -0.60131037
0.46386653 -2.3000948 -0.60281062
0.45271814 -2.3181016 -0.60681129
0.43866602 -2.3217871 -0.60706133
0.42371488 -2.3206253 -0.60606116
0.39768544 -2.2564371 -0.5885582
0.3864322 -2.2741067 -0.59255886
0.37231463 -2.2754796 -0.59230882
0.36060664 -2.2920675 -0.59605944
0.34972313 -2.3152986 -0.60156041
0.33703905 -2.3279412 -0.60431087
0.31875545 -2.301194 -0.59680957
0.30310288 -2.2915885 -0.59380907
0.29134154 -2.3116567 -0.59855986
0.27565137 -2.3009036 -0.59530932
0.26306155 -2.3160198 -0.5988099
0.24977845 -2.3262544 -0.60106033
0.23559783 -2.3287065 -0.60131037
0.22139654 -2.3310721 -0.60156041
0.20511366 -2.310205 -0.5958094
0.19221422 -2.326859 -0.59981006
0.17815541 -2.3308907 -0.60056019
0.16105683 -2.2923408 -0.59030849
0.14767244 -2.3039145 -0.59305894
0.13223895 -2.2825453 -0.58730799
0.11868405 -2.2920163 -0.58955836
0.1051955 -2.305275 -0.5928089
0.090663947 -2.2962024 -0.59030849
0.076410361 -2.291877 -0.58905828
0.06130917 -2.2545559 -0.57930666
0.047701493 -2.2655377 -0.58205712
0.033608261 -2.2532022 -0.57880658
0.019755926 -2.2504613 -0.57805645
0.0059951022 -2.2670002 -0.58230716
-0.0079834918 -2.2882953 -0.58780807
-0.021861132 -2.2707758 -0.58330733
-0.035973843 -2.2822163 -0.58630782
-0.049495149 -2.2596884 -0.58055687
-0.063332535 -2.2583742 -0.58030683
-0.077713415 -2.2734261 -0.58430749
-0.090770267 -2.2506549 -0.57855654
-0.10399745 -2.2374818 -0.575306
-0.11711705 -2.2251987 -0.57230544
-0.13054222 -2.220572 -0.57130527
-0.14360264 -2.2110331 -0.5690549
-0.15805583 -2.222666 -0.57230544
-0.16804874 -2.174351 -0.56005341
-0.17625105 -2.1115251 -0.54405069
-0.19377084 -2.1615164 -0.55730295
-0.20399116 -2.12848 -0.54905158
-0.22175136 -2.173425 -0.56105357
-0.23321275 -2.1546957 -0.55655283
-0.245441 -2.1445663 -0.55430245
-0.25975233 -2.152633 -0.55680287
-0.27186126 -2.1423535 -0.5545525
-0.28372639 -2.131047 -0.55205208
-0.29399574 -2.109127 -0.54680121
-0.30637452 -2.1034508 -0.54580098
-0.32174274 -2.1178052 -0.55005175
-0.3330701 -2.1052709 -0.54730129
-0.34692284 -2.1089203 -0.54880154
-0.35334677 -2.0685735 -0.53879982
-0.3633351 -2.0511112 -0.53479916
-0.37835583 -2.0621769 -0.53829974
-0.39136255 -2.0617189 -0.53879982
-0.40214446 -2.049777 -0.53629941
-0.41413829 -2.0444241 -0.53554928
-0.4316189 -2.0655398 -0.54180032
-0.43614173 -2.0249891 -0.53179866
-0.45358369 -2.0449626 -0.53779966
-0.46805936 -2.050637 -0.54005003
-0.47997016 -2.0448985 -0.53929991
-0.49432233 -2.0494454 -0.54130024
-0.50642318 -2.0444942 -0.54080015
-0.52134115 -2.0507326 -0.54330057
-0.53659874 -2.057802 -0.54605103
-0.55171287 -2.0638254 -0.5485515
-0.56640995 -2.0678725 -0.55055183
-0.58248359 -2.0764785 -0.55380237
-0.60162055 -2.0952022 -0.55980337
-0.61582845 -2.0961165 -0.56105357
-0.6339671 -2.1099184 -0.56580436
-0.66934043 -2.1791139 -0.5855577
-0.7012403 -2.2340939 -0.60156041
-0.70459706 -2.1974764 -0.5928089
-0.72137851 -2.2032344 -0.59555936
-0.74040383 -2.2152975 -0.60006011
-0.75835484 -2.2235436 -0.60356075
-0.7831111 -2.2508581 -0.6123122
-0.80014259 -2.2551363 -0.61481261
-0.80145836 -2.2155821 -0.60531104
-0.84449112 -2.290575 -0.62731469
-0.87758482 -2.3361127 -0.64131707
-0.89881879 -2.3487713 -0.6463179
-0.90372682 -2.3188519 -0.63956678
-0.92721725 -2.3366647 -0.64606786
-0.94045013 -2.3282378 -0.64531773
-0.94588834 -2.3009288 -0.63931674
-0.96409619 -2.3049083 -0.64206719
-0.9812516 -2.3060775 -0.64406753
-0.99269259 -2.2937925 -0.64231724
-1.0102564 -2.2956352 -0.64456761
-1.0286705 -2.2991159 -0.64731807
-1.0419569 -2.290998 -0.64681798
-1.0702056 -2.3153262 -0.65556949
-1.0880947 -2.3166041 -0.65781987
-1.1064565 -2.3186235 -0.66032028
-1.1320603 -2.3353179 -0.6670714
-1.1549177 -2.3457029 -0.67207223
-1.17102 -2.3420367 -0.6730724
-1.1945688 -2.3529398 -0.67832327
-1.2116439 -2.3507302 -0.67982352
-1.226045 -2.3432515 -0.67982352
-1.2417616 -2.3382502 -0.68057364
-1.2505755 -2.3203576 -0.67757314
-1.2541085 -2.2930996 -0.67182219
-1.2582937 -2.26758 -0.66657132
-1.263163 -2.2437835 -0.66182053
-1.2826661 -2.2460816 -0.66482103
-1.2954534 -2.2364931 -0.66432095
-1.3047398 -2.2209878 -0.66207057
-1.3366708 -2.2437217 -0.67132211
-1.3479106 -2.2313335 -0.6700719
-1.3691591 -2.2354076 -0.67382252
-1.3864236 -2.2327235 -0.67557281
-1.3846289 -2.1995885 -0.66807157
-1.4022642 -2.197582 -0.6700719
-1.4188757 -2.1938155 -0.67157215
-1.4243509 -2.1729195 -0.66782153
-1.4392636 -2.1665587 -0.66857165
-1.4476656 -2.1504569 -0.66632128
-1.4575608 -2.1367338 -0.66482103
-1.4607383 -2.1134107 -0.66032028
-1.4969969 -2.1377242 -0.67082202
-1.4882433 -2.0976956 -0.66107041
-1.5073004 -2.0971744 -0.66382086
-1.516152 -2.082406 -0.66207057
-1.4668549 -1.9888914 -0.63506603
-1.4993054 -2.0070076 -0.64381748
-1.5261924 -2.017077 -0.65006852
-1.5420728 -2.0122867 -0.65156877
-1.5609189 -2.0112021 -0.65431923
-1.5684448 -1.9954956 -0.65231889
-1.5872903 -1.994169 -0.65506941
-1.5928146 -1.9760982 -0.65231889
-1.60797 -1.9700389 -0.6535691
-1.6237274 -1.9646144 -0.65506941
-1.6233274 -1.9397608 -0.65006852
-1.637702 -1.932719 -0.65106869
-1.647009 -1.9196939 -0.65006852
-1.6200355 -1.8649535 -0.63481599
-1.6691641 -1.8978837 -0.64956844
-1.6891458 -1.8970088 -0.65281898
-1.6981614 -1.8837314 -0.65181881
-1.679019 -1.839656 -0.64006686
-1.6935599 -1.8328756 -0.64131707
-1.7292408 -1.8486183 -0.6505686
-1.731233 -1.8281285 -0.64706802
-1.7229909 -1.7971977 -0.63981682
-1.7407274 -1.7935413 -0.64231724
-1.7516996 -1.7828268 -0.64231724
-1.7871825 -1.7748452 -0.64731807
-1.8229157 -1.7882617 -0.65631962
-1.8442814 -1.7871523 -0.66007024
-1.8384297 -1.7597299 -0.65406919
-1.8625568 -1.7610586 -0.65882003
-1.8563485 -1.7337317 -0.65281898
-1.8619711 -1.7177119 -0.65106869
-1.8696138 -1.7036453 -0.65006852
-1.8735564 -1.6863104 -0.64781815
-1.8874855 -1.6780001 -0.64906836
-1.9093843 -1.6766118 -0.65306902
-1.9174418 -1.6629608 -0.65231889
-1.9356965 -1.658095 -0.65506941
-1.9487901 -1.6486888 -0.65606958
-1.9254409 -1.6087554 -0.64481765
-1.9539422 -1.6123215 -0.65106869
-1.973554 -1.6082557 -0.65431923
-1.9924349 -1.6034025 -0.65731978
-1.9923832 -1.5833136 -0.65406919
-1.9997761 -1.5692649 -0.65331906
-2.0108976 -1.5581515 -0.65381914
-2.0158074 -1.5422523 -0.65231889
-2.0345018 -1.5368602 -0.65531945
-2.0469975 -1.5266639 -0.65631962
-2.0524287 -1.5112038 -0.65506941
-2.0561814 -1.4945953 -0.65331906
-2.081044 -1.4932441 -0.65831995
-2.0727875 -1.4681307 -0.65281898
-2.0785832 -1.4531647 -0.65181881
-2.0954285 -1.4458843 -0.65431923
-2.0738549 -1.4122826 -0.64481765
-2.1081929 -1.4168198 -0.65281898
-2.1031313 -1.3947568 -0.64856827
-2.0994992 -1.3738704 -0.64481765
-2.1070762 -1.3604368 -0.64456761
-2.090889 -1.3318707 -0.63706636
-2.1252515 -1.335508 -0.64506769
-2.1317606 -1.321422 -0.64456761
-2.1621289 -1.3219594 -0.65131873
-2.1652253 -1.3056667 -0.64981848
-2.1657073 -1.2879006 -0.64756811
-2.1769094 -1.2765477 -0.64856827
-2.1847012 -1.2631664 -0.64856827
-2.1907284 -1.2487781 -0.64806819
-2.2000375 -1.2362617 -0.64856827
-2.2025003 -1.2199231 -0.64706802
-2.2099442 -1.206386 -0.64706802
-2.2266831 -1.1978513 -0.64981848
-2.2519538 -1.1936934 -0.65506941
-2.2532289 -1.1767142 -0.65331906
-2.2586851 -1.1619803 -0.65281898
-2.2709537 -1.1507264 -0.65431923
-2.2667105 -1.1311473 -0.65106869
-2.2744772 -1.1176449 -0.65131873
-2.2420752 -1.0846832 -0.64006686
-2.2626734 -1.0775701 -0.64406753
-2.2762554 -1.0669556 -0.64606786
-2.2933087 -1.057838 -0.64906836
-2.2927036 -1.0405436 -0.64706802
-2.3114214 -1.0319856 -0.6505686
-2.3150508 -1.016615 -0.64981848
-2.3283553 -1.0054636 -0.65181881
-2.3246784 -0.98699337 -0.64906836
-2.3360515 -0.97494966 -0.6505686
-2.3446767 -0.9617005 -0.65131873
-2.3577173 -0.95019293 -0.65331906
-2.3644032 -0.93606502 -0.6535691
-2.3917584 -0.92996609 -0.65957016
-2.3856614 -0.91078085 -0.65631962
-2.386672 -0.89442551 -0.65506941
-2.3957498 -0.88110203 -0.65606958
-2.3774333 -0.85783523 -0.64956844
-2.3698747 -0.83870584 -0.64606786
-2.3896105 -0.82923126 -0.65006852
-2.3891542 -0.81268102 -0.64856827
-2.4473672 -0.81577754 -0.66307074
-2.4118319 -0.78751194 -0.65206885
-2.4267623 -0.77594459 -0.65481937
-2.4379454 -0.76306576 -0.65656966
-2.461096 -0.75376785 -0.66157049
-2.4721668 -0.74059927 -0.66332078
-2.4822392 -0.72705072 -0.66482103
-2.4940999 -0.71393979 -0.66682136
-2.5002985 -0.69914478 -0.66732144
-2.5176172 -0.68736345 -0.67082202
-2.5199161 -0.67140371 -0.67032194
-2.5258625 -0.65641665 -0.67082202
-2.5298426 -0.64090586 -0.67082202
-2.5139883 -0.62049389 -0.66557115
-2.5186894 -0.60528314 -0.66582119
-2.5101004 -0.58694839 -0.66257066
-2.5079901 -0.57024622 -0.66107041
-2.5152233 -0.5556832 -0.66207057
-2.5176389 -0.54003626 -0.66182053
-2.5199573 -0.52438068 -0.66157049
-2.5202801 -0.50833368 -0.66082036
-2.5195508 -0.49211657 -0.6598202
-2.5130095 -0.47484756 -0.65731978
-2.535877 -0.46307659 -0.66257066
-2.5386708 -0.44750801 -0.66257066
-2.5595045 -0.43500945 -0.66732144
-2.5344162 -0.41475487 -0.66007024
-2.5751705 -0.40522575 -0.6700719
-2.5460165 -0.38463655 -0.66182053
-2.5464122 -0.36872923 -0.66132045
-2.5390363 -0.35176674 -0.65882003
-2.5737815 -0.34050643 -0.66732144
-2.5767829 -0.32482892 -0.66757149
-2.588341 -0.31016633 -0.6700719
-2.5699928 -0.29197851 -0.66482103
-2.560184 -0.27496028 -0.66182053
-2.5637496 -0.25944155 -0.66232061
-2.6077034 -0.24774532 -0.67332244
-2.5773487 -0.22890568 -0.66507107
-2.6095824 -0.21564618 -0.6730724
-2.6040986 -0.19911166 -0.67132211
-2.5801597 -0.1813582 -0.66482103
-2.5995824 -0.166705 -0.66957182
-2.598623 -0.15063858 -0.66907173
-2.5975647 -0.13459022 -0.66857165
-2.5857677 -0.11807211 -0.66532111
-2.6154678 -0.1033579 -0.67282236
-2.602505 -0.086852334 -0.66932178
-2.5836315 -0.070350207 -0.66432095
-2.5733664 -0.054268844 -0.66157049
-2.5930135 -0.038772184 -0.66657132
-2.6067572 -0.022983821 -0.6700719
-2.5952303 -0.006954662 -0.6670714
-2.599097 0.008981945 -0.66807157
-2.6038339 0.024974793 -0.66932178
-2.6171854 0.041161034 -0.67282236
-2.6004276 0.05686317 -0.66857165
-2.6126118 0.073167346 -0.67182219
-2.5859864 0.0883108 -0.66507107
-2.615387 0.10537758 -0.67282236
-2.6311338 0.1221829 -0.67707306
-2.6225991 0.13792001 -0.67507273
-2.6120379 0.15344392 -0.67257231
-2.6129794 0.16959314 -0.6730724
-2.6292744 0.18685417 -0.67757314
-2.6251824 0.20276059 -0.67682302
-2.601696 0.21701881 -0.67107207
-2.5964577 0.23263374 -0.6700719
-2.6036561 0.24938969 -0.67232227
-2.5789585 0.26300877 -0.66632128
-2.602325 0.28152961 -0.67282236
-2.5967007 0.29705262 -0.67182219
-2.5900226 0.3124015 -0.67057198
-2.5957415 0.32926059 -0.67257231
-2.5888731 0.34454408 -0.67132211
-2.6126037 0.36402404 -0.67807323
-2.6036136 0.37907296 -0.67632294
-2.592623 0.39373496 -0.67407256
-2.5892019 0.4094846 -0.67382252
-2.5866406 0.4253639 -0.67382252
-2.594481 0.44301742 -0.67657298
-2.5697846 0.45505083 -0.67082202
-2.5755157 0.47238013 -0.6730724
-2.5611529 0.48601091 -0.6700719
-2.5780764 0.50562513 -0.67532277
-2.5682824 0.52009082 -0.67357248
-2.5460863 0.53188443 -0.66857165
-2.5787454 0.55523276 -0.67807323
-2.5686727 0.56957954 -0.67632294
-2.5622973 0.58468437 -0.67557281
-2.5699737 0.60304689 -0.67857331
-2.5624599 0.61789763 -0.67757314
-2.5811779 0.6391893 -0.6835742
-2.564069 0.65167916 -0.68007356
-2.5834465 0.67350054 -0.68632466
-2.5886202 0.69183737 -0.68882507
-2.5712514 0.70413065 -0.68532449
-2.5631533 0.71884936 -0.68432432
-2.5754468 0.73936814 -0.68882507
-2.574578 0.75624752 -0.68982524
-2.5624704 0.76980376 -0.6878249
-2.5253015 0.77557093 -0.67907339
-2.5167997 0.78989249 -0.67807323
-2.5063732 0.80354816 -0.67657298
-2.5188804 0.82463133 -0.68132377
-2.5156097 0.84068477 -0.68182391
-2.5131536 0.8570413 -0.68257403
-2.5078475 0.87244564 -0.68257403
-2.4951463 0.88522887 -0.68057364
-2.5033264 0.90545887 -0.68432432
-2.5059006 0.92381424 -0.6865747
-2.5083432 0.94223511 -0.68882507
-2.4998014 0.95657086 -0.68807495
-2.4893739 0.9701345 -0.68682474
-2.4698734 0.98003733 -0.68307412
-2.4718943 0.9984355 -0.68532449
-2.4907985 1.0238854 -0.69232565
-2.4844692 1.0391494 -0.69232565
-2.4905207 1.0596784 -0.69582623
-2.4866378 1.0760931 -0.69657636
-2.4684663 1.0862634 -0.69332582
-2.4591029 1.1002036 -0.69257569
-2.4478986 1.1132685 -0.69132549
-2.4471743 1.1311097 -0.69307578
-2.4340527 1.1432241 -0.69132549
-2.4313619 1.1602216 -0.69257569
-2.4302967 1.1780733 -0.69432598
-2.4299724 1.196383 -0.69632632
-2.4173892 1.2086736 -0.69482607
-2.4064736 1.2217313 -0.6938259
-2.4152858 1.2448986 -0.69857669
-2.3930159 1.2520678 -0.69432598
-2.3998272 1.2744442 -0.69857669
-2.4013391 1.294196 -0.70132715
-2.3797591 1.3014759 -0.69732648
-2.3827362 1.322158 -0.70057702
-2.3745787 1.3367532 -0.70057702
-2.3621273 1.3488985 -0.69932681
-2.3571579 1.3653072 -0.70032698
-2.356251 1.3841568 -0.70257735
-2.355201 1.4030466 -0.70482773
-2.3225102 1.4029588 -0.69757652
-2.3212903 1.4217325 -0.6998269
-2.3010054 1.4288011 -0.69632632
-2.3110442 1.4547518 -0.70207727
-2.2988093 1.4668221 -0.7010771
-2.2743161 1.4709128 -0.69632632
-2.2587686 1.4805952 -0.69432598
-2.250448 1.4949625 -0.69457603
-2.2436428 1.5103643 -0.69532615
-2.2607329 1.5421017 -0.70357752
-2.2679574 1.5675011 -0.70882845
-2.2543304 1.5786115 -0.70757818
-2.2390733 1.5884937 -0.70582789
-2.2387207 1.6089813 -0.70882845
-2.2178454 1.6147115 -0.70532781
-2.2141311 1.6328857 -0.70732814
-2.2071736 1.6487576 -0.70832831
-2.2031934 1.6669416 -0.7103287
-2.202148 1.6874938 -0.7133292
-2.205523 1.7116565 -0.71782994
-2.1858423 1.7179793 -0.71482944
-2.1608636 1.7199059 -0.71007866
-2.1495159 1.7325249 -0.70982862
-2.1380944 1.7450695 -0.70957857
-2.1363044 1.7655554 -0.71257907
-2.1425126 1.7929182 -0.71833003
-2.1255603 1.8010246 -0.71632969
-2.1034443 1.8045787 -0.71257907
-2.1062233 1.8295119 -0.71732986
-2.0942309 1.8417617 -0.71707982
-2.0850604 1.8565081 -0.71782994
-2.0973673 1.890655 -0.72608131
-2.0943108 1.911319 -0.72908181
-2.0761418 1.9182214 -0.72683144
-2.0565529 1.9236504 -0.72408098
-2.0165834 1.9096096 -0.71407932
-2.0432785 1.958791 -0.7278316
-2.0360856 1.9760106 -0.72958189
-2.0266862 1.9911802 -0.73058206
-2.0123703 2.0015304 -0.72983193
-2.0034635 2.0172744 -0.73108214
-1.9903699 2.0288384 -0.7308321
-1.9785576 2.0417082 -0.73108214
-1.9713502 2.0594041 -0.73308247
-1.9540191 2.0665379 -0.73133218
-1.9353528 2.0721214 -0.72908181
-1.9166918 2.077554 -0.72683144
-1.9163022 2.1028702 -0.73158222
-1.904659 2.1160278 -0.73208231
-1.9051528 2.1428676 -0.73733324
-1.8977199 2.1610637 -0.73958361
-1.8844242 2.172667 -0.73958361
-1.8735777 2.1871295 -0.74058378
-1.8532414 2.190455 -0.73783332
-1.8540491 2.2188709 -0.74358428
-1.8465638 2.2376719 -0.74608469
-1.839529 2.2572148 -0.74883515
-1.8347527 2.2797718 -0.75258577
-1.803255 2.2690084 -0.74533457
-1.8120195 2.3089695 -0.75483614
-1.7895125 2.3093312 -0.75133556
-1.7658926 2.3079667 -0.7473349
-1.7487791 2.3148963 -0.74608469
-1.7501764 2.3465352 -0.75283581
-1.7363198 2.3580093 -0.75308585
-1.7371944 2.3897612 -0.75983697
-1.7213693 2.3988025 -0.75933689
-1.7060581 2.4085295 -0.75908685
-1.7084517 2.4435477 -0.76683819
-1.6653714 2.4133482 -0.75408602
-1.6647072 2.4443252 -0.7605871
-1.6556208 2.4633319 -0.76333761
-1.6361922 2.46699 -0.76133722
-1.6411785 2.5077651 -0.77083886
-1.6304888 2.5251074 -0.77308923
-1.6024748 2.5154686 -0.76708823
-1.600925 2.547385 -0.77383935
-1.5791405 2.5472863 -0.77083886
-1.5604494 2.5519722 -0.76933861
-1.556766 2.5813954 -0.7753396
-1.5295103 2.5717611 -0.76958865
-1.5088015 2.5727468 -0.76708823
-1.4983205 2.5911751 -0.76983869
-1.4756773 2.5885451 -0.76633811
-1.4754261 2.6254022 -0.77458948
-1.4719614 2.6572714 -0.7813406
-1.4593421 2.6730511 -0.78334093
-1.4282278 2.6546729 -0.7753396
-1.4200783 2.6787829 -0.77984035
-1.4121348 2.7037506 -0.78459114
-1.3986205 2.7183907 -0.78634143
-1.3854172 2.7338297 -0.78834176
-1.3629935 2.7310178 -0.78509122
-1.3355299 2.7176075 -0.77884018
-1.3424556 2.7745543 -0.79284257
-1.3287382 2.7897317 -0.7948429
-1.2861038 2.7434828 -0.77934027
-1.2826364 2.7803333 -0.78759164
-1.2663532 2.7899141 -0.78809172
-1.2515805 2.8029358 -0.78959203
-1.2402012 2.8238592 -0.79334265
-1.2240033 2.8340821 -0.79409277
-1.2213567 2.8762937 -0.80384439
-1.1958491 2.8649712 -0.79859352
-1.1705267 2.8534446 -0.79334265
-1.1450291 2.8408182 -0.78784168
-1.1450516 2.8918984 -0.80009377
-1.1230724 2.888042 -0.79709327
-1.1257186 2.9482424 -0.81184572
-1.0997872 2.934243 -0.80609477
-1.080759 2.93821 -0.80534464
-1.0636967 2.9475181 -0.80609477
-1.0420352 2.9439497 -0.80334431
-1.0360228 2.9850447 -0.81284589
-1.0092624 2.9665978 -0.80609477
-0.99379826 2.9810009 -0.80834514
-0.97368401 2.9815207 -0.80684489
-0.96333933 3.0123374 -0.81359601
-0.94339061 3.0135717 -0.8123458
-0.93509769 3.0526295 -0.82134736
-0.91106588 3.0406883 -0.81659657
-0.87958908 3.002552 -0.80484456
-0.86621624 3.0255775 -0.80959535
-0.84946209 3.0373626 -0.81134564
-0.83514833 3.0583954 -0.81559634
-0.82509935 3.0962057 -0.82434785
-0.79999179 3.0777841 -0.81809682
-0.78704196 3.1060979 -0.82434785
-0.7572853 3.0676301 -0.81284589
-0.73867488 3.0731602 -0.81309593
-0.72355616 3.0936615 -0.81734669
-0.70778376 3.1122043 -0.82109731
-0.69181085 3.1306694 -0.82484794
-0.66994548 3.1225488 -0.8215974
-0.65037829 3.1247051 -0.82109731
-0.62889326 3.1172478 -0.81809682
-0.60975432 3.1210482 -0.81809682
-0.58897233 3.1161685 -0.81584638
-0.57297581 3.1368675 -0.82034719
-0.55472749 3.1460452 -0.82184744
-0.5363881 3.1551168 -0.82334769
-0.51639211 3.1545267 -0.82234752
-0.50365913 3.1997187 -0.83334935
-0.48966649 3.2400849 -0.84310097
-0.46574572 3.2152405 -0.83584976
-0.44201532 3.1892664 -0.82834852
-0.42561856 3.2159147 -0.83459955
-0.4012675 3.1819627 -0.82509798
-0.3820821 3.1872489 -0.8258481
-0.36427084 3.2049255 -0.82984877
-0.34356266 3.1974738 -0.82734835
-0.32794338 3.2390165 -0.83760005
-0.30714488 3.2313292 -0.83509964
-0.28765562 3.2370105 -0.8360998
-0.26386961 3.1914332 -0.82384777
-0.24680009 3.2258158 -0.83234918
-0.22809222 3.2427227 -0.83634984
-0.20819096 3.2440612 -0.83634984
-0.18833813 3.2462442 -0.83659989
-0.16735895 3.2270334 -0.83134902
-0.145557 3.1844747 -0.82009715
-0.12755334 3.2240067 -0.83009881
-0.10796399 3.2305348 -0.83159906
-0.088272735 3.2359757 -0.83284926
-0.068601362 3.2451687 -0.83509964
-0.048335001 3.2222936 -0.82909864
-0.028413355 3.2060702 -0.82484794
-0.0087662209 3.2148981 -0.82709831
0.011121931 3.2652392 -0.84010047
0.031030135 3.251555 -0.83659989
0.051040687 3.2551758 -0.83760005
0.071034044 3.2557695 -0.83785009
0.09152028 3.2736616 -0.84260088
0.1106539 3.2449758 -0.83534968
0.12959395 3.2200491 -0.82909864
0.151226 3.2598159 -0.83960038
0.1702127 3.2394886 -0.83459955
0.19036937 3.243216 -0.83584976
0.21195267 3.2680748 -0.84260088
0.23275365 3.2773366 -0.8453514
0.2502571 3.2420588 -0.83659989
0.2707873 3.2481813 -0.83860022
0.29079881 3.2474229 -0.83885026
0.30841702 3.2214813 -0.83259922
0.32827583 3.2204916 -0.83284926
0.34834197 3.2213047 -0.83359939
0.36645377 3.2046769 -0.82984877
0.38460612 3.1898711 -0.82659823
0.40380675 3.1845694 -0.8258481
0.42996934 3.2319415 -0.83885026
0.44005474 3.1592352 -0.82059723
0.46486267 3.1938443 -0.83034885
0.48314467 3.1823161 -0.82809848
0.49964157 3.1601639 -0.82309765
0.52153265 3.1723258 -0.82709831
0.54782307 3.2091532 -0.83760005
0.56733513 3.204778 -0.83735001
0.58332533 3.1812365 -0.83209914
0.60229319 3.1747434 -0.83134902
0.61692268 3.1462834 -0.82484794
0.63986319 3.1604702 -0.82959872
0.65766138 3.1489019 -0.82759839
0.68877763 3.1997097 -0.8421008
0.70106941 3.1623368 -0.83334935
0.7228269 3.1683598 -0.8360998
0.73893952 3.1497247 -0.83234918
0.75371706 3.1263051 -0.82734835
0.76986283 3.1094029 -0.82409781
0.78821242 3.1018052 -0.82334769
0.80918217 3.1044064 -0.82534802
0.82771564 3.0975118 -0.82484794
0.84747261 3.0951765 -0.82559806
0.8685382 3.0973768 -0.82759839
0.87578106 3.051038 -0.81659657
0.89421272 3.044678 -0.81634653
0.91148591 3.0344973 -0.81509626
0.92554349 3.0140369 -0.8110956
0.94604784 3.0147684 -0.81284589
0.96984512 3.0255044 -0.81734669
0.98447758 3.0075333 -0.81409609
1.0013796 2.9968441 -0.81284589
1.0206859 2.9933927 -0.81359601
1.0266351 2.951406 -0.80384439
1.0395489 2.9304497 -0.79984373
1.0667255 2.9495122 -0.80684489
1.0965177 2.9747107 -0.81559634
1.1195132 2.9806173 -0.81909698
1.141239 2.9827356 -0.8215974
1.1577624 2.9711659 -0.82034719
1.1784695 2.9703064 -0.82209748
1.1742036 2.9073527 -0.80659485
1.1986431 2.9162142 -0.8110956
1.2157673 2.9070177 -0.81059551
1.2358547 2.9048495 -0.81209576
1.2517335 2.8927681 -0.81084555
1.2624438 2.8690798 -0.80634481
1.2808148 2.8630474 -0.80684489
1.3011622 2.8613048 -0.80859518
1.3134161 2.8418403 -0.80534464
1.3258916 2.82321 -0.80234414
1.3506917 2.8307521 -0.80684489
1.3595927 2.8049841 -0.80184406
1.3968695 2.8374207 -0.81359601
1.4142532 2.8287961 -0.81359601
1.4175644 2.7924349 -0.80559468
1.4045209 2.7251537 -0.7885918
1.4230103 2.7199163 -0.78959203
1.4546522 2.7393568 -0.7978434
1.4645457 2.717593 -0.79409277
1.489552 2.7238483 -0.79859352
1.5038892 2.7104237 -0.79734331
1.5162188 2.6935503 -0.79509294
1.5231186 2.6673782 -0.79009211
1.5472182 2.6713893 -0.79409277
1.5635804 2.6618457 -0.79409277
1.5838466 2.6588571 -0.79609311
1.5836167 2.6217356 -0.78784168
1.5910797 2.5979309 -0.78359097
1.6120962 2.5963461 -0.78609139
1.6331528 2.5946007 -0.7885918
1.6573722 2.5975928 -0.79259253
1.6701257 2.5824957 -0.79109228
1.6976136 2.5900168 -0.79659319
1.703298 2.5642259 -0.7918424
1.7222427 2.5585463 -0.79334265
1.714456 2.513531 -0.78259081
1.7138871 2.4798617 -0.7753396
1.7412853 2.4867499 -0.78084052
1.7486702 2.4649615 -0.77733994
1.7711056 2.4644082 -0.78059047
1.7867633 2.4542773 -0.78084052
1.7920223 2.4300184 -0.77658981
1.809216 2.4220803 -0.77758998
1.8433162 2.4364183 -0.78584135
1.8476337 2.4112263 -0.7813406
1.8707023 2.4105546 -0.78484118
1.8956263 2.4119742 -0.78909189
1.8880866 2.3722625 -0.77984035
1.906859 2.3659108 -0.78159064
1.9280727 2.3624187 -0.7843411
1.9517815 2.3617411 -0.78809172
1.9475999 2.3274403 -0.78059047
1.9731078 2.3287454 -0.78509122
1.9690814 2.2952797 -0.77784002
1.9812236 2.2809613 -0.77708989
1.9894288 2.2622168 -0.77483952
2.0064905 2.2535837 -0.77608973
2.0300024 2.2520194 -0.77984035
2.0405195 2.2359445 -0.77859014
2.0496023 2.2184029 -0.77683985
2.0631757 2.205785 -0.77683985
2.0620284 2.177614 -0.77133894
2.0914285 2.1816988 -0.77733994
2.1094949 2.1736896 -0.77909023
2.1248279 2.1627777 -0.77984035
2.1223578 2.1339064 -0.7740894
2.1553295 2.1406345 -0.7813406
2.1601315 2.1192307 -0.7783401
2.1703136 2.1032407 -0.77733994
2.1691923 2.0764906 -0.77233911
2.2219853 2.1010683 -0.78659147
2.2129042 2.0669024 -0.77884018
2.2319484 2.0591955 -0.78109056
2.2388175 2.0402431 -0.77909023
2.2383428 2.0148053 -0.77458948
2.2311299 1.9836588 -0.76783836
2.2614443 1.9859074 -0.7740894
2.2706618 1.969456 -0.77308923
2.2731459 1.9472954 -0.76983869
2.3227425 1.9652138 -0.78259081
2.3072712 1.9279478 -0.77333927
2.3183107 1.913138 -0.77308923
2.3367598 1.9043834 -0.7753396
2.3506634 1.8918312 -0.77608973
2.3463118 1.8647181 -0.77083886
2.3820791 1.8694196 -0.77884018
2.3759048 1.8411239 -0.77308923
2.392539 1.8306307 -0.77483952
2.4083612 1.8194187 -0.77633977
2.4117196 1.7988164 -0.77383935
2.426609 1.7868561 -0.77508956
2.4437919 1.7764887 -0.77708989
2.4562192 1.7625898 -0.77758998
2.469358 1.7491651 -0.7783401
2.4729035 1.7289857 -0.77608973
2.4547813 1.6939763 -0.76708823
2.4859333 1.6930573 -0.77358931
2.4962747 1.677772 -0.77358931
2.4879663 1.650111 -0.76783836
2.5280163 1.6544378 -0.77708989
2.5047753 1.6173539 -0.76683819
2.4966891 1.5905058 -0.76133722
2.5252538 1.5870099 -0.76708823
2.5300071 1.5684235 -0.76558799
2.541235 1.5538807 -0.76608807
2.5722761 1.5512638 -0.77258915
2.5884027 1.5394123 -0.77458948
2.5902839 1.5190912 -0.77233911
2.5844703 1.4944416 -0.76783836
2.5969555 1.4804742 -0.76883852
2.6085227 1.4659353 -0.76958865
2.6149278 1.4484941 -0.76883852
2.6509578 1.4472744 -0.77683985
2.5907302 1.393809 -0.75658643
2.6300268 1.3942187 -0.76558799
2.6411066 1.3794001 -0.76633811
2.6383295 1.3574078 -0.76308757
2.6604259 1.3481995 -0.76708823
2.685107 1.3400683 -0.77183902
2.7028365 1.3282671 -0.77458948
2.6891484 1.3011107 -0.76833844
2.6883407 1.2804205 -0.76583803
2.6926401 1.2622565 -0.76483786
2.7170377 1.2534207 -0.76958865
2.7220325 1.2355245 -0.76883852
2.7216063 1.2152447 -0.76658815
2.7352166 1.201249 -0.76833844
2.7087615 1.1698484 -0.75883681
2.7114329 1.1513127 -0.7575866
2.7130854 1.1324152 -0.75608635
2.7307312 1.1201584 -0.75908685
2.7429409 1.1055548 -0.7605871
2.7631752 1.0940531 -0.76433778
2.7752502 1.0791845 -0.76583803
2.7981002 1.0683558 -0.77033877
2.7746859 1.0399468 -0.76208735
2.7882838 1.0255774 -0.76408774
2.8018095 1.0110804 -0.76608807
2.7687154 0.97996968 -0.75533623
2.1673517 0.75204176 -0.58930832
1.8208764 0.61922002 -0.49354222
1.8145382 0.60466516 -0.49079177
1.8126923 0.59171546 -0.48929152
1.8264327 0.58382803 -0.49204198
1.8262846 0.5714525 -0.49104181
1.8260539 0.55910075 -0.49004164
1.8322324 0.54872006 -0.49079177
1.8327774 0.53665018 -0.49004164
1.8360356 0.52539438 -0.49004164
1.8429545 0.51516265 -0.49104181
1.8339391 0.50052667 -0.48779127
2.759413 0.73527724 -0.73433268
