# .PCD v0.7 - Point Cloud Data file format
VERSION 0.7
FIELDS x y z
SIZE 4 4 4
TYPE F F F
COUNT 1 1 1
WIDTH 1458
HEIGHT 1
VIEWPOINT 0 0 0 1 0 0 0
POINTS 1458
DATA ascii
-0.98705196 2.2257118 -0.033828087
-0.97457564 2.2344761 -0.033869974
-0.96439302 2.2486849 -0.033995636
-0.93115813 2.2084904 -0.033297524
-8.9999065 21.722086 -0.32815087
-8.8886986 21.831541 -0.32897463
-8.7490053 21.871742 -0.32876518
-8.2646675 22.227947 -0.33097121
-8.1195564 22.254757 -0.33062217
-7.9609499 22.242966 -0.32971463
-7.8282933 22.302717 -0.32988217
-8.0074549 23.741558 -0.34969449
-7.8575501 23.777903 -0.34951299
-7.7050376 23.805689 -0.3492198
-6.2494435 20.149027 -0.29440427
-6.1259842 20.187948 -0.29441822
-6.0000067 20.218447 -0.29432049
-5.8986783 20.333628 -0.29546538
-5.8749647 20.726343 -0.30064535
-5.7212696 20.666599 -0.29926309
-5.5977454 20.713863 -0.29944462
-6.3660755 24.144405 -0.34849375
-6.5372529 25.425478 -0.36640725
-14.592963 59.790932 -0.85923034
-14.235756 59.921177 -0.85983068
-13.89461 60.123333 -0.86149222
-5.9545674 26.50573 -0.37916866
-10.325391 59.476498 -0.84275496
-8.8099537 59.356907 -0.83774251
-4.7911544 35.253448 -0.49661854
-4.3213787 36.871006 -0.51820403
2.2059569 22.418531 -0.31438413
1.0629661 10.163568 -0.14252366
1.1235465 10.140954 -0.14230026
1.380079 11.794374 -0.16564503
1.4536451 11.795607 -0.16578466
1.520858 11.746801 -0.16522618
12.052471 72.120728 -1.0208565
1.1098877 6.4008532 -0.090542465
1.1694859 6.5070972 -0.092148118
1.2015243 6.4575286 -0.091547742
1.2275184 6.3793392 -0.090542465
11.763811 35.62006 -0.52363533
11.984386 35.553841 -0.52373308
12.188005 35.43803 -0.52311873
16.779282 46.015434 -0.68375361
16.482075 44.352924 -0.6605345
12.531775 32.495941 -0.48616084
15.964885 40.653324 -0.60969824
16.359913 40.919479 -0.61518538
16.656286 40.930393 -0.61687481
15.36795 36.475922 -0.55252308
15.30788 35.719215 -0.54247034
15.264283 35.022396 -0.53329718
15.112655 34.101685 -0.52067536
12.123681 26.910198 -0.41196582
12.191986 26.624388 -0.4087266
12.082161 25.962545 -0.39969307
12.206614 25.814703 -0.39856213
12.151755 25.295879 -0.39169273
12.020399 24.634043 -0.38257542
11.910693 24.03392 -0.37437963
12.014787 23.874641 -0.37303928
12.175611 23.828962 -0.37348607
12.30594 23.723627 -0.37301135
11.939761 22.67622 -0.35768086
14.003734 25.822355 -0.41001111
13.933896 25.321585 -0.40340701
13.875997 24.85409 -0.39730555
13.764108 24.302135 -0.3898218
13.75606 23.944117 -0.38542372
13.688263 23.491226 -0.37947583
13.644938 23.090012 -0.37433776
13.569459 22.643909 -0.36844572
13.497334 22.213289 -0.36277705
13.479185 21.879765 -0.35867217
13.389657 21.438757 -0.35278013
13.363697 21.107821 -0.34867525
13.323385 20.761189 -0.34429115
13.264063 20.392387 -0.33951607
13.169905 19.978355 -0.33395913
13.232809 19.808208 -0.33246517
13.164078 19.445944 -0.327732
13.071609 19.056419 -0.32251012
13.026226 18.742672 -0.31854486
12.971731 18.422031 -0.31443998
12.950383 18.154057 -0.31121475
12.86533 17.802761 -0.30653739
12.852652 17.55728 -0.3036612
12.836856 17.311829 -0.30077103
12.783106 17.020069 -0.29705709
12.773486 16.7917 -0.29443219
12.680994 16.459543 -0.28996429
12.671031 16.239527 -0.28745109
12.64149 15.99829 -0.28454697
12.566989 15.704946 -0.28069341
12.6436 15.603457 -0.28026056
12.711831 15.492346 -0.2796602
12.767672 15.367143 -0.2788085
10.883613 12.937221 -0.23590273
12.935189 15.185709 -0.27837569
12.994818 15.067438 -0.27766362
13.046906 14.941477 -0.27681193
13.120458 14.840916 -0.27643493
13.187265 14.733309 -0.27593231
13.255934 14.628406 -0.27548552
13.331246 14.531322 -0.27519229
13.402467 14.4302 -0.2748293
13.483222 14.339679 -0.2746757
13.538552 14.222638 -0.27401948
13.597117 14.109779 -0.27344704
13.666679 14.008907 -0.27311194
13.724977 13.89704 -0.27256742
13.796556 13.79913 -0.27230212
13.871009 13.704378 -0.27210668
13.931221 13.595963 -0.2716459
13.989186 13.485938 -0.27115723
14.057913 13.386745 -0.27089196
14.136146 13.296811 -0.27082214
14.194759 13.188725 -0.27038932
14.255526 13.083124 -0.27001235
14.31331 12.975262 -0.26959348
14.357643 12.855843 -0.26893726
14.459475 12.788039 -0.26937008
14.570803 12.728021 -0.26998442
14.718277 12.698467 -0.27126893
14.853758 12.657206 -0.27233005
15.001525 12.62506 -0.27361459
15.134076 12.578792 -0.27461985
15.251162 12.518682 -0.27534589
15.45197 12.525609 -0.27757984
15.562101 12.457431 -0.27818021
15.740221 12.442317 -0.27999529
15.890363 12.403336 -0.28130773
16.054871 12.373964 -0.28287151
16.162321 12.29944 -0.28342998
16.360596 12.292535 -0.28558016
16.471851 12.218723 -0.28620848
16.615086 12.16764 -0.28739524
16.78586 12.135174 -0.28905675
16.978022 12.116168 -0.29108128
17.110085 12.052648 -0.29207259
17.258425 11.999378 -0.29334313
17.433136 11.962843 -0.29506049
17.644472 11.949282 -0.29739216
17.762352 11.870794 -0.29814613
17.930016 11.824337 -0.29973781
18.146385 11.807897 -0.30213931
18.297588 11.747108 -0.30345175
18.490963 11.711658 -0.3054623
18.626925 11.638245 -0.30652344
18.795025 11.583538 -0.30811512
19.013563 11.557848 -0.31053057
19.184462 11.501117 -0.31216416
19.379478 11.456971 -0.31418869
19.523703 11.381152 -0.31538942
1.0185204 0.58563656 -0.016235741
1.036884 0.58775574 -0.016473098
1.0448357 0.58382034 -0.016542908
1.0597855 0.58366704 -0.016724417
1.0668625 0.57906067 -0.016780265
1.0703955 0.57250363 -0.016780265
1.0738881 0.565925 -0.016780265
1.0782279 0.55978566 -0.016794227
1.0771906 0.55088371 -0.016724417
1.0787643 0.54336447 -0.016696492
1.0847656 0.53806758 -0.016738379
1.085351 0.5300855 -0.016696492
1.0813733 0.51995093 -0.016584795
1.0881588 0.51501632 -0.016640643
1.0967373 0.51086199 -0.016724417
1.0953059 0.50204057 -0.016654605
1.1056584 0.49859747 -0.016766302
1.1059546 0.4905881 -0.016724417
1.0951958 0.47779796 -0.016514983
1.1109728 0.47658536 -0.016710455
1.0650424 0.44917533 -0.015970459
1.0760921 0.44607639 -0.016096119
22.80949 9.2868595 -0.34371868
23.220686 9.2885866 -0.34905225
23.379614 9.1861544 -0.35058808
23.648235 9.1245918 -0.35377145
23.885178 9.0480328 -0.35648012
24.068645 8.9490452 -0.35839295
24.222673 8.8375216 -0.35987294
24.655838 8.8245115 -0.36549968
24.913311 8.7445889 -0.36851552
25.118719 8.6439419 -0.37076342
25.317196 8.5388641 -0.3729136
25.660582 8.4796743 -0.37720001
25.994669 8.4135094 -0.38134676
26.259319 8.3215113 -0.38447431
26.429264 8.1972561 -0.38621956
26.542213 8.0540962 -0.38714108
26.770388 7.9442787 -0.389752
27.182589 7.8854475 -0.39504367
27.303572 7.7392335 -0.39610478
27.615553 7.6449161 -0.39994439
27.967936 7.5580158 -0.4043704
28.50495 7.5157647 -0.4114632
28.785851 7.4012227 -0.41485599
29.140125 7.3019848 -0.41930994
29.486485 7.1967793 -0.42365217
29.762592 7.0709543 -0.42698914
29.976883 6.9278264 -0.42944649
30.159311 6.7753201 -0.43145704
30.621367 6.6820149 -0.43747473
30.850586 6.5339837 -0.44016942
30.997837 6.3666935 -0.44170529
31.397205 6.2481904 -0.44684336
31.791365 6.1240768 -0.45191163
32.429935 6.0409527 -0.46045649
32.828541 5.9070129 -0.46559456
33.401081 5.7986789 -0.47320396
33.645107 5.6285996 -0.47616392
33.820179 5.444778 -0.47816053
34.421139 5.3250546 -0.48618877
34.961544 5.1892037 -0.49336535
34.096195 2.0977693 -0.47683412
34.246201 1.896147 -0.4787609
33.458237 1.6466649 -0.46759117
33.68549 1.4507154 -0.47063491
33.451942 1.2350715 -0.46725607
33.50087 1.0310826 -0.46784246
33.51656 0.82575208 -0.46798208
33.472179 0.41374782 -0.46725607
27.234816 0.16956395 -0.38013205
15.084578 -0.028046425 -0.50263852
15.03815 -0.12023754 -0.50110537
14.997154 -0.21194443 -0.49977216
14.839689 -0.30080825 -0.49457273
14.626756 -0.38629901 -0.48754019
14.533209 -0.47308487 -0.4845072
14.503068 -0.56120783 -0.48360729
14.405498 -0.64598203 -0.48047429
14.077862 -0.71788383 -0.46967551
14.020308 -0.80123067 -0.46790904
14.01014 -0.88692701 -0.46774238
13.929656 -0.96768367 -0.46524268
13.688258 -1.0353574 -0.4573769
13.597973 -1.1124859 -0.45457721
13.499295 -1.1878452 -0.45151088
13.374339 -1.2596004 -0.44757798
13.20824 -1.3257769 -0.44227856
13.113393 -1.3975855 -0.43937889
13.066832 -1.4737669 -0.43811238
13.094263 -1.5582838 -0.43934557
13.11024 -1.6418271 -0.44021213
13.249548 -1.7419033 -0.44524491
13.178214 -1.8148537 -0.44321179
13.320165 -1.9177479 -0.44837788
13.344716 -2.0049353 -0.4496111
13.29859 -2.081526 -0.44847786
13.219475 -2.1523278 -0.44624481
13.151819 -2.224237 -0.44441167
13.075906 -2.2940156 -0.44231188
13.04585 -2.3713458 -0.44177863
13.031054 -2.4513488 -0.44177863
13.022635 -2.5325949 -0.44201192
12.978434 -2.6067467 -0.44104537
12.923049 -2.6782207 -0.4397122
12.904417 -2.7570472 -0.43964553
12.901898 -2.839397 -0.44014546
12.888133 -2.9193909 -0.4402788
12.857323 -2.9954686 -0.4398455
12.829953 -3.0722089 -0.43954554
12.829301 -3.1554086 -0.44017881
12.801946 -3.2321117 -0.43991217
12.711243 -3.2923121 -0.43747911
12.662789 -3.362807 -0.43651253
12.604306 -3.4302075 -0.4352127
12.552214 -3.4988952 -0.43414614
12.50552 -3.5687189 -0.43327957
12.465159 -3.6400621 -0.4326463
12.42631 -3.7116165 -0.4320797
12.390875 -3.783999 -0.43164641
12.336893 -3.8504298 -0.43057987
12.289229 -3.9184654 -0.42974663
12.164219 -3.961 -0.42621368
12.07614 -4.0144434 -0.42398059
12.00585 -4.0730553 -0.42238078
11.964576 -4.141089 -0.42181417
11.937999 -4.2140918 -0.42178085
11.928843 -4.293354 -0.42238078
11.90603 -4.3678436 -0.42251411
11.892112 -4.4457145 -0.42298073
11.883289 -4.525713 -0.42364731
11.905615 -4.6180573 -0.42544711
11.903083 -4.7013001 -0.42638034
11.899978 -4.7846861 -0.42731357
11.912021 -4.8746443 -0.4288134
11.932632 -4.9687719 -0.43064654
11.896399 -5.0395565 -0.43044657
11.915736 -5.1342058 -0.43227968
11.953582 -5.2377033 -0.43481272
11.989693 -5.3414512 -0.43731245
12.040453 -5.452847 -0.44037879
12.067598 -5.5546193 -0.44261187
12.055016 -5.6387219 -0.44341177
12.009358 -5.7074361 -0.44301182
11.964211 -5.7762375 -0.44264519
11.930339 -5.85042 -0.44271186
11.856641 -5.9048018 -0.44131202
11.779159 -5.9566965 -0.43977883
11.618798 -5.965414 -0.43514603
11.547411 -6.0185795 -0.43384618
11.472275 -6.0692248 -0.43241301
1.5406883 -0.8278532 -0.057921439
1.4864309 -0.81051588 -0.05605498
1.4910514 -0.82493973 -0.056421608
1.4868335 -0.83456194 -0.056454938
1.4764724 -0.84070414 -0.056254957
1.4522415 -0.83875823 -0.055521708
11.1364 -6.5183644 -0.42991328
11.078145 -6.5758619 -0.42921335
11.010186 -6.6272202 -0.42814681
10.866085 -6.6316581 -0.42411393
10.81924 -6.6945252 -0.42388061
10.775419 -6.7591915 -0.42378062
10.737117 -6.8273253 -0.42391396
10.563127 -6.8080792 -0.4186812
10.533705 -6.8809638 -0.41918114
10.442115 -6.9129195 -0.41721469
10.354682 -6.9467955 -0.4154149
10.306903 -7.0068283 -0.41521493
10.266186 -7.0716395 -0.41531491
10.222601 -7.1344986 -0.41531491
10.025208 -7.0886183 -0.40904894
9.9815254 -7.1499987 -0.40904894
9.9140062 -7.194088 -0.4080824
9.8294106 -7.2251887 -0.40641591
9.6991138 -7.2215047 -0.40284964
9.6450443 -7.2736607 -0.40244967
9.5859356 -7.321785 -0.40184975
9.4254074 -7.2911897 -0.39698362
9.3498077 -7.3248487 -0.39568377
9.1034575 -7.2224483 -0.38711804
9.0122204 -7.2406149 -0.38511828
8.8668318 -7.2137852 -0.38078544
8.8077459 -7.2559824 -0.38015217
8.7607555 -7.3079686 -0.38005218
8.7126951 -7.3590064 -0.37991884
8.6848478 -7.4272676 -0.38068545
8.5779085 -7.4274278 -0.37798575
8.4930906 -7.445663 -0.37625259
8.4592056 -7.5082502 -0.37678587
8.4293318 -7.5747089 -0.37751913
8.3745632 -7.6188903 -0.3771525
8.3739729 -7.7127867 -0.37925225
8.31845 -7.756526 -0.37888563
8.2648859 -7.8019328 -0.37861902
8.2334776 -7.8683786 -0.37938559
8.1821699 -7.9159708 -0.37925225
8.115593 -7.9485445 -0.37841901
8.0609903 -7.9925618 -0.3781524
7.9976888 -8.0277128 -0.37748578
7.964406 -8.0930176 -0.37825239
7.9807835 -8.2098112 -0.38141868
7.9683342 -8.2982731 -0.38325182
7.9647274 -8.3970413 -0.38555157
7.9567909 -8.4924297 -0.38768464
7.9506974 -8.5909681 -0.38995108
8.057662 -8.8144102 -0.39785019
8.0610323 -8.9274759 -0.40071654
8.0526714 -9.0289793 -0.40304962
8.0367613 -9.1232147 -0.40504938
7.9976883 -9.1919584 -0.40591595
7.96068 -9.2635975 -0.40691584
7.9586654 -9.3770351 -0.40974885
7.9696822 -9.5076447 -0.41331512
7.9494367 -9.6025572 -0.41531491
7.9226313 -9.6906128 -0.41701472
7.8962989 -9.7802553 -0.41878119
7.8747721 -9.8769722 -0.42084762
7.8393693 -9.9572992 -0.42221415
7.8272018 -10.068336 -0.4248805
7.8017921 -10.163739 -0.42688027
7.8038807 -10.296643 -0.43044657
7.8201995 -10.450757 -0.43487939
7.8171005 -10.58134 -0.43831235
7.9304838 -10.873769 -0.44841123
16.180613 -23.064701 -0.93915647
16.046753 -23.175053 -0.93962312
15.918349 -23.293707 -0.94045633
5.9779358 -9.1036673 -0.36278743
6.8448262 -10.564368 -0.41938111
6.7852592 -10.61459 -0.41971442
6.716269 -10.650106 -0.4194811
6.6555467 -10.698753 -0.41978109
6.564683 -10.698502 -0.41818124
6.4192171 -10.606907 -0.41304851
6.3330112 -10.610909 -0.41168198
6.2475052 -10.615115 -0.4103488
6.1626887 -10.619538 -0.40904894
6.071104 -10.611176 -0.40728247
5.991641 -10.622983 -0.40631592
5.9035192 -10.618493 -0.40474942
5.8305688 -10.640493 -0.40421614
5.7385736 -10.626822 -0.40234968
5.6577663 -10.632719 -0.4012498
5.5840645 -10.651301 -0.40064988
5.4979639 -10.645405 -0.39915004
5.4193983 -10.653107 -0.39818349
5.3499002 -10.678117 -0.3978835
5.2741084 -10.690128 -0.39711693
5.2053585 -10.715995 -0.39688364
5.1369209 -10.742323 -0.39668366
5.0658026 -10.762789 -0.39628369
4.9904256 -10.773719 -0.39555046
4.9076433 -10.76776 -0.39421725
4.8361645 -10.785815 -0.39378399
4.7836075 -10.846377 -0.39491719
4.7253175 -10.894779 -0.3956171
4.6556349 -10.917133 -0.39538381
4.5943575 -10.959319 -0.39588374
4.5361652 -11.00948 -0.39668366
4.4752789 -11.053782 -0.39728358
4.4110641 -11.090321 -0.39761689
4.3491154 -11.133003 -0.39818349
4.2954006 -11.197737 -0.39954999
4.2417593 -11.2641 -0.40098318
4.180881 -11.312414 -0.40178308
4.1243396 -11.373558 -0.40304962
4.0648599 -11.42784 -0.40408283
4.0140867 -11.508244 -0.40604928
3.9547174 -11.565756 -0.4072158
3.8887584 -11.604965 -0.40774909
3.8230908 -11.6457 -0.40834901
3.7589047 -11.691774 -0.40914893
3.6972985 -11.747031 -0.41028214
3.6425111 -11.82585 -0.41224858
3.5750716 -11.865202 -0.4128485
3.5208461 -11.950189 -0.41504827
3.4529874 -11.990775 -0.41571486
3.3850338 -12.03194 -0.4164148
3.313262 -12.060194 -0.41668141
3.2443774 -12.099603 -0.41734803
3.1895533 -12.193733 -0.41991439
3.1344364 -12.290549 -0.42258078
3.067884 -12.345438 -0.42381397
3.0000703 -12.397058 -0.42494717
2.9376969 -12.473601 -0.42694694
2.8669078 -12.516721 -0.4278135
2.7974377 -12.567245 -0.42894673
2.7325246 -12.640832 -0.43087983
2.6659925 -12.71018 -0.43267962
2.5921376 -12.746866 -0.43337956
2.5188987 -12.788028 -0.43424612
2.4452519 -12.828768 -0.43511271
2.3715625 -12.871051 -0.43604591
2.3044508 -12.952271 -0.43831235
2.2431941 -13.072551 -0.44191194
1.7053351 -11.168262 -0.37635258
1.6579245 -11.322893 -0.3812187
1.5916092 -11.355617 -0.38198531
1.5241586 -11.38201 -0.38255191
1.4450474 -11.318776 -0.38011885
1.3793063 -11.358186 -0.38115206
1.3072988 -11.346578 -0.38048545
1.2383031 -11.360347 -0.38068545
1.1651994 -11.334924 -0.37958556
1.0908198 -11.292118 -0.37791908
1.0168296 -11.24684 -0.37618595
0.94511509 -11.220998 -0.37511939
0.87476778 -11.207653 -0.37448612
0.80734497 -11.23175 -0.37511939
0.7422176 -11.294336 -0.37705252
0.67248654 -11.291694 -0.37681919
0.6022824 -11.278641 -0.37625259
0.38996789 -8.2571907 -0.27526388
0.33855557 -8.2414532 -0.27466393
0.28808552 -8.2463713 -0.27476391
0.23722172 -8.2389927 -0.27446395
0.26565912 -11.715464 -0.39038435
0.19393522 -11.726867 -0.39071766
0.12167382 -11.698853 -0.38975111
0.048166122 -11.300605 -0.37645257
-0.021195773 -11.312681 -0.37685254
-0.090608686 -11.312338 -0.37685254
-0.16339733 -11.551412 -0.38485163
-0.25335193 -12.493474 -0.41631481
-0.33103302 -12.53065 -0.41761464
-0.42200628 -12.961913 -0.4320797
-0.50207156 -12.973062 -0.43254632
-0.58327353 -13.00568 -0.43374619
-0.66687793 -13.076717 -0.43624592
-0.7531991 -13.179146 -0.43981218
-0.85941613 -13.575252 -0.45321068
-0.9482336 -13.649487 -0.45587704
-1.0380695 -13.724135 -0.45857674
-1.1431102 -13.972514 -0.46710914
-1.2356519 -14.042893 -0.46970883
-1.3835196 -14.690784 -0.49167305
-1.4817159 -14.762568 -0.49437276
-1.5739632 -14.769099 -0.49490604
-1.6731765 -14.835637 -0.49747241
-1.7614594 -14.802265 -0.49670583
-1.8484027 -14.760435 -0.49567261
-1.9386758 -14.746834 -0.49560595
-2.0315778 -14.752482 -0.4962059
-2.1162214 -14.699181 -0.49483937
-2.1956863 -14.614758 -0.49243963
-2.2768214 -14.5467 -0.49060652
-2.3583286 -14.485106 -0.4890067
-2.4408319 -14.432917 -0.48774016
-2.5195034 -14.361556 -0.48584038
-2.5981059 -14.293709 -0.48407391
-2.6826215 -14.2608 -0.48350731
-2.7529063 -14.155775 -0.48050764
-2.8383355 -14.131758 -0.48027432
-2.9213428 -14.09646 -0.4796744
-2.9992225 -14.038197 -0.47830787
-3.0754237 -13.974628 -0.47677472
-3.1518409 -13.914556 -0.47537488
-3.2289977 -13.859912 -0.47417501
-3.3083949 -13.816511 -0.47337511
-3.38762 -13.773629 -0.47260851
-3.4644871 -13.722543 -0.47157529
-3.5348418 -13.647813 -0.46974218
-3.602102 -13.564044 -0.46760908
-3.6813254 -13.527221 -0.46710914
-3.765599 -13.509192 -0.46727577
-3.8456769 -13.476221 -0.46694249
-3.9142878 -13.404402 -0.465276
-3.9804463 -13.326503 -0.46340954
-4.0507588 -13.264549 -0.46210968
-4.1293931 -13.230858 -0.46180972
-4.204123 -13.185275 -0.46110979
-4.268549 -13.108863 -0.45934334
-4.3277826 -13.01888 -0.45711026
-4.3976312 -12.962738 -0.45607704
-4.4708762 -12.917566 -0.45544377
-4.5058122 -12.764542 -0.45101091
-4.5752506 -12.712204 -0.45014435
-4.6455927 -12.663248 -0.44941109
-4.707809 -12.593313 -0.44794461
-4.7533374 -12.481062 -0.44497827
-4.8081474 -12.395752 -0.4429785
-4.8650265 -12.317677 -0.44124535
-4.9311948 -12.264412 -0.4404121
-4.9957576 -12.208023 -0.43947887
-5.0536685 -12.136542 -0.43801239
-5.093349 -12.023399 -0.43504605
-5.1543736 -11.962548 -0.43397948
-5.2304845 -11.937104 -0.4342128
-5.3150177 -11.930349 -0.43514603
-5.3971906 -11.917542 -0.43587929
-5.4860921 -11.918702 -0.4371458
-5.5553098 -11.876667 -0.43684584
-5.5838962 -11.749378 -0.43341288
-5.6120009 -11.623988 -0.43004659
-5.6194181 -11.459215 -0.42521381
-5.6499753 -11.344895 -0.42224747
-5.692872 -11.257391 -0.42028102
-5.7481456 -11.195574 -0.41928113
-5.7548385 -11.041328 -0.41481498
-5.7846251 -10.934249 -0.41211528
-5.7542238 -10.717151 -0.40524936
-5.8012276 -10.647414 -0.4039495
-5.8321209 -10.549514 -0.40158311
-5.7891917 -10.321751 -0.3942506
-5.8375902 -10.259974 -0.3932507
-5.8984361 -10.220498 -0.3931174
-5.8146372 -9.9339666 -0.38345179
-5.8356934 -9.8310633 -0.38085207
-5.8448834 -9.7102966 -0.37755245
-5.8330302 -9.5573692 -0.37298629
-5.8142643 -9.3964596 -0.36808684
-5.8240161 -9.2844048 -0.36508718
-5.7575407 -9.0545101 -0.35742137
-5.7528944 -8.9257603 -0.35372177
-5.7501669 -8.8024321 -0.35022217
-5.767108 -8.7111464 -0.34798908
-5.7597618 -8.5851269 -0.34435615
-5.7853618 -8.5099487 -0.34275633
-5.7977853 -8.4166727 -0.34042326
-5.7886925 -8.2940617 -0.33689031
-5.7725463 -8.1637211 -0.33302408
-5.7445459 -8.019269 -0.32855791
-5.7513828 -7.9256263 -0.3261582
-5.8099675 -7.9038773 -0.3267248
-5.8655176 -7.8776999 -0.32712474
-5.9089298 -7.8351769 -0.3268581
-5.8841 -7.7034578 -0.32285854
-5.875001 -7.5944772 -0.31979224
-5.7815843 -7.3796844 -0.31222641
-5.8435268 -7.3652115 -0.3131263
-5.8685794 -7.3042846 -0.31205976
-5.9334693 -7.2929478 -0.3131263
-5.9787416 -7.2571754 -0.31315964
-5.9879498 -7.1781402 -0.3113265
-6.0280118 -7.136682 -0.31112653
-6.086628 -7.1170316 -0.31189311
-6.1373782 -7.0878625 -0.31225973
-6.1748238 -7.0433064 -0.31195977
-6.2039928 -6.9895883 -0.31125984
-6.2280598 -6.9305735 -0.31032661
-6.2462568 -6.8656125 -0.30912676
-6.2916512 -6.830833 -0.30929339
-6.2898269 -6.7453151 -0.30716032
-6.2995396 -6.673161 -0.30562714
-6.3645329 -6.6596727 -0.30679369
-6.408751 -6.6240869 -0.30696031
-6.3737516 -6.5075202 -0.30336073
-6.4114504 -6.4661598 -0.30326074
-6.4602089 -6.4358683 -0.30369404
-6.4974403 -6.3940053 -0.30359402
-6.5458665 -6.3630743 -0.30402732
-6.5732527 -6.3117132 -0.30349404
-6.5523992 -6.2148585 -0.30076101
-6.5634255 -6.1492519 -0.29952782
-6.5797615 -6.0891762 -0.29856128
-6.592659 -6.0264339 -0.29746139
-6.6117101 -5.9697924 -0.29666147
-6.6295691 -5.9124794 -0.29582822
-6.6559734 -5.8631015 -0.29539496
-6.6805139 -5.8123093 -0.29489499
-6.7296953 -5.7829347 -0.29549494
-6.7620044 -5.7389464 -0.29536161
-6.808579 -5.7069788 -0.29586157
-6.8196034 -5.6453362 -0.29482836
-6.8347712 -5.5875697 -0.29399511
-6.8852563 -5.5587125 -0.29469502
-6.9348636 -5.5288229 -0.29536161
-6.9631605 -5.4818387 -0.29512832
-6.9682608 -5.4169264 -0.29392844
-6.9450798 -5.3308568 -0.29156205
-7.0007567 -5.3056502 -0.2925286
-7.0547853 -5.2787633 -0.29342851
-7.0653381 -5.2193408 -0.2925286
-7.084311 -5.1664672 -0.29199532
-7.0980349 -5.1100531 -0.29126209
-7.1651006 -5.0918813 -0.29272857
-7.2387538 -5.0776687 -0.29446173
-7.2968888 -5.0519333 -0.29556161
-7.3558049 -5.0262389 -0.29669482
-7.3914785 -4.9843626 -0.29689479
-7.4094424 -4.9306097 -0.29639482
-7.4203424 -4.8724346 -0.29562825
-7.4450669 -4.8235512 -0.29542828
-7.63199 -4.8784485 -0.30166093
-15.207409 -9.5905657 -0.59916109
-15.336404 -9.5408964 -0.6019274
-15.56332 -9.5501194 -0.60852671
-15.660957 -9.4782505 -0.61005986
-15.747998 -9.3993959 -0.61119306
-15.810542 -9.3056326 -0.61139303
-15.907106 -9.2315235 -0.61292619
-15.971257 -9.1382122 -0.61322618
-16.053143 -9.0547743 -0.61422604
-16.414074 -8.8641405 -0.62169188
-16.462862 -8.7604418 -0.62149191
-16.476473 -8.6383772 -0.61999208
-16.511406 -8.5279436 -0.61932546
-16.574112 -8.4319096 -0.61972547
-16.659492 -8.3470678 -0.62099195
-16.722046 -8.2504387 -0.62142527
-16.749882 -8.1367607 -0.620592
-16.759821 -8.0148582 -0.61912549
-16.780651 -7.8986759 -0.6180923
-16.79162 -7.778338 -0.6167258
-16.811749 -7.6627235 -0.61572587
-16.857536 -7.5590158 -0.61569256
-16.904516 -7.4558411 -0.61572587
-16.946278 -7.3503857 -0.61559254
-16.992899 -7.2470508 -0.61565924
-17.060087 -7.1523089 -0.61649245
-17.138767 -7.0619664 -0.61775899
-17.216051 -6.9705505 -0.61899221
-17.291 -6.8777142 -0.62015873
-17.352427 -6.7791266 -0.62085867
-17.412357 -6.6796865 -0.62152523
-17.46611 -6.5776525 -0.62199187
-17.538952 -6.4824867 -0.6231584
-17.659199 -6.4040537 -0.62602472
-17.707577 -6.2989283 -0.62635803
-17.767599 -6.1977301 -0.62712461
-17.856359 -6.1060576 -0.62892443
-17.924761 -6.0068588 -0.63002431
-17.978373 -5.9023738 -0.63062423
-18.025667 -5.7956209 -0.63102418
-8.1816034 -2.5748975 -0.28562936
-7.9364934 -2.4443169 -0.27653039
-7.8891411 -2.3768284 -0.27436396
-7.7118397 -2.2718749 -0.26769805
-7.707387 -2.2192574 -0.26706478
-7.628499 -2.1459346 -0.26386514
-7.4728713 -2.0527442 -0.25803244
-7.3656249 -1.9747496 -0.25389957
-7.3253903 -1.9158576 -0.25209978
-7.2672811 -1.8530874 -0.24970005
-7.2358375 -1.7978537 -0.24823354
-7.1913633 -1.7400192 -0.24633376
-7.1805024 -1.6908196 -0.24560051
-7.138135 -1.6346767 -0.2438007
-7.1353483 -1.5880234 -0.24336742
-7.143981 -1.5440006 -0.24333408
-7.1494083 -1.4993161 -0.24320078
-7.1525965 -1.4542247 -0.24300079
-7.1456957 -1.4072186 -0.24246752
-7.1257243 -1.3579186 -0.24150096
-7.0985384 -1.3076489 -0.2403011
-7.0936365 -1.2617919 -0.23986781
-7.1032152 -1.2185806 -0.23993447
-7.1026697 -1.173669 -0.23966783
-7.0791397 -1.1251993 -0.23863462
-7.1017184 -1.084156 -0.23916788
-7.0805483 -1.0365045 -0.23823465
-7.0719275 -0.9909578 -0.23773472
-7.0729222 -0.94688308 -0.23756807
-7.0686855 -0.90220034 -0.23723477
-7.0641661 -0.85760534 -0.23690148
-7.0563884 -0.81275642 -0.2364682
-7.0900555 -0.77258629 -0.23743474
-7.09864 -0.72947699 -0.23756807
-7.0840802 -0.68407983 -0.23693481
-7.0712233 -0.63906902 -0.23636821
-7.0540972 -0.59390604 -0.23566829
-7.0506334 -0.55006695 -0.23543498
-7.1186724 -0.51145607 -0.2376014
-7.122674 -0.46783268 -0.23763473
-7.096478 -0.4223952 -0.23666817
-7.0949435 -0.37863067 -0.23653485
-7.1061187 -0.33551484 -0.23683481
-7.0930648 -0.29128969 -0.23633488
-7.0677495 -0.24681771 -0.23543498
-7.0851154 -0.20390765 -0.23596825
-7.1012211 -0.16077106 -0.2364682
-7.1110682 -0.117345 -0.23676816
-7.1136527 -0.073730998 -0.23683481
-7.1019778 -0.030029245 -0.23643486
-7.0710459 0.013491965 -0.23540165
-7.0888195 0.057021894 -0.23600158
-7.1043253 0.10074227 -0.23653485
-7.0975776 0.14421043 -0.23633488
-7.1025548 0.18791568 -0.23653485
-7.1032658 0.23155755 -0.2366015
-7.1426578 0.27672064 -0.23796803
-7.1378303 0.32040778 -0.23786804
-7.1387243 0.36435121 -0.23796803
-7.1642928 0.40974209 -0.23890126
-7.1945601 0.45577586 -0.24000113
-7.207581 0.50101978 -0.24053441
-7.2003841 0.54493392 -0.24040109
-7.2218075 0.59114051 -0.24123433
-7.2130666 0.63500381 -0.24106768
-7.2040601 0.67878205 -0.24090102
-7.2285981 0.7258659 -0.24186759
-7.2289767 0.77073538 -0.24203424
-7.2290778 0.81563693 -0.24220088
-7.2775292 0.86635333 -0.24400069
-7.2770348 0.91161186 -0.24416733
-7.2554493 0.95416206 -0.24363406
-7.2603493 1.0001621 -0.24400069
-7.2867212 1.0493903 -0.24510056
-7.2613664 1.0912607 -0.2444673
-7.2644081 1.1373401 -0.2448006
-7.3076024 1.190081 -0.2465004
-7.3257852 1.2392291 -0.24736698
-7.3436379 1.2886449 -0.24823354
-7.3464088 1.335646 -0.24860017
-7.3567381 1.3842072 -0.24923344
-7.3951974 1.4384772 -0.25083324
-7.3940711 1.4854002 -0.25109988
-7.3828607 1.5303359 -0.25103325
-7.3928795 1.5797828 -0.25169984
-7.456254 1.6412224 -0.25419953
-7.5055041 1.700408 -0.25623265
-7.5241303 1.7532307 -0.25723255
-7.5453067 1.8070438 -0.25833243
-7.5835743 1.8654783 -0.26003224
-7.5855513 1.9153997 -0.26049885
-7.5717211 1.9614066 -0.26043218
-7.6764264 2.0388629 -0.26446506
-7.6493058 2.0819902 -0.26396513
-7.6854877 2.14257 -0.26566494
-7.7510056 2.2121727 -0.26839796
-7.8034844 2.2790179 -0.27069771
-7.8180828 2.3354359 -0.27169758
-7.8208117 2.3886163 -0.27229753
-7.972971 2.4886599 -0.2781302
-7.9899263 2.5478554 -0.27926341
-8.0872335 2.633652 -0.28322965
-8.1306725 2.7030842 -0.2853294
-8.1536856 2.7664061 -0.28672925
-8.2602863 2.859201 -0.29109544
-8.350028 2.9477515 -0.29489499
-8.3543539 3.0070529 -0.29569492
-8.4436512 3.0978374 -0.29952782
-8.5096779 3.1814318 -0.30256081
-9.9190464 3.7777519 -0.35355514
-9.8994064 3.8399885 -0.35368845
-9.8654327 3.8966196 -0.35332182
-9.7875547 3.9354575 -0.35138869
-9.7382469 3.9852197 -0.35048881
-9.7025394 4.040288 -0.35008886
-9.6766453 4.0993552 -0.35005552
-9.6118412 4.1416492 -0.34862235
-9.5761776 4.1961365 -0.34825572
-9.5475111 4.2535958 -0.34815574
-9.5603809 4.3298259 -0.3495889
-9.5381737 4.3904948 -0.34975556
-9.4974747 4.4425864 -0.34925562
-9.4898958 4.5102148 -0.34998885
-9.4611435 4.5679245 -0.34995553
-9.4149895 4.6170912 -0.34928894
-9.480422 4.7215509 -0.35278854
-9.4664345 4.7872996 -0.35335514
-9.4271021 4.8402739 -0.35298854
-9.420269 4.9100356 -0.3538551
-9.3961487 4.9710159 -0.3540884
-9.4491243 5.0734859 -0.35725471
-9.4134283 5.1289783 -0.35708806
-9.3826551 5.1871247 -0.35712141
-9.3306007 5.2333541 -0.35635483
-9.2939701 5.2880363 -0.35618818
-9.2942438 5.3639455 -0.35745469
-9.2775459 5.4304643 -0.35808796
-9.2629585 5.4985108 -0.35882121
-9.2367525 5.5598822 -0.35912117
-9.237442 5.6377983 -0.3604877
-9.2400723 5.7175093 -0.36195418
-9.2014294 5.7719731 -0.36182088
-7.4107008 4.7124224 -0.29246193
-7.4421344 4.7967854 -0.29486167
-7.3623552 4.809567 -0.29286191
-9.0761747 6.0087376 -0.36258745
-7.1874108 4.8221612 -0.28822908
-7.210587 4.9021301 -0.29036218
-7.216589 4.9712253 -0.29182869
-7.1285777 4.9753752 -0.28949562
-7.0522141 4.9867115 -0.28762916
-7.4025598 5.3028321 -0.30326074
-7.3626027 5.3428707 -0.30296078
-7.3103523 5.3737411 -0.30216086
-8.6184511 6.4169841 -0.3579213
-8.5980663 6.4841866 -0.35872123
-8.5517645 6.5319681 -0.35845459
-8.5154762 6.5873756 -0.35862124
-8.4756832 6.6401176 -0.35865456
-8.4293003 6.6876502 -0.35842127
-8.3896656 6.7404976 -0.3584879
-8.3388443 6.7842803 -0.35808796
-8.2847176 6.8251519 -0.35755467
-8.2403803 6.8739371 -0.35745469
-8.2293539 6.950809 -0.35882121
-8.2009821 7.013514 -0.35945448
-8.1797066 7.0826731 -0.36042103
-8.1819391 7.1729169 -0.36245415
-8.1646843 7.2468677 -0.36365402
-8.1483145 7.3222122 -0.36492053
-8.1446352 7.4097333 -0.36678699
-8.1350403 7.492744 -0.36842015
-8.1035328 7.55615 -0.36908674
-8.0686455 7.6167064 -0.36962
-8.137373 7.776546 -0.37495273
-8.1519995 7.8867855 -0.37785241
-8.1234474 7.9562368 -0.37878564
-8.1078348 8.0390034 -0.38035214
-8.0837507 8.1140881 -0.38155201
-8.0359154 8.1656733 -0.381652
-8.0156183 8.2456408 -0.38308516
-7.982872 8.3134117 -0.38395175
-7.9674788 8.3999414 -0.38568488
-7.9752421 8.5121202 -0.38858455
-7.9520555 8.5924349 -0.39001772
-7.9018807 8.6440172 -0.39015105
-7.7482171 8.5810757 -0.38515159
-2.2002406 2.4677072 -0.10984898
-2.1850579 2.4811611 -0.10984898
-2.1658561 2.4899979 -0.109649
-2.1466284 2.4986928 -0.10944902
-2.1319032 2.512579 -0.10948236
-2.1177301 2.5271447 -0.10954902
-2.0282488 2.4507904 -0.10568278
-1.9935613 2.4392037 -0.10464956
-1.972906 2.4443917 -0.10434959
-1.9584936 2.4572327 -0.10438292
-1.9452342 2.4715593 -0.10448291
-1.9539573 2.5142205 -0.10578277
-1.9293644 2.5142705 -0.10528282
-1.9145045 2.5268581 -0.10531615
-7.3507166 9.8234148 -0.40874898
-6.5271292 8.8353968 -0.36592042
-6.440989 8.8316765 -0.36412063
-7.148798 9.9294767 -0.40761578
-7.2238059 10.164594 -0.41544822
-7.1945925 10.256181 -0.41738135
-7.1946826 10.391339 -0.42108092
-7.1787205 10.505428 -0.42391396
-7.1521263 10.605623 -0.42618036
-7.2059741 10.828191 -0.43334624
-7.1865802 10.944047 -0.43621257
-7.1812525 11.083553 -0.44001216
-6.7168894 10.507648 -0.41548157
-6.6288295 10.511468 -0.41401505
-6.5737114 10.567219 -0.41461498
-6.5103164 10.609911 -0.41471496
-1.3346287 2.2062905 -0.08558502
-1.3174803 2.2084308 -0.085351713
-1.2988349 2.20786 -0.085018419
-1.2852633 2.2157879 -0.085018419
-1.2726359 2.2253673 -0.085085079
-1.2599396 2.2348752 -0.085151732
-1.2481457 2.246058 -0.085285053
-1.2357816 2.2563035 -0.085385039
-1.2247635 2.26912 -0.08558502
-1.2108175 2.2765923 -0.08558502
-1.1986822 2.2875195 -0.085718341
-1.1630661 2.2530963 -0.084151849
-1.1070707 2.1773479 -0.081052192
-1.0927943 2.1823127 -0.080985531
-1.0731919 2.176429 -0.080518916
-1.0580704 2.1793773 -0.080385603
-1.0429533 2.1822219 -0.080252282
-1.0295438 2.1885803 -0.080252282
-1.0173558 2.1975768 -0.080352269
-1.0063399 2.2092342 -0.08055225
-0.99440116 2.2190154 -0.080685563
-0.98439705 2.233305 -0.080985531
-0.98459601 2.2713943 -0.082152069
-6.1236725 14.359056 -0.52016985
-6.0597982 14.454426 -0.52226967
-5.9904141 14.538464 -0.52396947
-5.9314795 14.649983 -0.52666914
-5.8699231 14.757609 -0.52923554
-5.8305459 14.924607 -0.53393501
-5.7768083 15.059013 -0.53746796
-5.7744803 15.333613 -0.5460003
-5.7090473 15.446565 -0.54876667
-5.6710691 15.63821 -0.55433273
-5.5984578 15.738626 -0.55666584
-5.5699286 15.968022 -0.56356502
-5.5080681 16.107813 -0.56729794
-5.4434295 16.243652 -0.57089758
-5.4184861 16.504642 -0.57889664
-5.3486261 16.635578 -0.58232963
-5.3061733 16.857796 -0.5889622
-5.2232332 16.956898 -0.5912953
-5.2367511 17.379055 -0.60489374
-5.1726751 17.555622 -0.60992652
-5.1398225 17.8473 -0.61895883
-5.0973568 18.117096 -0.62722462
-5.0276723 18.299337 -0.63245738
-5.0292091 18.754587 -0.64712238
-4.9360471 18.869213 -0.65002209
-4.9301033 19.330099 -0.66485375
-4.862031 19.563671 -0.67185295
-4.8867378 20.191513 -0.692384
-4.8140855 20.43903 -0.69984984
-4.7160358 20.588009 -0.70394939
-4.6699882 20.977514 -0.71628135
-4.5819497 21.194309 -0.72271395
-4.5261073 21.576117 -0.7347793
-4.4115629 21.691626 -0.73777896
-4.3361497 22.011484 -0.7477445
-4.2144852 22.108362 -0.75014424
-4.1452346 22.494526 -0.76237619
-4.0356774 22.679926 -0.76780891
-3.9564626 23.053951 -0.77964091
-3.8446033 23.257256 -0.78570694
-3.7482924 23.572573 -0.79557252
-3.6951907 24.194834 -0.81580359
-3.5876579 24.496908 -0.82523584
-3.445756 25.725821 -0.86516476
-3.301136 25.850578 -0.86866432
-3.2067063 26.399158 -0.88642901
-3.0629759 26.577198 -0.89176178
-2.9479539 27.036629 -0.90656012
-2.770762 28.672409 -0.96022081
2.4956994 28.370598 -0.94935536
1.1235048 11.928537 -0.39915004
1.1930841 11.885618 -0.39795017
1.0771202 10.105096 -0.33849016
1.1463814 10.162852 -0.34065658
1.4061086 11.814999 -0.39638367
1.4767154 11.791273 -0.39588374
1.5383589 11.700733 -0.39315072
2.635679 19.140633 -0.64392275
2.7533586 19.12608 -0.64398938
2.8844678 19.200743 -0.64708906
3.0145874 19.261677 -0.64975542
1.0931107 6.4615374 -0.21813691
1.1311835 6.4458485 -0.21783693
1.1735722 6.4545193 -0.21837021
1.2052113 6.4049616 -0.21693704
7.2869964 35.166988 -1.197261
10.681963 33.504841 -1.1723305
10.671379 32.775326 -1.1490664
10.736734 32.301403 -1.1347346
10.857359 32.006813 -1.1267022
11.063515 29.597227 -1.0533104
11.220727 29.465273 -1.051044
11.043899 28.474298 -1.0180809
11.165176 28.271208 -1.0132482
11.295156 27.603886 -0.99421698
11.399013 27.377207 -0.98855096
11.119288 26.250248 -0.95028859
11.223205 26.049353 -0.94548911
11.351545 25.908592 -0.94288939
11.449303 25.701509 -0.93788993
11.560615 25.528803 -0.93415701
11.680687 25.378401 -0.93125737
11.815015 25.260984 -0.92959088
11.923035 25.089619 -0.92595798
11.889927 24.628962 -0.91162622
11.816862 24.098778 -0.89466143
11.948915 23.994505 -0.8934949
11.189443 22.127995 -0.82650238
11.302642 22.015354 -0.82486922
10.92481 20.961784 -0.78787333
10.85835 20.525955 -0.7739749
10.87678 20.259052 -0.7664091
10.862225 19.937412 -0.75674349
10.821897 19.576487 -0.74554473
10.928612 19.486179 -0.74464482
11.072187 19.461323 -0.74627799
10.213823 17.698923 -0.68105191
10.243476 17.501358 -0.67585254
10.182844 17.155413 -0.66488707
10.207518 16.959024 -0.65968764
10.201014 16.715206 -0.65262175
10.121968 16.359074 -0.64112306
10.157898 16.19421 -0.63709015
10.183608 16.016029 -0.63252401
10.278441 15.948203 -0.63232404
10.330741 15.815383 -0.62955767
10.324427 15.595851 -0.62332505
10.441084 15.563748 -0.62459159
10.427385 15.339036 -0.61812562
10.428901 15.1406 -0.61269289
10.482713 15.020592 -0.61042649
10.527946 14.889885 -0.60772675
10.540544 14.715316 -0.60322726
10.513248 14.488575 -0.59656137
10.556967 14.362589 -0.59402829
12.795854 17.186792 -0.71414822
12.752441 16.910849 -0.70591581
12.768003 16.71711 -0.701083
12.710742 16.432116 -0.692384
12.657248 16.157118 -0.68405157
12.63751 15.929598 -0.67768562
12.571648 15.648394 -0.66898662
12.65229 15.552353 -0.66818672
12.833265 15.578571 -0.67268622
12.962541 15.540213 -0.67445266
10.86383 12.86271 -0.56106532
12.963902 15.159687 -0.66478705
13.030509 15.049633 -0.66345388
13.124582 14.97165 -0.66355389
13.232121 14.908778 -0.66435379
13.245197 14.740325 -0.66045421
13.288316 14.607024 -0.65812117
13.35535 14.500953 -0.65702128
13.407271 14.379258 -0.65522146
13.441052 14.239305 -0.65258843
13.526098 14.154395 -0.65248847
13.592542 14.050302 -0.65152192
13.657517 13.945213 -0.65052199
13.723125 13.841277 -0.64958876
13.792927 13.741999 -0.64888883
13.874849 13.655005 -0.64878887
13.949058 13.560557 -0.6483556
14.026235 13.469173 -0.64808893
14.02668 13.30513 -0.64432269
14.107326 13.21813 -0.64428937
14.189631 13.132679 -0.64435601
14.272897 13.048062 -0.64448935
14.330436 12.940145 -0.64348948
14.367051 12.814051 -0.64158964
14.492652 12.767279 -0.64368945
14.603138 12.706324 -0.64512259
14.723273 12.652962 -0.64698905
14.889021 12.637409 -0.6508553
15.046702 12.613233 -0.65435493
15.18309 12.569748 -0.65692127
15.296296 12.506083 -0.6584878
15.492494 12.508684 -0.66362053
15.618185 12.452644 -0.66572028
15.797167 12.437573 -0.6700865
15.967078 12.413412 -0.67405272
16.103989 12.362068 -0.67661911
16.218565 12.292605 -0.67825222
16.367304 12.247952 -0.68131858
16.639893 12.293395 -0.68951768
16.492954 12.029098 -0.68035203
14.944316 10.759671 -0.61369276
15.00924 10.667194 -0.61365944
15.053956 10.560548 -0.61282623
15.114362 10.465135 -0.61265957
15.241003 10.415056 -0.61519259
15.593803 10.516379 -0.62682468
15.74623 10.479198 -0.63035756
15.882077 10.429566 -0.63322395
16.072424 10.413987 -0.63825673
16.243805 10.384081 -0.64252287
16.576883 10.454295 -0.65315503
16.812984 10.459562 -0.65992093
16.984177 10.42207 -0.6641205
17.139294 10.373034 -0.66768676
17.270416 10.308144 -0.6703198
17.324726 10.19691 -0.66998649
0.97623056 0.5658406 -0.037223749
1.0109129 0.57770938 -0.038423613
1.0562224 0.59506583 -0.040023435
1.0537394 0.5851739 -0.039790127
1.0590631 0.57965791 -0.039856788
1.0643586 0.57409859 -0.039923448
1.0608029 0.56380075 -0.03965681
1.0686681 0.55960172 -0.039823458
1.0747455 0.55440998 -0.039923448
1.0736732 0.54553896 -0.039756797
1.0752133 0.53804523 -0.039690141
1.0829759 0.53364897 -0.039856788
1.081735 0.52481019 -0.039690141
1.0858364 0.51859415 -0.039723471
1.092615 0.51362455 -0.039856788
1.0848638 0.50186926 -0.039456833
1.0915604 0.4968614 -0.03959015
1.0955005 0.49056333 -0.03962348
1.0957466 0.48262218 -0.03952349
1.0931859 0.47350329 -0.039323512
1.0436697 0.44443676 -0.037423726
1.0684979 0.44729951 -0.038223635
21.532669 8.8726377 -0.7762413
21.791435 8.8232489 -0.78360718
21.917599 8.7181883 -0.7862069
21.919479 8.5635357 -0.78437376
22.054661 8.460741 -0.7873401
22.234295 8.373518 -0.79190624
22.347128 8.2598038 -0.79410601
22.555235 8.1797771 -0.79970539
22.735886 8.0877905 -0.80433816
22.875677 7.9797382 -0.80753785
23.019722 7.8718901 -0.81090415
23.311132 7.8121195 -0.81946981
23.516256 7.7206941 -0.82500255
23.682119 7.6144996 -0.82916874
23.826588 7.4999566 -0.83260173
23.856874 7.3489103 -0.83206844
23.92927 7.2107525 -0.83303499
24.010452 7.0748067 -0.83433485
24.084143 6.9362001 -0.83540136
24.168581 6.8002043 -0.83686787
24.353447 6.6912379 -0.84183401
24.52726 6.5774093 -0.84643346
24.576824 6.4293194 -0.84676677
24.764952 6.3164401 -0.85189956
24.948036 5.8762574 -0.85433263
24.439156 5.1267867 -0.83233505
24.37711 4.957809 -0.82916874
24.388441 4.8044696 -0.8285355
24.242708 4.6214161 -0.82260281
23.509851 4.332366 -0.79680568
23.529102 4.1868052 -0.79657239
23.445011 4.0235868 -0.79287279
23.428829 3.8729708 -0.79150629
23.457088 3.7299261 -0.79167295
23.426182 3.5777764 -0.78987312
23.392317 3.4258571 -0.78800666
23.328766 3.2704632 -0.78517365
23.322638 3.1238089 -0.78430706
23.310635 2.9767194 -0.78327388
23.296711 2.8297749 -0.78220731
23.263992 2.6810532 -0.78054082
23.238276 2.5337064 -0.77914101
23.21163 2.3867767 -0.77774113
23.214891 2.2432499 -0.77737451
22.979378 2.0782514 -0.76904213
22.221855 1.8723271 -0.74327832
22.166164 1.7307265 -0.74104524
22.228205 1.5984139 -0.74277836
22.210667 1.4602232 -0.74187851
14.785681 0.78976142 -0.49337286
14.832179 0.70100689 -0.4947727
14.978003 0.61582148 -0.49950552
14.971509 0.52355683 -0.49917221
15.011404 0.4327507 -0.50040543
15.033761 0.34108859 -0.50107199
15.05256 0.24911864 -0.50163859
15.0618 0.15683678 -0.50190526
15.074471 0.06446816 -0.50230521
15.536499 -0.0093440702 -0.77827996
15.336405 -0.10332531 -0.76826596
15.285548 -0.19678219 -0.76576251
10.942292 -0.20796084 -0.54805809
10.944804 -0.27519807 -0.54825836
10.947901 -0.34250522 -0.54850876
10.926631 -0.40896368 -0.54755741
10.883005 -0.47421706 -0.54550451
10.912808 -0.54262251 -0.54715687
10.913263 -0.60979491 -0.54735714
10.918286 -0.67730272 -0.54780775
10.938837 -0.74598265 -0.54905951
10.955965 -0.81471795 -0.55016106
10.974652 -0.88385189 -0.55136275
11.018773 -0.95548958 -0.55386621
11.049499 -1.0265006 -0.55571884
11.079764 -1.0979244 -0.55757141
11.098644 -1.1686076 -0.55887324
11.104169 -1.2381247 -0.55952412
11.112233 -1.3081038 -0.56032526
11.115891 -1.377737 -0.56092608
11.113171 -1.4466906 -0.56122655
11.102105 -1.5145824 -0.56112635
11.10249 -1.5840859 -0.56162709
11.122196 -1.6565944 -0.56312919
11.150313 -1.7307832 -0.56508189
11.180895 -1.8058568 -0.56718487
11.182407 -1.8765767 -0.56783575
11.114597 -1.9353881 -0.56498176
11.058285 -1.995567 -0.56272864
11.007543 -2.0562286 -0.56077588
10.947649 -2.1146381 -0.5583725
10.905086 -2.1759083 -0.5568704
10.829901 -2.2300878 -0.553716
10.804291 -2.2940075 -0.55311519
10.731471 -2.3474514 -0.550111
10.691532 -2.4075494 -0.54880917
10.636666 -2.4638646 -0.54675627
10.581513 -2.5195975 -0.54470342
10.548392 -2.5802052 -0.54380214
10.421934 -2.6171472 -0.53809416
10.395041 -2.6783044 -0.53754342
10.330131 -2.7292795 -0.5350399
10.293909 -2.7873917 -0.53403848
10.256402 -2.8448949 -0.53298706
10.277183 -2.9186883 -0.53498983
10.2188 -2.9699852 -0.53288692
10.168793 -3.0232372 -0.53123456
10.116606 -3.0754073 -0.52948213
10.080378 -3.1320889 -0.5285809
10.048594 -3.1899531 -0.52792996
10.021233 -3.2490859 -0.52752942
10.005848 -3.312083 -0.52777976
9.9758749 -3.3702188 -0.52727908
9.9314022 -3.423229 -0.52602732
9.887598 -3.4761519 -0.52482563
9.8820648 -3.5424855 -0.52567679
9.8704615 -3.6068249 -0.52622759
9.8509531 -3.6683667 -0.5263778
9.8282585 -3.7287421 -0.5263778
9.8061266 -3.7893367 -0.52642787
9.7417984 -3.8333426 -0.52422476
9.7459068 -3.9041877 -0.52572685
9.7162189 -3.9616516 -0.52542645
9.6151619 -3.9894245 -0.52127063
9.5684195 -4.0390244 -0.520069
9.532444 -4.0929303 -0.51946813
9.4522333 -4.1273623 -0.51646394
9.4048233 -4.1755552 -0.51526225
9.3671913 -4.2278423 -0.51461136
9.3574133 -4.2927346 -0.51551259
9.3363285 -4.3526025 -0.51581305
9.2399464 -4.3768835 -0.51195765
9.268713 -4.4603491 -0.51506197
9.2474508 -4.5202069 -0.51541245
9.2025452 -4.5684252 -0.51446116
9.177907 -4.6266036 -0.51466143
9.0737772 -4.6441507 -0.51040548
9.040679 -4.6974363 -0.51015514
8.9613323 -4.7262621 -0.50730115
8.8652439 -4.7453361 -0.50349581
1.4192271 -0.77069497 -0.080354199
1.4687012 -0.80928004 -0.083458535
1.4576061 -0.81486428 -0.083108045
1.4430231 -0.81837165 -0.082557276
1.4440341 -0.83069736 -0.082907766
8.7014418 -5.1501064 -0.50629973
8.6748152 -5.2064848 -0.50660014
8.636734 -5.2559795 -0.50624967
8.5907211 -5.3004827 -0.50544852
8.543642 -5.3440909 -0.50459737
8.5123777 -5.3974824 -0.5046975
8.4975824 -5.4614925 -0.505799
8.5157957 -5.5473289 -0.50890338
8.4707623 -5.5923233 -0.50825244
8.4404392 -5.6469703 -0.50850278
8.416378 -5.7059398 -0.50915372
8.3877935 -5.7619987 -0.50955427
8.3531017 -5.8139272 -0.50960433
8.3001299 -5.8529844 -0.50855285
8.281127 -5.9159951 -0.50960433
8.2519522 -5.9719653 -0.51005495
8.2304573 -6.0337062 -0.5110063
8.2109203 -6.0971937 -0.51210785
8.1573915 -6.1354527 -0.51110643
8.1426306 -6.2029424 -0.51255846
8.1091614 -6.2564478 -0.51285887
8.0879335 -6.3196163 -0.51396042
8.1257572 -6.4298606 -0.51886731
8.0276985 -6.4327564 -0.51511204
7.9935055 -6.4862976 -0.51546252
7.9558706 -6.5371251 -0.51561272
7.9171453 -6.5870957 -0.51571286
7.916297 -6.6690125 -0.51831651
7.9200587 -6.7557025 -0.52127063
7.9011331 -6.8237557 -0.52277273
7.9297876 -6.933908 -0.52747935
7.9835572 -7.0678372 -0.53393835
7.9683003 -7.1420221 -0.53584105
7.956131 -7.2196407 -0.53799403
7.9580173 -7.3108921 -0.54114842
7.9729767 -7.41536 -0.54525417
7.9440503 -7.4798894 -0.54640579
7.916801 -7.5464091 -0.54770762
7.8847218 -7.6087151 -0.54870903
7.5514112 -7.3770771 -0.52863097
7.3327384 -7.2519088 -0.51641387
7.1413002 -7.1497808 -0.50599933
7.0741487 -7.1700025 -0.50434697
7.0251412 -7.2082667 -0.50399649
6.9793949 -7.2497973 -0.50389636
6.9368443 -7.2946568 -0.50404656
6.8734927 -7.3174281 -0.50269467
6.8006129 -7.3294473 -0.50064182
6.736618 -7.35042 -0.49923986
6.6786551 -7.3775487 -0.49828851
6.6226101 -7.4064765 -0.4974874
6.5591898 -7.4267607 -0.4961355
6.4878926 -7.4375138 -0.4941828
6.4206219 -7.4522133 -0.49253047
6.3501806 -7.4625645 -0.49062783
6.2830672 -7.4761558 -0.4889755
6.2198548 -7.4938173 -0.4876236
6.1705909 -7.5279779 -0.48737326
6.1092029 -7.5470672 -0.48617157
6.0253639 -7.5376019 -0.48316738
5.9728131 -7.5665913 -0.48266667
5.9170632 -7.5912814 -0.48191562
5.8514891 -7.6029091 -0.48036346
5.779954 -7.6060658 -0.47831059
5.7301784 -7.6373935 -0.47806025
5.6772637 -7.6643839 -0.47755954
5.6024218 -7.6611834 -0.47520626
5.5395246 -7.6735506 -0.47385436
5.4853816 -7.6976352 -0.47325352
5.4282784 -7.7172604 -0.47240233
5.3762674 -7.7438593 -0.47200176
5.3337317 -7.7841167 -0.4724524
5.2741203 -7.7993231 -0.47140092
5.2167416 -7.8174143 -0.47054973
5.165381 -7.8442712 -0.47024933
5.103549 -7.8548803 -0.46899757
5.0439377 -7.8683901 -0.46794611
4.9918265 -7.8932815 -0.46759561
4.9427719 -7.9229155 -0.46754554
4.8940644 -7.953094 -0.46754554
4.8451729 -7.9829736 -0.46754554
4.7940478 -8.0091248 -0.46734527
4.7443066 -8.0375299 -0.4672952
4.7039428 -8.0820265 -0.46819645
4.6567488 -8.1150684 -0.46844679
4.6068678 -8.1434889 -0.46844679
4.568974 -8.1934109 -0.46969855
4.5272732 -8.2370462 -0.4705998
4.4804516 -8.2716951 -0.47100037
4.4465423 -8.3307514 -0.47280288
4.3995256 -8.3658333 -0.47325352
4.3476515 -8.3917847 -0.47320345
4.3083358 -8.4423218 -0.47455534
4.2663207 -8.4882317 -0.47565687
4.2194738 -8.524991 -0.47625771
4.1771488 -8.5713701 -0.47740933
4.1357088 -8.6202517 -0.47871116
4.0818853 -8.6436596 -0.47861102
4.0275092 -8.6658258 -0.47846079
3.9800758 -8.7030907 -0.47916177
3.9438097 -8.7656021 -0.48126471
3.9000554 -8.8124695 -0.48251647
3.8606563 -8.8701172 -0.48436907
3.8206961 -8.9276123 -0.48622164
3.7720418 -8.9656172 -0.48702276
3.722302 -9.0015144 -0.48772374
3.6711349 -9.0343628 -0.48827451
3.6226676 -9.0743427 -0.48922586
3.5749409 -9.1168556 -0.49032739
3.5261111 -9.1572599 -0.49132881
3.4765666 -9.1964741 -0.49228013
3.432579 -9.2513428 -0.49408263
3.377116 -9.2759838 -0.49428293
3.3234947 -9.3059368 -0.49478361
3.2801967 -9.3657446 -0.49688655
3.2317488 -9.4121447 -0.49828851
3.1854029 -9.4658737 -0.50009102
3.1263232 -9.4823952 -0.49994084
3.066854 -9.4975977 -0.49974054
3.0187554 -9.5486145 -0.50144291
2.9769354 -9.6213427 -0.5042969
2.9271026 -9.6700182 -0.50589919
2.8716817 -9.7012033 -0.50660014
2.8137677 -9.7243977 -0.50690055
2.7605674 -9.7645454 -0.50810224
2.7067142 -9.803443 -0.50925386
2.6498888 -9.8324032 -0.50990474
2.5961113 -9.8735905 -0.51120657
2.5446558 -9.9251308 -0.5130592
2.487582 -9.9560614 -0.51386029
2.4434469 -10.041008 -0.51746535
2.3868542 -10.077193 -0.51856685
2.2643211 -10.111572 -0.51886731
2.2039332 -10.133083 -0.51926786
1.8387358 -8.7108822 -0.44571501
1.7866541 -8.7288504 -0.44606552
1.7262627 -8.7053595 -0.44431305
1.6699919 -8.7010756 -0.443562
1.6138384 -8.6964293 -0.44281095
1.552696 -8.6629114 -0.44060788
1.5073386 -8.7175465 -0.44291109
1.4479128 -8.691165 -0.44110858
1.2783515 -8.6531105 -0.43790409
1.2260722 -8.6667242 -0.43820453
1.1719346 -8.6671562 -0.43785402
1.1165605 -8.6573448 -0.43700284
1.0581882 -8.6214066 -0.43484983
0.99660122 -8.5533342 -0.43109459
0.9412539 -8.5334768 -0.42979276
0.88598114 -8.5112772 -0.4283908
0.83947986 -8.5751991 -0.43134493
0.79067719 -8.6219616 -0.43344787
0.73860979 -8.6366014 -0.43394858
0.68678719 -8.6559048 -0.43469962
0.64160419 -8.7685289 -0.44015723
0.58885735 -8.7882452 -0.44095838
0.54031867 -8.8804178 -0.4454146
0.48352978 -8.8416805 -0.44331166
0.40178287 -8.2778597 -0.4148719
0.34844714 -8.2202978 -0.41186771
0.29767647 -8.2132988 -0.41141707
0.24760523 -8.2259521 -0.41196784
0.21782024 -9.0919828 -0.45532846
0.1629705 -9.1460733 -0.45798218
0.10767465 -9.2178078 -0.46153715
0.0514936 -9.2872066 -0.46499196
-0.0055239899 -9.3382845 -0.46754554
-0.063078783 -9.3760262 -0.46944821
-0.12092959 -9.4004288 -0.47069994
-0.18086815 -9.5183392 -0.47665828
-0.24034858 -9.5599823 -0.47881129
-0.30084687 -9.6172247 -0.48176542
-0.36198184 -9.6720867 -0.48461941
-0.42519325 -9.7584867 -0.48907563
-0.48858529 -9.8265181 -0.4926306
-0.55801189 -9.9868746 -0.50084209
-0.62132102 -10.016157 -0.50249439
-0.69561434 -10.200482 -0.51195765
-0.77330381 -10.399204 -0.52217191
-0.83886188 -10.416165 -0.52327347
-0.91216546 -10.519278 -0.52873111
-0.99600637 -10.721326 -0.53919572
-1.064038 -10.737871 -0.54034734
-1.1354485 -10.783783 -0.54300106
-1.2081262 -10.835176 -0.54595518
-1.2845135 -10.91187 -0.55021113
-1.3621328 -10.990014 -0.55456722
-1.4643563 -11.248854 -0.56808609
-1.5321351 -11.23075 -0.56763548
-1.6025689 -11.232015 -0.56818622
