# .PCD v0.7 - Point Cloud Data file format
VERSION 0.7
FIELDS x y z
SIZE 4 4 4
TYPE F F F
COUNT 1 1 1
WIDTH 1434
HEIGHT 1
VIEWPOINT 0 0 0 1 0 0 0
POINTS 1434
DATA ascii
-1.6881362 -1.5551618 -0.63145036
-1.7083408 -1.554503 -0.63544887
-1.7056595 -1.5330403 -0.63091725
-1.7164757 -1.5238253 -0.63145036
-1.7431877 -1.5285128 -0.63784796
-1.7408752 -1.5076938 -0.63358289
-1.7413036 -1.4894667 -0.63038409
-1.739365 -1.4694257 -0.62638563
-1.7594504 -1.4679861 -0.63038409
-1.7602417 -1.4504217 -0.6274519
-1.7706035 -1.4408102 -0.627985
-1.7914327 -1.4395772 -0.63225007
-1.8002322 -1.4285581 -0.63225007
-1.8066876 -1.4157019 -0.63145036
-1.8100036 -1.4004618 -0.62958443
-1.8147329 -1.3864044 -0.62825155
-1.8301313 -1.380466 -0.6306507
-1.845525 -1.3743907 -0.63304979
-1.8492638 -1.359616 -0.63145036
-1.8567913 -1.3476775 -0.6311838
-1.8705105 -1.3401879 -0.63304979
-1.8786983 -1.3286854 -0.63304979
-1.8868157 -1.3171329 -0.63304979
-1.8956556 -1.3060775 -0.63331634
-1.9068223 -1.2965888 -0.63438261
-1.9067382 -1.2794949 -0.63171691
-1.9217861 -1.2725595 -0.63411605
-1.9368205 -1.2654876 -0.63651514
-1.9332069 -1.2462698 -0.63278317
-1.9562708 -1.2442102 -0.63784796
-1.9622352 -1.2311591 -0.6373148
-1.9631958 -1.2150388 -0.63518226
-1.9788412 -1.207991 -0.63784796
-1.9994284 -1.2037786 -0.64211297
-1.9885432 -1.1806648 -0.63624853
-2.009891 -1.1767176 -0.64078015
-1.9987081 -1.1537646 -0.63491571
-2.0107763 -1.1443388 -0.63651514
-2.0127161 -1.1291505 -0.63491571
-2.0179195 -1.1158469 -0.63438261
-2.0314991 -1.1071332 -0.63651514
-2.01193 -1.0805138 -0.62825155
-2.0432284 -1.0812187 -0.63598198
-2.0352943 -1.0610886 -0.63145036
-2.0400519 -1.0476998 -0.63091725
-2.054183 -1.039077 -0.63331634
-2.077775 -1.0350462 -0.63864762
-2.093606 -1.0269456 -0.64157987
-2.0972638 -1.0128231 -0.64078015
-2.106921 -1.0015903 -0.64184642
-2.0981853 -0.98170161 -0.6373148
-2.1234312 -0.9776746 -0.64317924
-2.1416817 -0.97019356 -0.64691114
-2.1018133 -0.93663919 -0.63304979
-2.1039898 -0.92217785 -0.63198352
-2.1326225 -0.91916645 -0.63891423
-2.1337848 -0.90418392 -0.63758135
-2.1401825 -0.89144474 -0.63784796
-2.1545322 -0.88194633 -0.6405136
-2.1563261 -0.86727154 -0.63944733
-2.167882 -0.85650259 -0.64131331
-2.1641107 -0.83969915 -0.63864762
-2.1845343 -0.83223599 -0.64317924
-2.1814744 -0.81577885 -0.64078015
-2.1755807 -0.79839498 -0.63758135
-2.1813455 -0.78535724 -0.63784796
-2.194303 -0.77484524 -0.64024705
-2.1981053 -0.76105148 -0.63998049
-2.1872172 -0.74228603 -0.63544887
-2.2155106 -0.73675627 -0.64237958
-2.2044098 -0.71807528 -0.63784796
-2.2060194 -0.70365745 -0.63704824
-2.2056952 -0.6886726 -0.63571543
-2.224628 -0.67962956 -0.63998049
-2.2287562 -0.66596669 -0.63998049
-2.2161474 -0.647416 -0.63518226
-2.232127 -0.63724393 -0.63864762
-2.2406368 -0.62482983 -0.63998049
-2.2593086 -0.61511904 -0.64424551
-2.2481358 -0.5972867 -0.63998049
-2.272285 -0.58879745 -0.64584494
-2.2739861 -0.57437205 -0.64531177
-2.2793396 -0.56086868 -0.64584494
-2.2846127 -0.54732126 -0.64637804
-2.2916827 -0.53416753 -0.64744431
-2.2892771 -0.5188185 -0.64584494
-2.2971239 -0.50579768 -0.64717776
-2.3011267 -0.49189466 -0.64744431
-2.2880576 -0.47444111 -0.64291269
-2.3098245 -0.46418861 -0.64824402
-2.3088448 -0.44927111 -0.64717776
-2.287878 -0.43064153 -0.6405136
-2.2942705 -0.41728473 -0.64157987
-2.3015342 -0.40403217 -0.64291269
-2.3182249 -0.39231321 -0.64691114
-2.3281987 -0.37932044 -0.64904368
-2.3266735 -0.36443162 -0.64797741
-2.338397 -0.35158044 -0.65064311
-2.3242924 -0.33489096 -0.64611149
-2.3453999 -0.32325274 -0.65144277
-2.3578506 -0.31023735 -0.65437502
-2.3511028 -0.29468623 -0.65197593
-2.3681796 -0.28207675 -0.65624094
-2.3708236 -0.26764855 -0.65650755
-2.3542118 -0.25115591 -0.65144277
-2.3672166 -0.23786101 -0.65464157
-2.3782272 -0.22423519 -0.65730721
-2.3555555 -0.20752659 -0.65064311
-2.3452573 -0.19212632 -0.64744431
-2.3684967 -0.17940421 -0.6535753
-2.3570535 -0.1639998 -0.65010995
-2.3724437 -0.15044738 -0.65410846
-2.3819823 -0.13638236 -0.65650755
-2.3856621 -0.12191146 -0.65730721
-2.3834765 -0.1071415 -0.65650755
-2.3946834 -0.092924625 -0.65943974
-2.3865385 -0.077947214 -0.65704066
-2.3898623 -0.063378543 -0.65784037
-2.3902061 -0.048713427 -0.65784037
-2.3894963 -0.034032866 -0.65757382
-2.3944793 -0.019409053 -0.65890664
-2.3829875 -0.0046949931 -0.65570784
-2.3820076 0.0099227047 -0.65544128
-2.3732281 0.024447879 -0.6530422
-2.3951981 0.03937621 -0.65917319
-2.3881664 0.053919062 -0.65730721
-2.3839369 0.068460442 -0.65624094
-2.3892512 0.083288848 -0.65784037
-2.3915844 0.098066255 -0.65864003
-2.3764963 0.11205629 -0.65464157
-2.4027126 0.12807566 -0.66210538
-2.3816772 0.14161235 -0.65650755
-2.3903809 0.15685558 -0.65917319
-2.4134066 0.17324772 -0.66583735
-2.3978848 0.18692759 -0.66183883
-2.3947721 0.20147538 -0.66130573
-2.4040496 0.21712048 -0.66423792
-2.394038 0.23103315 -0.66183883
-2.3983278 0.24630979 -0.66343826
-2.400604 0.26143885 -0.66450447
-2.3989546 0.27616376 -0.66450447
-2.3962581 0.29076207 -0.66423792
-2.3896487 0.30484936 -0.6629051
-2.4049282 0.32180914 -0.66770327
-2.405772 0.33696085 -0.66850299
-2.398891 0.3510178 -0.66717017
-2.4233694 0.36980453 -0.67463398
-2.4039214 0.38194287 -0.66983581
-2.4224527 0.40014392 -0.67570025
-2.4038029 0.41222903 -0.67116863
-2.415462 0.42950332 -0.67516714
-2.3852932 0.4392511 -0.66743672
-2.3929675 0.45586392 -0.67036897
-2.3797233 0.46848923 -0.66743672
-2.3881378 0.48538709 -0.67063552
-2.3954906 0.50220782 -0.67356771
-2.4215679 0.52321005 -0.68183124
-2.3919697 0.53219461 -0.67436743
-2.4065094 0.55095023 -0.67943215
-2.3899496 0.56261247 -0.67570025
-2.379895 0.57567942 -0.67383426
-2.3650935 0.58748186 -0.67063552
-2.3698494 0.60412645 -0.67303461
-2.3688955 0.61938792 -0.67383426
-2.3808761 0.63815528 -0.67836589
-2.3871388 0.65556079 -0.68129814
-2.3737936 0.66758525 -0.6786325
-2.3992903 0.69067329 -0.68716258
-2.3571017 0.69421345 -0.67623341
-2.3611033 0.71116602 -0.6786325
-2.372354 0.73046339 -0.68316406
-2.3338113 0.73429936 -0.67330116
-2.3577061 0.75775081 -0.68156469
-2.350265 0.77130121 -0.68076497
-2.3180721 0.77652025 -0.67276806
-2.3324153 0.79727787 -0.67836589
-2.3484104 0.81887537 -0.68449694
-2.3451579 0.83391553 -0.68503004
-2.3390908 0.84796095 -0.68476349
-2.3401721 0.8646363 -0.68662941
-2.3366265 0.87965834 -0.68716258
-2.3068886 0.88465858 -0.67996532
-2.3283494 0.90931833 -0.68796229
-2.3254128 0.92465639 -0.68876195
-2.3027213 0.93203497 -0.68369722
-2.3005235 0.94761533 -0.68476349
-2.3071098 0.96693027 -0.6884954
-2.2683308 0.96707886 -0.6786325
-2.2650068 0.9821294 -0.67943215
-2.2756932 1.0033987 -0.68449694
-2.2782881 1.0212866 -0.68716258
-2.2719786 1.0352467 -0.68716258
-2.2839491 1.0576751 -0.69276047
-2.2582314 1.062639 -0.68689603
-2.2525382 1.0768911 -0.68716258
-2.2458882 1.090692 -0.68716258
-2.2201381 1.0950702 -0.68129814
-2.2271643 1.11558 -0.68556321
-2.2297268 1.1340319 -0.6884954
-2.2244391 1.1485765 -0.6890285
-2.2352757 1.171602 -0.69462639
-2.2374041 1.1902758 -0.69755864
-2.2215781 1.199402 -0.69489294
-2.2023437 1.2065264 -0.69116104
-2.1856329 1.2148651 -0.68822885
-2.1966062 1.2386702 -0.69409329
-2.1847818 1.2497318 -0.69276047
-2.1945782 1.2732731 -0.6983583
-2.1775873 1.2813371 -0.69542611
-2.1655462 1.2922046 -0.69409329
-2.1575766 1.3054678 -0.69409329
-2.1511688 1.3196901 -0.69462639
-2.1356654 1.3282826 -0.6922273
-2.1380732 1.3480453 -0.69569266
-2.1192045 1.3543903 -0.6922273
-2.1197517 1.3731332 -0.69515955
-2.1112866 1.3861139 -0.69515955
-2.0882988 1.3894306 -0.69036138
-2.0893233 1.4086848 -0.69356012
-2.0901897 1.4280035 -0.69675893
-2.0774262 1.4380585 -0.69542611
-2.0701413 1.4518853 -0.69595921
-2.0690498 1.4701436 -0.69862491
-2.0639012 1.4856272 -0.69995773
-2.0524106 1.4965593 -0.69915801
-2.0509415 1.5148516 -0.70182365
-2.0392928 1.5256749 -0.701024
-2.029125 1.5375769 -0.70075744
-2.0204167 1.5505853 -0.701024
-2.0024943 1.556446 -0.69809175
-2.0027511 1.5764546 -0.7015571
-1.9975621 1.5923187 -0.70315653
-1.9922537 1.6081784 -0.7047559
-1.9793638 1.6179321 -0.70368963
-1.9701415 1.6306614 -0.70395619
-1.9733943 1.6538643 -0.70875436
-1.9374906 1.6441126 -0.69942456
-1.9419855 1.6685336 -0.7047559
-1.9186232 1.6690301 -0.69995773
-1.9264264 1.6966988 -0.70662189
-1.8850498 1.6809012 -0.69515955
-1.8947301 1.7105223 -0.70262337
-1.896292 1.7331712 -0.70715499
-1.9025984 1.760486 -0.71355253
-1.8650339 1.7470853 -0.70342308
-1.8640687 1.7677821 -0.70715499
-1.8455396 1.7718432 -0.70422274
-1.8436171 1.7918676 -0.70768809
-1.8277792 1.7984138 -0.70582217
-1.8078336 1.8007516 -0.70235682
-1.8076079 1.8227613 -0.70662189
-1.7896458 1.8269324 -0.70395619
-1.7944858 1.854504 -0.71035379
-1.7657601 1.8473629 -0.70342308
-1.7643156 1.8686758 -0.70742154
-1.75676 1.883696 -0.70902097
-1.7464747 1.8958576 -0.70955408
-1.7523209 1.9257873 -0.71675134
-1.7308085 1.9257495 -0.71275288
-1.7291963 1.947867 -0.71701789
-1.7064109 1.9461197 -0.71248633
-1.6988539 1.9616538 -0.71435225
-1.686159 1.9713084 -0.7140857
-1.6727877 1.9801446 -0.71355253
-1.6569021 1.9859306 -0.71195316
-1.6581675 2.0124257 -0.7178176
-1.6524789 2.0307863 -0.72074986
-1.6430054 2.0446444 -0.72208267
-1.637018 2.0629928 -0.72501487
-1.6112524 2.0563066 -0.71915042
-1.5885799 2.0531943 -0.7146188
-1.5935025 2.0858817 -0.72261578
-1.571969 2.0840771 -0.71861732
-1.5810238 2.1230602 -0.72874677
-1.5645423 2.1280618 -0.7271474
-1.5293792 2.1071982 -0.71675134
-1.5181048 2.1188934 -0.71755105
-1.5106393 2.1360381 -0.72021669
-1.5002624 2.1492188 -0.72154951
-1.4908738 2.16394 -0.72341549
-1.477568 2.1730471 -0.72341549
-1.4652807 2.1836731 -0.7239486
-1.4513222 2.1918192 -0.72368205
-1.4362649 2.1982622 -0.72288233
-1.4264046 2.2127047 -0.72474831
-1.4128008 2.2214153 -0.72474831
-1.3924859 2.2194278 -0.72128296
-1.3671776 2.2090793 -0.71515197
-1.3731787 2.249512 -0.72554803
-1.3504034 2.2430313 -0.72074986
-1.3351392 2.2487886 -0.71995014
-1.3412771 2.2910428 -0.73087931
-1.3021433 2.255821 -0.71701789
-1.2935202 2.2729833 -0.71995014
-1.287564 2.2951679 -0.72448176
-1.2683276 2.2937467 -0.72154951
-1.2560741 2.3048711 -0.72261578
-1.2455553 2.3193283 -0.72474831
-1.2439202 2.3507817 -0.73221213
-1.2383819 2.375464 -0.73754346
-1.2290654 2.3933067 -0.74074227
-1.208703 2.3896217 -0.73727691
-1.197455 2.4038954 -0.73940945
-1.1780146 2.4016783 -0.7364772
-1.1603229 2.4027855 -0.73461121
-1.1463852 2.4116011 -0.73514438
-1.1217659 2.3976369 -0.72874677
-1.1122719 2.4158566 -0.73221213
-1.0982229 2.424392 -0.73274529
-1.0880328 2.4416497 -0.73594409
-1.0683891 2.4376862 -0.73274529
-1.0549371 2.4477365 -0.73381156
-1.0455374 2.4674754 -0.73781002
-1.0329709 2.4800727 -0.739676
-1.0177341 2.4863641 -0.739676
-0.99311078 2.4693117 -0.73274529
-0.98183519 2.4852197 -0.73567748
-0.97075015 2.5019803 -0.73887628
-0.95263588 2.5006838 -0.73674375
-0.93963641 2.5128016 -0.73860973
-0.92088109 2.5094714 -0.73594409
-0.91134083 2.5313983 -0.74074227
-0.89354557 2.5305805 -0.73887628
-0.88115376 2.5451236 -0.74154192
-0.85220623 2.5112352 -0.73007965
-0.83404529 2.5081854 -0.72768056
-0.82371265 2.5288358 -0.73221213
-0.81579286 2.5577173 -0.73914284
-0.80295509 2.5718751 -0.74180853
-0.78884816 2.5822845 -0.74340791
-0.7751953 2.5944641 -0.74554044
-0.75791061 2.5945458 -0.74420762
-0.73933178 2.5898793 -0.74154192
-0.72523814 2.6008658 -0.74340791
-0.70724118 2.5978272 -0.74127537
-0.69870907 2.6300635 -0.74927235
-0.67989999 2.624038 -0.74634016
-0.6652019 2.6337674 -0.74793953
-0.64603651 2.6256323 -0.74447417
-0.63597357 2.6548545 -0.75167143
-0.61551678 2.6408718 -0.74660671
-0.59972692 2.6464789 -0.74713981
-0.57974857 2.6331656 -0.74234164
-0.56700402 2.6526968 -0.74687326
-0.54836977 2.6448007 -0.74367446
-0.5363065 2.6689045 -0.7495389
-0.5140329 2.6418698 -0.74100882
-0.50155467 2.6648655 -0.74660671
-0.48519394 2.6678927 -0.74660671
-0.46948105 2.6746168 -0.74767298
-0.45113257 2.6660435 -0.74447417
-0.43414602 2.6649561 -0.74340791
-0.41942537 2.6780443 -0.74634016
-0.40427402 2.6891456 -0.74873924
-0.3866674 2.6839435 -0.74660671
-0.36900845 2.6776724 -0.74420762
-0.3548328 2.6970868 -0.74900579
-0.33731905 2.6915627 -0.74687326
-0.32079759 2.6935816 -0.74687326
-0.30707228 2.7204008 -0.75380397
-0.28649345 2.6858149 -0.74367446
-0.27106696 2.6980712 -0.74660671
-0.25143445 2.6670582 -0.73754346
-0.23844388 2.7069552 -0.74820608
-0.21939385 2.6785884 -0.73994255
-0.20426252 2.6971834 -0.74474072
-0.19258451 2.7685754 -0.76420003
-0.17273159 2.7244961 -0.75167143
-0.15623108 2.7293537 -0.7527377
-0.13899037 2.7206352 -0.75007206
-0.12199205 2.7146969 -0.74820608
-0.1057053 2.7250254 -0.75087172
-0.089265034 2.7342923 -0.7532708
-0.07248605 2.7347884 -0.7532708
-0.055938676 2.7467451 -0.75646961
-0.038838845 2.7296898 -0.75167143
-0.021996636 2.7183113 -0.74847263
-0.0053348509 2.7280333 -0.75113833
0.011457792 2.7405443 -0.75460368
0.028223038 2.7356036 -0.7532708
0.044864275 2.7267056 -0.75087172
0.061987776 2.7437232 -0.75566989
0.079488456 2.7664132 -0.7620675
0.096360281 2.7629838 -0.76126778
0.11172787 2.7238202 -0.75060517
0.12884837 2.7317481 -0.75300425
0.14524774 2.724169 -0.75113833
0.16029799 2.6953254 -0.74340791
0.17803435 2.7125642 -0.74847263
0.19349994 2.6950779 -0.74394101
0.21123326 2.7092142 -0.74820608
0.22833818 2.7136297 -0.74980545
0.24550523 2.7179368 -0.75140488
0.26115796 2.7058265 -0.74847263
0.27745992 2.7012968 -0.74767298
0.29507414 2.709125 -0.75033861
0.31191212 2.7091782 -0.75087172
0.32841325 2.7062566 -0.75060517
0.34659934 2.7166193 -0.75407052
0.3610867 2.6982017 -0.7495389
0.37910753 2.7064347 -0.75247115
0.39668435 2.7107329 -0.75433707
0.40996307 2.6863341 -0.74820608
0.43067604 2.7104201 -0.75566989
0.44965652 2.7219903 -0.75966841
0.45607996 2.6593344 -0.7428748
0.47458366 2.6688218 -0.74634016
0.49164894 2.6696508 -0.74740636
0.50765944 2.6646905 -0.74687326
0.52139223 2.6482863 -0.74314135
0.54051316 2.6592045 -0.74713981
0.55108136 2.6284826 -0.73940945
0.56781 2.627878 -0.7402091
0.57408047 2.5801275 -0.72768056
0.57139403 2.4957607 -0.7047559
0.58404547 2.4809499 -0.7015571
0.60197783 2.4885607 -0.7047559
0.62025791 2.49698 -0.70822126
0.63866389 2.5052681 -0.71168661
0.6576826 2.5152888 -0.71568507
0.6985662 2.6061606 -0.7428748
0.71352279 2.5981078 -0.74180853
0.73597699 2.6168756 -0.74847263
0.75522071 2.6234245 -0.75167143
0.76966906 2.6131942 -0.75007206
0.78485465 2.6056538 -0.74927235
0.79912549 2.5952623 -0.74767298
0.81300908 2.5838747 -0.74580699
0.82943815 2.5806727 -0.74634016
0.84255153 2.5672932 -0.74394101
0.85767579 2.5602472 -0.74340791
0.88178891 2.5795598 -0.75060517
0.89855254 2.5768309 -0.75140488
0.9140237 2.5703607 -0.75113833
0.92287773 2.5456765 -0.74554044
0.93046105 2.5182688 -0.73914284
0.95880306 2.5467873 -0.74927235
0.98269671 2.5624533 -0.75566989
0.99945331 2.5590687 -0.75646961
0.86659223 2.1794345 -0.64531177
0.86536592 2.1009097 -0.62505281
0.8581177 2.0475619 -0.61065823
0.8759585 2.0546696 -0.61439019
0.885481 2.0421824 -0.61225766
0.89060503 2.0199556 -0.60719287
0.90377116 2.0162117 -0.60772604
0.91932327 2.0176446 -0.60985857
0.94748527 2.046073 -0.62025464
1.1525315 2.449209 -0.74527389
1.1679537 2.4429605 -0.74554044
1.1715508 2.4123406 -0.73834318
1.1931537 2.418936 -0.74260819
1.2299926 2.4555166 -0.75620306
1.2209998 2.400676 -0.74154192
1.2392454 2.3999896 -0.74367446
1.2458925 2.3769755 -0.73887628
1.2636234 2.3752422 -0.74074227
1.2758838 2.3632038 -0.73940945
1.2903602 2.3553305 -0.73940945
1.3136865 2.3633738 -0.74447417
1.1027735 1.9556744 -0.61758894
1.103265 1.9287935 -0.61119139
1.113144 1.9186532 -0.61012512
1.1273401 1.91594 -0.61145794
1.1494482 1.9263667 -0.61705583
1.1377919 1.8805231 -0.60452724
1.1856033 1.9326533 -0.62371999
1.4596347 2.3468068 -0.76100123
1.4498428 2.2994905 -0.74847263
1.4608102 2.2856786 -0.74687326
1.4873857 2.2960851 -0.7532708
1.5014462 2.2869155 -0.7532708
1.5175861 2.2808692 -0.75433707
1.5310138 2.2707155 -0.75407052
1.5438303 2.2596872 -0.75353742
1.5571176 2.2493794 -0.7532708
1.553178 2.2145338 -0.74474072
1.5700868 2.2096756 -0.74634016
1.6055787 2.230505 -0.75673616
1.6016283 2.1964715 -0.74847263
1.6019032 2.1687729 -0.74234164
1.6301942 2.1789668 -0.74927235
1.6446977 2.1704593 -0.74980545
1.6626794 2.1664431 -0.75193799
1.6777159 2.158483 -0.7527377
1.6813891 2.1360316 -0.74847263
1.710086 2.1452684 -0.75540334
1.7105021 2.1189871 -0.74980545
1.7442137 2.1338217 -0.75886869
1.7480545 2.1119428 -0.75487024
1.7541693 2.0930524 -0.75193799
1.788808 2.1079683 -0.76126778
1.7696713 2.0596728 -0.74767298
1.7955617 2.064045 -0.7532708
1.7839825 2.0255065 -0.74314135
1.8047171 2.0238729 -0.74660671
1.8254986 2.0220606 -0.75007206
1.8463254 2.0200691 -0.75353742
1.8259524 1.9733343 -0.7402091
1.8722938 1.9986665 -0.75407052
1.8805423 1.9829451 -0.75247115
1.9060254 1.9852728 -0.75780243
1.9054062 1.9604096 -0.7527377
1.9126669 1.9438728 -0.75087172
1.9245583 1.9321003 -0.75087172
1.9302174 1.9141477 -0.74847263
1.9460574 1.9063144 -0.75007206
1.9708791 1.9070705 -0.75513679
1.992299 1.9042639 -0.75886869
1.9934326 1.8820797 -0.75487024
1.9971892 1.8625826 -0.75193799
2.0014906 1.8437636 -0.74927235
2.0220342 1.8398795 -0.7527377
2.0160797 1.8119773 -0.74634016
2.0502269 1.8200458 -0.75487024
2.0678787 1.8131498 -0.75726932
2.0469048 1.7726681 -0.74554044
2.0577433 1.7600752 -0.74554044
2.0677679 1.7467941 -0.74527389
2.0917695 1.7451863 -0.75007206
2.1061578 1.7353827 -0.75140488
2.110785 1.7175609 -0.74927235
2.1085107 1.6943152 -0.74474072
2.1400089 1.6981183 -0.7522046
2.1511467 1.6855497 -0.75247115
2.1568744 1.6687807 -0.75087172
2.1640093 1.6531749 -0.74980545
2.1771905 1.6421869 -0.75087172
2.1972759 1.6362795 -0.75433707
2.1707745 1.5959377 -0.74180853
2.1820862 1.5837201 -0.74234164
2.177659 1.5601988 -0.73754346
2.1848302 1.5451381 -0.73674375
2.187947 1.5272906 -0.73461121
2.2060082 1.5198507 -0.73754346
2.2248573 1.5127885 -0.74074227
2.2316966 1.4974978 -0.73994255
2.2553091 1.4933528 -0.74474072
2.2700782 1.4831759 -0.74660671
2.2758954 1.4671307 -0.74554044
2.278348 1.4490012 -0.74340791
2.285563 1.4339699 -0.7428748
2.2910404 1.4178904 -0.74180853
2.2947609 1.4007937 -0.7402091
2.2958808 1.3822135 -0.73781002
2.3134356 1.3735118 -0.74074227
2.2793975 1.334461 -0.7271474
2.3309512 1.3455007 -0.74100882
2.3391633 1.3311729 -0.74100882
2.3027337 1.2918073 -0.72688085
2.3283305 1.287446 -0.73247874
2.3497279 1.2805133 -0.73674375
2.3490491 1.2615123 -0.73407811
2.3516335 1.2443708 -0.73247874
2.3489683 1.2245725 -0.72927994
2.3615823 1.2127777 -0.73087931
2.3844612 1.2060934 -0.73567748
2.4030325 1.1970254 -0.73914284
2.3947554 1.1746198 -0.73434466
2.4201448 1.1687036 -0.73994255
2.4203062 1.1505221 -0.73781002
2.4229548 1.133608 -0.7364772
2.4403713 1.1235555 -0.739676
2.418246 1.0954396 -0.73087931
2.4196396 1.0782276 -0.72927994
2.4253271 1.0629739 -0.72901338
2.4273779 1.0461655 -0.72768056
2.464813 1.0444095 -0.73701036
2.4542694 1.0222268 -0.73194557
2.4578195 1.0060534 -0.73114592
2.4693117 0.99311078 -0.73274529
2.4628088 0.97298402 -0.72901338
2.449862 0.95053482 -0.72341549
2.4763646 0.9433744 -0.72954649
2.4875233 0.93018681 -0.73114592
2.4578948 0.90196043 -0.72074986
2.5150745 0.90546596 -0.73594409
2.5024059 0.88360041 -0.73061275
2.5159776 0.87106645 -0.73301184
2.5194497 0.85499299 -0.73247874
2.525563 0.83982182 -0.73274529
2.5169218 0.81983334 -0.72874677
2.4989479 0.79705483 -0.72208267
2.5451937 0.79462796 -0.73407811
2.5196023 0.76970673 -0.72528142
2.5658355 0.7666446 -0.73727691
2.5603142 0.74791479 -0.73434466
2.5518796 0.72848821 -0.73061275
2.5386615 0.70789957 -0.72554803
2.5457473 0.69306856 -0.72634768
2.539705 0.67471403 -0.72341549
2.5326009 0.65621817 -0.72021669
2.558073 0.64609224 -0.72634768
2.5816438 0.63521791 -0.73194557
2.5714331 0.61599874 -0.72794712
2.6080179 0.60786295 -0.73727691
2.5816185 0.58503568 -0.72874677
2.5757468 0.56711268 -0.72608113
2.5914311 0.55391526 -0.72954649
2.5796807 0.53487486 -0.72528142
2.5895288 0.52036464 -0.7271474
2.5888886 0.50372988 -0.72608113
2.5720394 0.48409367 -0.72048324
2.584444 0.4700264 -0.72314894
2.5749383 0.45199472 -0.71968359
2.5596073 0.43313321 -0.7146188
2.5840964 0.42098171 -0.72074986
2.5780606 0.40377674 -0.71835077
2.5814428 0.38809365 -0.71861732
2.5694659 0.37018684 -0.7146188
2.5697792 0.35415098 -0.7140857
2.5852821 0.34013513 -0.7178176
2.5844517 0.32390648 -0.71701789
2.5749056 0.30667585 -0.71381915
2.5815277 0.2914108 -0.71515197
2.5698497 0.27413553 -0.71142006
2.5762782 0.2588433 -0.71275288
2.5864542 0.24384396 -0.71515197
2.591742 0.22830707 -0.71621823
2.6065428 0.21350029 -0.71995014
2.6154923 0.19808429 -0.72208267
2.6031973 0.18109719 -0.71835077
2.5956025 0.16457289 -0.71595168
2.5879033 0.14814864 -0.71355253
2.5656619 0.13108891 -0.70715499
2.6030064 0.11698431 -0.7172845
2.6104169 0.10127119 -0.71915042
2.5975027 0.084813148 -0.71541852
2.6085725 0.069153413 -0.71835077
2.6060569 0.053087629 -0.71755105
2.6178982 0.037259541 -0.72074986
2.6151862 0.021172615 -0.71995014
2.4308598 -0.0075971824 -0.72427213
2.4154403 -0.022374578 -0.7196824
2.4143 -0.037180524 -0.71939552
2.4140263 -0.051993687 -0.71939552
2.4241955 -0.06709367 -0.72255099
2.4294827 -0.08215975 -0.72427213
2.4241469 -0.096875228 -0.72283781
2.4254208 -0.11183544 -0.72341156
2.430429 -0.12701389 -0.7251327
2.4286475 -0.14186873 -0.72484583
2.4181714 -0.15615314 -0.72197723
2.4143009 -0.17078578 -0.72111666
2.3835971 -0.183327 -0.71222407
2.3728802 -0.19715834 -0.70935547
2.3811681 -0.21256359 -0.71222407
2.3559773 -0.22490072 -0.70505255
2.3669431 -0.24060865 -0.70878172
2.3854241 -0.25727934 -0.71480578
2.3904636 -0.2726694 -0.7168138
2.3992081 -0.28858757 -0.71996927
2.4202025 -0.30618313 -0.72685385
2.3907378 -0.31737873 -0.71853495
2.3783076 -0.33059397 -0.71537948
2.3800266 -0.34573063 -0.71652693
2.3750188 -0.35989788 -0.71566635
2.3576248 -0.37207857 -0.71107662
2.3656967 -0.38824144 -0.71423209
2.3576033 -0.40178567 -0.71251088
2.3399994 -0.41358042 -0.70792115
2.3628612 -0.43258172 -0.71566635
2.3545148 -0.44600359 -0.71394521
2.3554947 -0.4611775 -0.71509266
2.3282058 -0.47069272 -0.70763433
2.3299632 -0.48594618 -0.7090686
2.3231909 -0.49942905 -0.70792115
2.3172767 -0.51305395 -0.70706058
2.3131509 -0.52705026 -0.70677376
2.307075 -0.54057872 -0.70591313
2.2878807 -0.55091625 -0.70103657
2.2770174 -0.56310624 -0.69874167
2.2818766 -0.57918596 -0.70132339
2.2690084 -0.59076518 -0.6984548
2.2755229 -0.6073913 -0.70161027
2.2699051 -0.62083727 -0.70103657
2.2678978 -0.6352697 -0.70161027
2.2676408 -0.6502285 -0.70275772
2.26177 -0.66359138 -0.70218396
2.2622437 -0.67883229 -0.70361829
2.2525403 -0.69101614 -0.70189714
2.2491722 -0.70511073 -0.70218396
2.2493653 -0.72035778 -0.70361829
2.2439926 -0.73384857 -0.70333141
2.2421737 -0.74851292 -0.70419198
2.2384455 -0.7625652 -0.70447886
2.2310095 -0.77534306 -0.70361829
2.2244041 -0.78837806 -0.70304459
2.2186236 -0.80168664 -0.70275772
2.2118647 -0.81462306 -0.70218396
2.2113097 -0.82986122 -0.70361829
2.1999118 -0.84102106 -0.70161027
2.1991739 -0.85624027 -0.70304459
2.1894255 -0.86795402 -0.70161027
2.1725087 -0.87671441 -0.6978811
2.176837 -0.89402884 -0.70103657
2.1589344 -0.902201 -0.69702053
2.1551216 -0.91618007 -0.69759423
2.1582534 -0.93318594 -0.70046282
2.155118 -0.94756716 -0.70132339
2.1466391 -0.95960081 -0.70046282
2.1424553 -0.97354639 -0.70103657
2.133832 -0.98546964 -0.700176
2.1225412 -0.99610358 -0.6984548
2.1224427 -1.0119929 -0.70046282
2.1153312 -1.0245796 -0.700176
2.1064255 -1.0362718 -0.69931543
2.10517 -1.0517446 -0.70103657
2.0986769 -1.0646418 -0.70103657
2.0776248 -1.0700463 -0.69615996
2.0650766 -1.0796688 -0.69415194
2.050796 -1.0882802 -0.69157022
2.0390184 -1.0981191 -0.68984908
2.0263569 -1.1073954 -0.68784106
2.0186858 -1.1193438 -0.68755418
2.01512 -1.133587 -0.68870163
2.0081265 -1.1459302 -0.68870163
2.0068619 -1.161588 -0.69070965
2.0030019 -1.1758189 -0.69185704
1.9965729 -1.1885768 -0.69214392
1.9917032 -1.2022896 -0.69300449
1.9777509 -1.2104889 -0.69070965
1.9702861 -1.2226014 -0.69070965
1.9659914 -1.2367072 -0.69185704
1.9535189 -1.2456582 -0.6901359
1.9450341 -1.2571014 -0.68984908
1.9372841 -1.2690123 -0.68984908
1.9358473 -1.2851123 -0.69214392
1.9120256 -1.2862762 -0.68640673
1.9033054 -1.2974445 -0.68611991
1.8874248 -1.3036565 -0.68325132
1.8793901 -1.3152128 -0.68325132
1.8736298 -1.3283814 -0.68411189
1.8817865 -1.3515842 -0.6901359
1.8703587 -1.3608515 -0.68898845
1.8588883 -1.3700297 -0.68784106
1.8550538 -1.3848469 -0.6895622
1.8427001 -1.3933154 -0.68812788
1.8325949 -1.4034313 -0.68755418
1.8254633 -1.4158233 -0.68812788
1.8182486 -1.4281806 -0.68870163
1.8117008 -1.4410987 -0.6895622
1.8035706 -1.4527887 -0.68984908
1.7946224 -1.4638278 -0.68984908
1.7900395 -1.4784709 -0.69157022
1.7669687 -1.4777535 -0.68611991
1.7732241 -1.5015639 -0.69214392
1.7610676 -1.5099226 -0.69099647
1.7459811 -1.5156775 -0.68870163
1.7359283 -1.5257299 -0.68841475
1.7229548 -1.5331695 -0.68698049
1.7063959 -1.5373024 -0.68411189
1.7082585 -1.5580696 -0.68870163
1.6979623 -1.5678722 -0.68841475
1.68691 -1.5769532 -0.68784106
1.6778983 -1.5879325 -0.68812788
1.6646637 -1.5948852 -0.68669361
1.6514071 -1.6017356 -0.68525928
1.6381294 -1.6084832 -0.68382502
1.6268698 -1.617154 -0.68325132
1.6088111 -1.6189539 -0.67980897
1.6015322 -1.6315289 -0.68095642
1.5808182 -1.6303238 -0.67636669
1.5721107 -1.6413761 -0.67694038
1.5646441 -1.6537744 -0.67808783
1.5603559 -1.6696413 -0.68066955
1.5526818 -1.6819988 -0.681817
1.5429776 -1.692202 -0.68210387
1.5344893 -1.7037727 -0.68296444
1.5246432 -1.7138715 -0.68325132
1.517261 -1.7267916 -0.68468559
1.5078932 -1.7375156 -0.68525928
1.4996982 -1.7496438 -0.68640673
1.4870768 -1.7566198 -0.68554616
1.4744264 -1.763507 -0.68468559
1.4562562 -1.7636584 -0.6812433
1.4460129 -1.7733029 -0.68153012
1.4320995 -1.7784122 -0.68009585
1.4163888 -1.7811689 -0.67780095
1.4089842 -1.7943459 -0.67952216
1.3914884 -1.7946316 -0.67636669
1.385111 -1.8092197 -0.67866153
1.3641598 -1.8046956 -0.67378497
1.3576461 -1.8191726 -0.67607981
1.3515744 -1.8344085 -0.67866153
1.3363473 -1.8372452 -0.67665356
1.3289617 -1.8508563 -0.67866153
1.3164717 -1.8574129 -0.67808783
1.2979083 -1.8552533 -0.67435867
1.2875894 -1.8647585 -0.67493236
1.2755835 -1.8718324 -0.67464554
1.2571214 -1.8692919 -0.67091638
1.2503974 -1.8841527 -0.67349809
1.2367128 -1.8885844 -0.67235065
1.2256216 -1.8969417 -0.67263752
1.21705 -1.9092722 -0.67435867
1.2048018 -1.9158932 -0.67407179
1.1940339 -1.9248774 -0.67464554
1.183201 -1.9338015 -0.67521924
1.1688372 -1.9369249 -0.67378497
1.1549699 -1.940768 -0.67263752
1.1391591 -1.9412096 -0.67034262
1.1233866 -1.9415303 -0.66804779
1.1133521 -1.9517148 -0.66919523
1.0999463 -1.9560049 -0.6683346
1.0869944 -1.9610417 -0.66776091
1.0836719 -1.9836452 -0.67321122
1.066028 -1.9801368 -0.66976893
1.0574514 -1.9934095 -0.67206383
1.045644 -2.0007093 -0.67235065
1.039052 -2.0181584 -0.67607981
1.0270828 -2.0253501 -0.67636669
1.0133513 -2.0290434 -0.67550611
1.0008823 -2.035223 -0.67550611
0.98545152 -2.0352912 -0.67349809
0.97335708 -2.0421641 -0.67378497
0.96040118 -2.047231 -0.67349809
0.94942862 -2.0565639 -0.67464554
0.93520617 -2.0588624 -0.67349809
0.92490208 -2.069809 -0.67521924
0.91064173 -2.0719376 -0.67407179
0.8963902 -2.0739691 -0.6729244
0.88214803 -2.0759041 -0.67177695
0.86385149 -2.0680201 -0.66747403
0.84786958 -2.0653067 -0.66489232
0.83553964 -2.0713587 -0.66517919
0.82493329 -2.0817895 -0.66690034
0.81562108 -2.0957384 -0.66976893
0.80822188 -2.1150198 -0.67435867
0.79421902 -2.1172485 -0.67349809
0.77955681 -2.1175873 -0.67206383
0.76589757 -2.1205289 -0.67149007
0.75063074 -2.1188684 -0.66948205
0.73415488 -2.113481 -0.66632664
0.72519058 -2.1297336 -0.67005581
0.71180564 -2.1332345 -0.66976893
0.69721353 -2.1330097 -0.6683346
0.6873278 -2.1472826 -0.67149007
0.66897881 -2.1350064 -0.66632664
0.65277416 -2.1289971 -0.66317117
0.63666856 -2.1228697 -0.6600157
0.61958349 -2.1129484 -0.65571284
0.60898471 -2.1249979 -0.65829456
0.59800261 -2.1360738 -0.66058946
0.5846318 -2.1387789 -0.66030258
0.57644123 -2.1608367 -0.66603976
0.5634132 -2.1652598 -0.66632664
0.54823035 -2.1612482 -0.66403174
0.5365696 -2.1710808 -0.66603976
0.52076966 -2.1640878 -0.66288429
0.50551313 -2.1588483 -0.66030258
0.49417374 -2.1703155 -0.66288429
0.48146927 -2.1761127 -0.66374487
0.46528721 -2.1659143 -0.65972888
0.45414162 -2.179044 -0.66288429
0.43753329 -2.1658273 -0.65800768
0.42497259 -2.1722317 -0.65915513
0.41003019 -2.1663275 -0.65657341
0.39811131 -2.1763408 -0.65886831
0.3820802 -2.1636493 -0.65427852
0.36928034 -2.168786 -0.65513915
0.35643178 -2.173847 -0.65599972
0.34532869 -2.1901867 -0.66030258
0.33087781 -2.1856344 -0.65829456
0.3158066 -2.1762476 -0.65485227
0.30350369 -2.1857347 -0.65714711
0.28920311 -2.1809087 -0.65513915
0.27533436 -2.1788406 -0.6539917
0.26218915 -2.1823912 -0.65456539
0.24890201 -2.1849108 -0.65485227
0.23477092 -2.1797297 -0.65284425
0.22129492 -2.1801763 -0.65255737
0.20836928 -2.1862612 -0.6539917
0.19503602 -2.1884527 -0.65427852
0.18231939 -2.1982002 -0.65686029
0.16882807 -2.1992776 -0.65686029
0.15526262 -2.1993165 -0.65657341
0.14207432 -2.2050076 -0.65800768
0.12809393 -2.1981871 -0.65571284
0.11490451 -2.2046716 -0.65743399
0.10133047 -2.2043784 -0.65714711
0.087879539 -2.2068729 -0.65772086
0.074304245 -2.2064133 -0.65743399
0.060604688 -2.201082 -0.65571284
0.046890289 -2.1918349 -0.65284425
0.03339589 -2.1892078 -0.65198368
0.019836353 -2.1759603 -0.64796764
0.0064406488 -2.1626296 -0.64395159
-0.0068154032 -2.1578386 -0.64251733
-0.019986557 -2.1500926 -0.64022243
-0.03329489 -2.1575925 -0.64251733
-0.046512626 -2.15639 -0.64223045
-0.060346909 -2.1780889 -0.64882821
-0.074449196 -2.1996987 -0.65542597
-0.086956866 -2.1743128 -0.64796764
-0.10104242 -2.1900067 -0.65284425
-0.1148761 -2.1969991 -0.65513915
-0.12785394 -2.1876457 -0.65255737
-0.14201245 -2.1982918 -0.65599972
-0.15522885 -2.1935568 -0.65485227
-0.16846573 -2.1896973 -0.6539917
-0.1818192 -2.1876676 -0.65370482
-0.19489937 -2.1826942 -0.65255737
-0.20837924 -2.1824107 -0.65284425
-0.22137983 -2.1772788 -0.6516968
-0.23494014 -2.1777844 -0.65227056
-0.24808173 -2.1743982 -0.6516968
-0.26187551 -2.1766396 -0.65284425
-0.27414632 -2.1664379 -0.65026253
-0.28705671 -2.1618662 -0.64940196
-0.30202761 -2.1723995 -0.65313113
-0.31466421 -2.165765 -0.6516968
-0.32651442 -2.1543217 -0.64882821
-0.3401742 -2.1551166 -0.64968878
-0.353856 -2.1558249 -0.65054935
-0.36659518 -2.1507797 -0.64968878
-0.3789528 -2.1437728 -0.64825451
-0.39175507 -2.1395226 -0.64768076
-0.40416342 -2.1333134 -0.64653337
-0.41540742 -2.1213918 -0.64366478
-0.42803705 -2.1169248 -0.64309102
-0.44082287 -2.1133208 -0.64280421
-0.45156965 -2.1002731 -0.63964874
-0.46672335 -2.1077521 -0.64280421
-0.4787972 -2.1011121 -0.64165676
-0.49451825 -2.1102607 -0.64538592
-0.50880134 -2.1127753 -0.64710706
-0.52244473 -2.1124036 -0.64796764
-0.53398377 -2.1035867 -0.64624649
-0.54446983 -2.0909994 -0.6433779
-0.55630249 -2.0839167 -0.64223045
-0.56655389 -2.071223 -0.63936186
-0.57873571 -2.0658627 -0.63878816
-0.5935111 -2.0696399 -0.641083
-0.60781574 -2.0714753 -0.64280421
-0.62216508 -2.0732124 -0.64452535
-0.63964641 -2.0849266 -0.64940196
-0.65242726 -2.0809624 -0.64940196
-0.66547549 -2.0778325 -0.64968878
-0.68118745 -2.0828161 -0.65255737
-0.69304526 -2.075871 -0.6516968
-0.70576954 -2.0715795 -0.6516968
-0.71752453 -2.0644951 -0.65083623
-0.72953898 -2.0582476 -0.65026253
-0.74020255 -2.048326 -0.64854139
-0.75176436 -2.0410485 -0.64768076
-0.76124674 -2.0283246 -0.64509904
-0.77504539 -2.0271952 -0.64624649
-0.78677475 -2.0206158 -0.6456728
-0.79739422 -2.011297 -0.64423847
-0.81115329 -2.0099201 -0.64538592
-0.82128847 -1.9995878 -0.64366478
-0.83354223 -1.9945108 -0.64366478
-0.84539008 -1.9884771 -0.6433779
-0.85681534 -1.9814936 -0.64280421
-0.86934274 -1.9770761 -0.64309102
-0.88341111 -1.9760779 -0.64452535
-0.89472729 -1.9688756 -0.64395159
-0.90518558 -1.9598694 -0.64280421
-0.91597384 -1.9516765 -0.64194363
-0.92216289 -1.9339119 -0.63792759
-0.93818551 -1.9368399 -0.64079618
-0.9479388 -1.9267485 -0.63936186
-0.9635945 -1.9286095 -0.64194363
-0.97670954 -1.9252241 -0.64280421
-0.99113452 -1.9243054 -0.64452535
-1.0033667 -1.9190369 -0.64481217
-1.0146741 -1.9119979 -0.64452535
-1.0268407 -1.9065795 -0.64481217
-1.0394382 -1.9019246 -0.64538592
-1.0492314 -1.8921592 -0.64423847
-1.058944 -1.8823453 -0.64309102
-1.0723722 -1.879141 -0.64423847
-1.0805246 -1.866721 -0.64223045
-1.0900192 -1.8567508 -0.641083
-1.0969833 -1.842618 -0.63850129
-1.103815 -1.82847 -0.63591957
-1.1165133 -1.8241143 -0.63678014
-1.1276847 -1.8172292 -0.63678014
-1.1418729 -1.8151418 -0.63850129
-1.156078 -1.8129485 -0.64022243
-1.1676999 -1.8066255 -0.64050931
-1.1813868 -1.803434 -0.64194363
-1.1892525 -1.7913617 -0.64022243
-1.2018253 -1.7864159 -0.641083
-1.2100669 -1.7750494 -0.63964874
-1.2187588 -1.7644377 -0.63850129
-1.2345036 -1.7639915 -0.641083
-1.2475195 -1.7595102 -0.64223045
-1.2644372 -1.7603829 -0.64538592
-1.2785952 -1.7572399 -0.64710706
-1.2842401 -1.7424198 -0.64452535
-1.2794398 -1.713776 -0.63678014
-1.2951294 -1.7127718 -0.63936186
-1.3021209 -1.7002286 -0.63764071
-1.3195716 -1.7012924 -0.641083
-1.3264365 -1.6886426 -0.63936186
-1.3385613 -1.6827215 -0.64022243
-1.3500625 -1.6759691 -0.64079618
-1.3609259 -1.6683961 -0.641083
-1.3711375 -1.6600143 -0.641083
-1.3837547 -1.65451 -0.64223045
-1.3969749 -1.6496445 -0.64366478
-1.4070708 -1.6410418 -0.64366478
-1.4202524 -1.6359953 -0.64509904
-1.4271029 -1.6236513 -0.64366478
-1.4383118 -1.6162958 -0.64423847
-1.4469202 -1.6060162 -0.64366478
-1.4483575 -1.5879043 -0.63993561
-1.4645703 -1.5860274 -0.64280421
-1.4631565 -1.5651112 -0.63792759
-1.4733905 -1.5568 -0.63821447
-1.4842403 -1.5491139 -0.63878816
-1.4910504 -1.5372263 -0.63764071
-1.5038093 -1.5314671 -0.63907504
-1.5165539 -1.5256091 -0.64050931
-1.5238483 -1.5142486 -0.63964874
-1.5385785 -1.5102401 -0.64194363
-1.5498788 -1.5027722 -0.64280421
-1.563912 -1.4978739 -0.64481217
-1.5814219 -1.4961526 -0.64825451
-1.591272 -1.4870753 -0.64854139
-1.6038852 -1.4805335 -0.64997566
-1.6086932 -1.4667903 -0.64825451
-1.6112581 -1.4511203 -0.6456728
-1.6165538 -1.4380219 -0.64423847
-1.6210301 -1.4242808 -0.64251733
-1.6225055 -1.4080266 -0.63964874
-1.6369318 -1.4030336 -0.64194363
-1.6440479 -1.3917248 -0.64136988
-1.6510868 -1.3803816 -0.64079618
-1.6624798 -1.3726654 -0.64194363
-1.6686442 -1.3606219 -0.641083
-1.6791992 -1.3521608 -0.64194363
-1.6949607 -1.3477966 -0.64481217
-1.7069652 -1.3403304 -0.64624649
-1.7128865 -1.3280697 -0.64538592
-1.7217636 -1.3181171 -0.6456728
-1.7313471 -1.3086835 -0.64624649
-1.7247603 -1.2871451 -0.64079618
-1.7380233 -1.2805172 -0.64280421
-1.7381021 -1.2641916 -0.63993561
-1.7427143 -1.2512673 -0.63878816
-1.7605175 -1.2477548 -0.64251733
-1.7587229 -1.2303365 -0.63907504
-1.7693915 -1.2217003 -0.64022243
-1.7808119 -1.213519 -0.64165676
-1.7834557 -1.1993604 -0.63993561
-1.8011559 -1.1952839 -0.64366478
-1.8172703 -1.189985 -0.64682019
-1.8245376 -1.1788121 -0.64682019
-1.8341593 -1.1691401 -0.64768076
-1.8421093 -1.1583742 -0.64796764
-1.841857 -1.1425025 -0.64538592
-1.8521005 -1.1331805 -0.64653337
-1.8409774 -1.1109008 -0.64022243
-1.8510514 -1.1015445 -0.64136988
-1.8495147 -1.085315 -0.63850129
-1.8486779 -1.0696261 -0.63591957
-1.8651898 -1.0639616 -0.63936186
-1.8691785 -1.0510876 -0.63850129
-1.890672 -1.0479627 -0.64366478
-1.909675 -1.0432347 -0.64796764
-1.9135102 -1.0301346 -0.64710706
-1.9223332 -1.0197215 -0.64796764
-1.9107274 -0.99858391 -0.64194363
-1.9244829 -0.99078983 -0.64452535
-1.9168578 -0.97202653 -0.63993561
-1.9270706 -0.96238798 -0.64136988
-1.9501299 -0.95900553 -0.64710706
-1.9421839 -0.94033825 -0.64251733
-1.9582928 -0.93335253 -0.64595962
-1.9570457 -0.91806227 -0.64366478
-1.9609026 -0.9052332 -0.64309102
-1.974269 -0.89675224 -0.6456728
-1.9779851 -0.88383931 -0.64509904
-1.9895093 -0.87438583 -0.64710706
-1.9974748 -0.86330295 -0.64796764
-1.9983264 -0.8491559 -0.64653337
-2.0034993 -0.83687842 -0.64653337
-2.0068243 -0.82384127 -0.64595962
-2.0171714 -0.81366378 -0.64768076
-2.015002 -0.79844606 -0.64538592
-2.0261118 -0.78850102 -0.64739394
-2.033596 -0.77708089 -0.64825451
-2.0410163 -0.76559842 -0.64911509
-2.0501702 -0.75471658 -0.65054935
-2.0637715 -0.74537963 -0.65341794
-2.0646946 -0.73142195 -0.65227056
-2.0664291 -0.71779561 -0.65140992
-2.0671675 -0.7038666 -0.65026253
-2.0659957 -0.68934858 -0.64854139
-2.0692761 -0.67636102 -0.64825451
-2.072475 -0.66335911 -0.64796764
-2.0691936 -0.64833659 -0.6456728
-2.08687 -0.63984436 -0.64997566
-2.0769939 -0.6228956 -0.6456728
-2.0789385 -0.60960001 -0.64509904
-2.0817189 -0.59656829 -0.64481217
-2.0881076 -0.58455938 -0.6456728
-2.105515 -0.57552886 -0.64997566
-2.1053047 -0.56161016 -0.64882821
-2.1133461 -0.54988915 -0.65026253
-2.1259654 -0.53926963 -0.65313113
-2.1283042 -0.5259847 -0.65284425
-2.1324229 -0.51314014 -0.65313113
-2.1401947 -0.50113958 -0.65456539
-2.1320214 -0.48544276 -0.65112311
-2.1433775 -0.47421673 -0.65370482
-2.1499932 -0.46186218 -0.65485227
-2.1555998 -0.44924855 -0.65571284
-2.1780336 -0.44000283 -0.66173685
-2.1731718 -0.42515677 -0.65944201
-2.1757395 -0.41181448 -0.65944201
-2.1791677 -0.39862925 -0.65972888
-2.1617627 -0.38174647 -0.65370482
-2.1735077 -0.37008572 -0.65657341
-2.1757376 -0.35674235 -0.65657341
-2.1826167 -0.34413293 -0.65800768
-2.1932116 -0.33202714 -0.66058946
-2.1923635 -0.31815004 -0.65972888
-2.1971209 -0.30508804 -0.66058946
-2.1989515 -0.291601 -0.66058946
-2.199749 -0.27798265 -0.66030258
-2.1976087 -0.26402184 -0.65915513
-2.2001393 -0.25064129 -0.65944201
-2.2025881 -0.23723964 -0.65972888
-2.2001901 -0.22333229 -0.65858144
-2.2034264 -0.21001031 -0.65915513
-2.2094443 -0.19691294 -0.66058946
-2.2211123 -0.18422639 -0.66374487
-2.223156 -0.17066804 -0.66403174
-2.2298949 -0.1574302 -0.66575289
-2.2355986 -0.14405422 -0.66718721
-2.2220955 -0.12949407 -0.66288429
-2.2104115 -0.11520533 -0.65915513
-2.2187326 -0.10199445 -0.66145003
-2.2087872 -0.087956324 -0.65829456
-2.2131152 -0.074531876 -0.65944201
-2.2317252 -0.061457288 -0.66489232
-2.2272716 -0.047658686 -0.66345805
-2.2466793 -0.034289319 -0.66919523
-2.2535527 -0.020566396 -0.6712032
-2.2526786 -0.0067353346 -0.67091638
-2.2612991 0.0071116565 -0.67349809
-2.2564235 0.020943489 -0.67206383
-2.2524209 0.034730256 -0.67091638
-2.2473767 0.048448317 -0.66948205
-2.2345881 0.061895777 -0.66575289
-2.2303367 0.075477272 -0.66460544
-2.2336605 0.089312948 -0.66575289
-2.2321134 0.10297288 -0.66546607
-2.2515297 0.11771157 -0.67149007
-2.2459834 0.1312464 -0.67005581
-2.2480037 0.14520948 -0.67091638
-2.2470703 0.15900023 -0.67091638
-2.2403214 0.17234576 -0.66919523
-2.2363577 0.18585166 -0.6683346
-2.2323127 0.19931543 -0.66747403
-2.2281866 0.21273655 -0.66661346
-2.2316048 0.22688758 -0.66804779
-2.2244556 0.23996134 -0.66632664
-2.2448335 0.25609711 -0.6729244
-2.2498779 0.27066538 -0.67493236
-2.23772 0.28314543 -0.67177695
-2.2463872 0.29825446 -0.67493236
-2.2369237 0.31097928 -0.67263752
-2.229285 0.32387418 -0.67091638
-2.2300975 0.33797655 -0.67177695
-2.2251427 0.35120654 -0.67091638
-2.2238913 0.36500803 -0.6712032
-2.2291648 0.37993219 -0.67349809
-2.2192445 0.39227113 -0.6712032
-2.2290466 0.40812019 -0.67493236
-2.2340307 0.42321405 -0.67722726
-2.2389133 0.43838435 -0.67952216
-2.2474496 0.45438877 -0.68296444
-2.2483706 0.46895167 -0.68411189
-2.2529438 0.48434728 -0.68640673
-2.250865 0.4983688 -0.68669361
-2.2300167 0.50813168 -0.6812433
-2.2352519 0.52376992 -0.68382502
-2.216162 0.53366703 -0.6789484
-2.2119157 0.54702538 -0.67866153
-2.2168751 0.56270599 -0.6812433
-2.208745 0.57509226 -0.67980897
-2.207026 0.58912766 -0.68038273
-2.2024455 0.6024062 -0.68009585
-2.19225 0.61410171 -0.67808783
-2.1930451 0.62886059 -0.67952216
-2.1946611 0.64392173 -0.6812433
-2.1961746 0.65902627 -0.68296444
-2.1957533 0.67361218 -0.68411189
-2.1952355 0.6882177 -0.68525928
-2.1937084 0.70255023 -0.68611991
-2.1884458 0.71569985 -0.68583304
-2.1794693 0.72759891 -0.68439871
-2.1758709 0.74126685 -0.68468559
-2.1658516 0.75271839 -0.68296444
-2.1575801 0.76471454 -0.681817
-2.1564515 0.77924007 -0.68296444
-2.1462355 0.79047209 -0.6812433
-2.1727393 0.81539834 -0.69128335
-2.1676953 0.82871473 -0.69128335
-2.1714973 0.84547311 -0.69415194
-2.1475654 0.85137242 -0.68812788
-2.1458547 0.86596668 -0.68927532
-2.1387284 0.87838966 -0.68870163
-2.1341825 0.89186525 -0.68898845
-2.1330786 0.9068163 -0.69042277
-2.1292331 0.9206475 -0.69099647
-2.1270523 0.93523628 -0.69214392
-2.120399 0.94787931 -0.69185704
-2.1189044 0.96285236 -0.69329137
-2.1155658 0.97703981 -0.69415194
-2.1077964 0.98918885 -0.69357824
-2.1025519 1.0025154 -0.69386506
-2.0954988 1.0149803 -0.69357824
-2.0832138 1.0248604 -0.69157022
-2.0726006 1.0354838 -0.6901359
-2.0610812 1.0455827 -0.68841475
-2.0486643 1.0551407 -0.68640673
-2.044699 1.0690221 -0.6872673
-2.053335 1.0896267 -0.69243079
-2.0516717 1.1049292 -0.69415194
-2.0414906 1.1156605 -0.69300449
-2.0563924 1.1402382 -0.70046282
-2.0518627 1.154243 -0.70132339
-2.0489025 1.1691841 -0.70275772
-2.0350561 1.1778965 -0.70046282
-2.023659 1.1879375 -0.69902855
-2.0188017 1.2018015 -0.69988912
-2.0146706 1.2161454 -0.70103657
-2.008805 1.2294841 -0.70161027
-2.0028515 1.2427964 -0.70218396
-1.9919441 1.2530228 -0.70103657
-1.9769472 1.2605882 -0.6984548
-1.9731988 1.2752936 -0.69988912
-1.961329 1.2847534 -0.6984548
-1.9486195 1.293586 -0.69673365
-1.9422355 1.3065872 -0.69730741
-1.9270566 1.3136256 -0.69472563
-1.9205368 1.3265134 -0.69529939
-1.9155012 1.3404689 -0.69644684
-1.9181833 1.3599508 -0.70046282
-1.9253672 1.3828677 -0.7062
-1.9183954 1.3957824 -0.70677376
-1.9182795 1.4137766 -0.70992917
-1.9064972 1.4232289 -0.70878172
-1.8877929 1.4273918 -0.70505255
-1.8866063 1.4447706 -0.70792115
-1.873163 1.4527981 -0.7062
-1.8687347 1.4678135 -0.70792115
-1.8664421 1.4846175 -0.71050292
-1.8431196 1.4846277 -0.70505255
-1.8347179 1.4965142 -0.70533943
-1.8055539 1.4912778 -0.69759423
-1.7912245 1.4980278 -0.6955862
-1.7871177 1.5133225 -0.69759423
-1.7785259 1.5248829 -0.6978811
-1.7734776 1.5395337 -0.69960225
-1.7747935 1.55987 -0.70390517
-1.7716314 1.5764602 -0.70648688
-1.7569417 1.5828141 -0.70447886
-1.762064 1.6071173 -0.71050292
-1.7514658 1.6172491 -0.71021605
-1.7338096 1.6207715 -0.70706058
-1.7217442 1.6294045 -0.7062
-1.7165573 1.6445762 -0.70820802
-1.7043705 1.6530775 -0.70734745
-1.6996652 1.6688719 -0.70964235
-1.6961893 1.6860212 -0.71251088
-1.6851367 1.6957177 -0.71222407
-1.6753714 1.7067091 -0.71251088
-1.6621995 1.7142066 -0.71136349
-1.6582783 1.7312899 -0.71423209
-1.6469655 1.7407366 -0.71394521
-1.6434507 1.7585063 -0.71710068
-1.6404297 1.777002 -0.72054297
-1.6320779 1.7898649 -0.72169042
-1.6229887 1.8019804 -0.72255099
-1.6138122 1.8140515 -0.72341156
-1.5925307 1.8124081 -0.71882182
-1.5838925 1.825039 -0.71996927
-1.571417 1.8332688 -0.71939552
-1.5644729 1.8479933 -0.72140354
-1.557407 1.8627013 -0.72341156
-1.5477788 1.8744379 -0.72427213
-1.5416989 1.8905801 -0.72685385
-1.5312716 1.9014959 -0.7274276
-1.5225576 1.9146041 -0.72886187
-1.5107813 1.9239103 -0.72886187
-1.4948374 1.9278458 -0.72685385
-1.4789022 1.9316581 -0.72484583
-1.4629769 1.9353478 -0.72283781
-1.4556597 1.9504287 -0.7251327
-1.446507 1.9631792 -0.72656703
-1.4299242 1.9658214 -0.72427213
-1.4189532 1.9761143 -0.72484583
-1.4040303 1.9808764 -0.72341156
-1.3770167 1.9682646 -0.71566635
-1.3698146 1.98377 -0.71824807
-1.3608547 1.9968866 -0.71996927
-1.3448328 1.9996357 -0.71796125
-1.3367773 2.0142341 -0.72025609
-1.3333187 2.0360205 -0.7251327
-1.3202807 2.0433586 -0.72484583
-1.3123543 2.0586903 -0.7274276
-1.3022488 2.0707581 -0.72886187
-1.2874974 2.0754538 -0.72771442
-1.2772396 2.0873997 -0.72914875
-1.265893 2.0976577 -0.73000932
-1.2529982 2.1053855 -0.73000932
-1.2434517 2.1188166 -0.73201734
-1.2352276 2.1346967 -0.73488593
-1.2221061 2.1422358 -0.73488593
-1.2108177 2.1530337 -0.73603332
-1.2017661 2.1679623 -0.7386151
-1.182927 2.1652083 -0.73517275
-1.1777976 2.1876068 -0.74033624
-1.1616575 2.1897154 -0.7386151
-1.1446481 2.190011 -0.7363202
-1.1325051 2.199548 -0.73718077
-1.1194211 2.2073097 -0.73746765
-1.1097106 2.2218492 -0.74004936
-1.0969027 2.2303352 -0.74062312
-1.0848678 2.2404723 -0.74177051
-1.0706877 2.246222 -0.74148369
-1.0507784 2.2397418 -0.73718077
-1.0354087 2.2426686 -0.73603332
-1.0180606 2.2411308 -0.7334516
-1.0042901 2.2473352 -0.7334516
-0.99588162 2.2657316 -0.73746765
-0.97739685 2.2612486 -0.73402536
-0.96950227 2.2813082 -0.7386151
-0.95918113 2.2960527 -0.74148369
-0.94798732 2.3089836 -0.74377853
-0.93200862 2.3103154 -0.74234426
-0.91852158 2.3177714 -0.74291795
-0.90080577 2.3144374 -0.74004936
-0.89103645 2.331553 -0.74377853
-0.87166286 2.3235235 -0.73947567
-0.85540235 2.3234348 -0.73775452
-0.84601516 2.3421535 -0.74205738
-0.82394451 2.3256311 -0.73517275
-0.81154674 2.336072 -0.73689395
-0.80090618 2.3518884 -0.74033624
-0.79040533 2.3685708 -0.7440654
-0.77049512 2.3569875 -0.73890191
-0.75777221 2.3671443 -0.74062312
-0.74352008 2.3726635 -0.74090993
-0.72979099 2.3799284 -0.74177051
-0.7165516 2.3889492 -0.74320483
-0.70322889 2.3978968 -0.7446391
-0.68850249 2.4021666 -0.7446391
-0.67840344 2.4229496 -0.74980259
-0.66402948 2.4289148 -0.75037628
-0.6533156 2.4486775 -0.7552529
-0.64069349 2.4619102 -0.75812149
-0.62038767 2.4453683 -0.75181061
-0.60422099 2.4444792 -0.75037628
-0.58741534 2.44069 -0.74808145
-0.57352191 2.4489119 -0.74951571
-0.5548647 2.4365067 -0.7446391
-0.54052573 2.4426713 -0.74549967
-0.52693796 2.4524977 -0.74750769
-0.51090115 2.4509962 -0.74607342
-0.49585253 2.4540846 -0.74607342
-0.4837324 2.4721227 -0.75066316
-0.46730566 2.4684558 -0.74865514
-0.45128745 2.4665651 -0.74722087
-0.43864736 2.4834375 -0.75152373
-0.42340103 2.4860823 -0.75152373
-0.40860456 2.4914694 -0.75238431
-0.39510319 2.5052845 -0.75582659
-0.37929261 2.5048203 -0.75496602
-0.36419189 2.5089965 -0.75553977
-0.34812996 2.5064397 -0.75410545
-0.33223936 2.50473 -0.752958
-0.31517908 2.4934163 -0.74894202
-0.29953024 2.49245 -0.74808145
-0.28651401 2.5142283 -0.75410545
-0.26943579 2.5007 -0.74951571
-0.25418371 2.5032592 -0.74980259
-0.23991324 2.5162153 -0.75324488
-0.22327511 2.5042818 -0.74922884
-0.20854059 2.5132418 -0.75152373
-0.19318931 2.5154293 -0.75181061
-0.17754807 2.5137007 -0.75095004
-0.16224469 2.5166545 -0.75152373
-0.14730379 2.5262098 -0.75410545
-0.13165008 2.5241961 -0.75324488
-0.11602663 2.5220857 -0.75238431
-0.10028046 2.5160496 -0.75037628
-0.084742829 2.5137453 -0.74951571
-0.069104031 2.506557 -0.74722087
-0.053826626 2.5117226 -0.74865514
-0.038428865 2.5129635 -0.74894202
-0.023162104 2.5294368 -0.75381863
-0.0076632807 2.5362372 -0.75582659
0.0079071512 2.5391102 -0.75668716
0.023443585 2.5342243 -0.7552529
0.039094344 2.5407379 -0.75726092
0.054561026 2.5347035 -0.75553977
0.070060141 2.5324059 -0.75496602
0.085597366 2.5319283 -0.75496602
0.10124539 2.5342271 -0.75582659
0.11666159 2.5306871 -0.75496602
0.13263509 2.5385339 -0.7575478
0.1480419 2.5348032 -0.75668716
0.16310053 2.5261991 -0.75439233
0.17752039 2.5098612 -0.74980259
0.19335653 2.5144556 -0.75152373
0.20901848 2.5160859 -0.75238431
0.22462282 2.5166645 -0.752958
0.24015132 2.5161927 -0.75324488
0.25548926 2.5137186 -0.752958
0.27142069 2.516866 -0.75439233
0.28642553 2.5113459 -0.75324488
0.30217192 2.5123944 -0.75410545
0.31794196 2.5133443 -0.75496602
0.332351 2.5037489 -0.75267118
0.3471809 2.4978671 -0.75152373
0.36236355 2.4947417 -0.75123686
0.37838057 2.4972072 -0.75267118
0.39265239 2.4882145 -0.75066316
0.40977105 2.4971027 -0.75410545
0.42556736 2.4973745 -0.75496602
0.44321364 2.5079238 -0.75898206
0.45876589 2.5060995 -0.75926894
0.47288811 2.4966486 -0.75726092
0.48783073 2.4918196 -0.75668716
0.49969861 2.4718769 -0.75152373
0.51368433 2.4631371 -0.74980259
