# .PCD v0.7 - Point Cloud Data file format
VERSION 0.7
FIELDS x y z
SIZE 4 4 4
TYPE F F F
COUNT 1 1 1
WIDTH 1455
HEIGHT 1
VIEWPOINT 0 0 0 1 0 0 0
POINTS 1455
DATA ascii
-4.7730842 3.1698875 -0.81781441
-4.7445097 3.1930361 -0.81625688
-4.7387328 3.2315679 -0.81866395
-4.7383628 3.274087 -0.82206219
-4.7084517 3.2962875 -0.82036304
-4.6736026 3.3148091 -0.81781441
-4.6459394 3.3382256 -0.81654006
-4.6333733 3.3724945 -0.81795597
-4.6157799 3.4032104 -0.81852233
-4.6082959 3.4415364 -0.82092941
-4.5863028 3.4691503 -0.82078785
-4.5610008 3.4942167 -0.82007986
-4.5347815 3.5184958 -0.81923032
-4.526341 3.5566509 -0.82163739
-4.4997845 3.5806594 -0.82078785
-4.4815836 3.6113071 -0.82149583
-4.4409313 3.6237192 -0.81809759
-4.4254818 3.6565742 -0.81937194
-4.4052401 3.685565 -0.81979668
-4.3900971 3.7189236 -0.82121259
-4.3656926 3.7445016 -0.82092941
-4.3493619 3.7770598 -0.82220376
-4.3387442 3.8147867 -0.82461083
-4.3108187 3.837388 -0.82376128
-4.2783666 3.8558147 -0.82206219
-4.2414627 3.8699851 -0.8195135
-4.2154555 3.8939226 -0.81908876
-4.1828065 3.911602 -0.81738961
-4.1515369 3.9303885 -0.8159737
-4.1452112 3.9729099 -0.8195135
-4.1207561 3.99827 -0.8195135
-4.0685997 3.996428 -0.81399143
-4.0299611 4.0073586 -0.81115955
-4.0122738 4.0390329 -0.81257546
-3.9901888 4.066402 -0.81314188
-3.9568942 4.0822797 -0.81144273
-3.931771 4.106482 -0.81144273
-3.896296 4.1197424 -0.80931884
-3.8608065 4.1327229 -0.80719495
-3.8454471 4.1672459 -0.80931884
-3.8218057 4.1929569 -0.80974364
-3.7926941 4.2126503 -0.80903566
-3.7582216 4.2262268 -0.80719495
-3.7269924 4.243258 -0.80606222
-3.7145104 4.2817478 -0.80903566
-3.676573 4.2909293 -0.80648702
-3.6380234 4.2990513 -0.80379677
-3.6172905 4.3281283 -0.80507112
-3.5868843 4.3456616 -0.80422151
-3.5620289 4.3698902 -0.80464631
-3.544461 4.4032302 -0.80677021
-3.5253856 4.4349689 -0.80861092
-3.4913824 4.4479518 -0.80705339
-3.4609919 4.4653792 -0.8063454
-3.4118659 4.4582329 -0.80124807
-3.3754935 4.4672375 -0.79912418
-3.3444674 4.4831052 -0.79827464
-3.3080895 4.4915867 -0.79615074
-3.276974 4.5069966 -0.7953012
-3.2371342 4.5101318 -0.79232776
-3.2071102 4.526679 -0.7917614
-3.1906226 4.5624957 -0.79459327
-3.1760657 4.6015382 -0.79799145
-3.1488862 4.6225758 -0.79827464
-3.1099682 4.6262021 -0.79558438
-3.0782399 4.6402478 -0.79473484
-3.0464563 4.6540794 -0.79388529
-3.0076361 4.6568856 -0.79119503
-2.9784732 4.674418 -0.79105347
-2.9523702 4.6967955 -0.7917614
-2.9240172 4.7156634 -0.79190302
-2.8939943 4.7318277 -0.79161984
-2.8505867 4.7257633 -0.78765523
-2.8169804 4.7355084 -0.78638089
-2.7913775 4.7586808 -0.78737205
-2.7660918 4.7825737 -0.78850478
-2.7371852 4.8003159 -0.7886464
-2.7023427 4.807529 -0.78708887
-2.6627162 4.8058367 -0.78411543
-2.6350763 4.8255596 -0.7846818
-2.6077635 4.8459954 -0.78538972
-2.5765884 4.8592815 -0.78496498
-2.5425978 4.8671036 -0.78369063
-2.5104206 4.8782125 -0.78298271
-2.4822319 4.8970556 -0.78354907
-2.4468303 4.9015665 -0.78184992
-2.414088 4.9111576 -0.78100038
-2.3890846 4.9365697 -0.78269947
-2.3689699 4.9725838 -0.78609771
-2.3455606 5.0022616 -0.78850478
-2.2965691 4.9770122 -0.78227472
-2.2663968 4.9919114 -0.78241628
-2.2450118 5.0265121 -0.78567296
-2.2073572 5.0247855 -0.78326589
-2.1713793 5.0264215 -0.78142518
-2.1439807 5.0478501 -0.78269947
-2.1080077 5.0490355 -0.78085881
-2.0751083 5.0572963 -0.78015083
-2.0384843 5.0561624 -0.77802694
-2.0147142 5.0869818 -0.78085881
-1.9892068 5.1140089 -0.78312427
-1.9500178 5.1057739 -0.78000927
-1.9096144 5.093544 -0.77632785
-1.870119 5.0828691 -0.77292961
-1.8459566 5.1138015 -0.77590305
-1.8115696 5.1166334 -0.77462876
-1.7840376 5.1388741 -0.77632785
-1.7553437 5.1581583 -0.7776022
-1.7246006 5.1716485 -0.77802694
-1.6946805 5.1877789 -0.77887648
-1.663722 5.2009082 -0.77930129
-1.6276356 5.1977935 -0.77731901
-1.5916501 5.1944323 -0.77533668
-1.5571889 5.1955667 -0.77406234
-1.5146976 5.1689258 -0.76868182
-1.4854069 5.1866875 -0.76995617
-1.4615585 5.2243028 -0.77420396
-1.4294753 5.2331719 -0.77420396
-1.3955525 5.2351494 -0.77321279
-1.3599148 5.2302008 -0.77123052
-1.3394777 5.2845054 -0.77802694
-1.2982417 5.2570667 -0.77278805
-1.2696654 5.280333 -0.7750535
-1.2232525 5.2282648 -0.76627481
-1.189172 5.2269845 -0.76500046
-1.1592153 5.2438488 -0.76641637
-1.1293043 5.2615089 -0.7679739
-1.1052774 5.308073 -0.77377915
-1.0713152 5.3079624 -0.77278805
-1.0351158 5.2959776 -0.77009779
-1.0040731 5.3100104 -0.77123052
-0.95865178 5.2459593 -0.76103586
-0.92369163 5.236145 -0.75877041
-0.89071536 5.2368345 -0.75806242
-0.85600412 5.2265706 -0.75579697
-0.82499725 5.2385702 -0.75678807
-0.79076481 5.2298307 -0.7548058
-0.74459189 5.1375966 -0.74078816
-0.71455109 5.152854 -0.74234569
-0.68396097 5.1649928 -0.74347842
-0.6563499 5.2015023 -0.74815094
-0.62973261 5.24966 -0.75452262
-0.59090221 5.195395 -0.74616867
-0.55445689 5.1566005 -0.74008018
-0.34944531 5.4384279 -0.77774376
-0.31020129 5.3396683 -0.76330131
-0.28000504 5.3909006 -0.77038097
-0.24260911 5.298573 -0.7569297
-0.21304274 5.3741479 -0.7675491
-0.17763574 5.3031301 -0.75721288
-0.14482112 5.2942247 -0.75579697
-0.11239699 5.2979827 -0.75622171
-0.079556145 5.2767968 -0.75310671
-0.047643162 5.3286595 -0.7604695
-0.014954907 5.3318214 -0.7608943
0.017376021 5.2120328 -0.7437616
0.049726289 5.2514234 -0.74942529
0.081395686 5.2153859 -0.74432796
0.11286014 5.1900458 -0.74078816
0.14445628 5.1803498 -0.73951381
0.17563578 5.1615577 -0.73696518
0.20865008 5.1940131 -0.74177933
0.23275 5.0245271 -0.71770859
0.25881457 4.9320564 -0.70468211
0.28496742 4.8602104 -0.69462907
0.31069565 4.7951474 -0.68556714
0.34325942 4.8375864 -0.69193882
0.37415177 4.851181 -0.69420427
0.41539788 4.9869065 -0.71402723
0.45858756 5.1252613 -0.73427492
0.54429209 5.3437915 -0.76655799
0.56793451 5.2557092 -0.754381
0.60387725 5.2845821 -0.75905359
0.63510841 5.2709494 -0.75763762
0.66333538 5.2345448 -0.75296509
0.68110228 5.1224322 -0.73738992
0.71756601 5.1544342 -0.74262887
0.73921227 5.0813603 -0.73271739
0.77349335 5.0972824 -0.73569083
0.8096959 5.1237307 -0.7402218
0.83614695 5.0883837 -0.73583245
0.86419159 5.0646162 -0.7331422
0.89921582 5.0816388 -0.73639882
0.93769157 5.1159482 -0.74220407
0.9644568 5.085783 -0.73866427
0.99031633 5.0525689 -0.73469967
1.0212997 5.0463972 -0.73469967
1.0457745 5.0090256 -0.7301687
1.0933485 5.0809064 -0.74163771
1.1103752 5.010313 -0.73229259
1.1146976 4.8875847 -0.71530151
1.1717758 4.9963098 -0.73229259
1.1891966 4.9341688 -0.72422183
1.2196875 4.9277401 -0.72436345
1.2513622 4.9259205 -0.72521299
1.2880505 4.9430566 -0.72889441
1.3252513 4.9608836 -0.73271739
1.3561883 4.9545684 -0.73300058
1.3849608 4.9404345 -0.73215103
1.4168863 4.9375529 -0.73300058
1.4337751 4.8831725 -0.72620416
1.4691179 4.8922977 -0.72889441
1.4915583 4.8585854 -0.72521299
1.5148255 4.8285618 -0.72209799
1.520869 4.7456422 -0.71105379
1.5681177 4.7917323 -0.71940774
1.595922 4.7773256 -0.71869975
1.6274401 4.7740021 -0.71969092
1.6498765 4.7442908 -0.71671748
1.6723404 4.7154174 -0.71388561
1.6951854 4.6883097 -0.71133697
1.7235782 4.6768913 -0.71119535
1.7564173 4.6773486 -0.71289444
1.7840232 4.6637096 -0.7124697
1.8151202 4.659132 -0.7134608
1.8458632 4.6534286 -0.71431041
1.8647478 4.6181479 -0.71062899
1.8810122 4.5773177 -0.70609802
1.9331138 4.6232305 -0.71501833
1.9649312 4.6194811 -0.71629268
1.9932388 4.607338 -0.71629268
2.0075235 4.5633049 -0.71133697
2.0387182 4.5581307 -0.7124697
2.0744305 4.5626583 -0.71515995
2.1111047 4.568716 -0.71813339
2.1285825 4.5332737 -0.71459359
2.1589148 4.5254889 -0.71544313
2.1857789 4.510375 -0.71515995
2.1985531 4.4666791 -0.7103458
2.2396359 4.480556 -0.71473515
2.283659 4.499393 -0.7199741
2.310317 4.4835358 -0.71969092
2.3001692 4.3973427 -0.70808029
2.3651631 4.4548469 -0.71969092
2.3915141 4.438508 -0.71940774
2.4144301 4.4159322 -0.71813339
2.4174747 4.3577495 -0.71105379
2.4257224 4.3100495 -0.70567328
2.4442716 4.2813287 -0.70340776
2.4471848 4.2259846 -0.69675291
2.4966259 4.2510114 -0.70340776
2.4988601 4.1956353 -0.69675291
2.5158589 4.1658168 -0.69434589
2.536721 4.1427031 -0.69307154
2.5866268 4.1665921 -0.69972634
2.6105623 4.1481285 -0.6993016
2.6423531 4.1420479 -0.70100069
2.7047992 4.1831203 -0.71077055
2.7472327 4.1921148 -0.71515995
2.7871401 4.1966214 -0.71884131
2.7918382 4.1482301 -0.7134608
2.8099895 4.120389 -0.71162015
2.8329682 4.0998116 -0.71105379
2.8677206 4.096139 -0.7134608
2.8401206 4.0041747 -0.70043433
2.8698342 3.9939084 -0.70170867
2.8878791 3.9674196 -0.70015115
2.9104064 3.9472349 -0.69972634
2.9310179 3.9245431 -0.6988768
2.9335473 3.8780603 -0.69377947
2.9747438 3.8827784 -0.69788569
3.0573666 3.9403241 -0.71162015
3.0423481 3.87167 -0.70255822
3.0845361 3.8761699 -0.706806
3.1181984 3.8695045 -0.70907146
3.1293671 3.8349578 -0.70623964
3.1698616 3.8362906 -0.71006262
3.1755574 3.7955077 -0.70609802
3.2486889 3.834873 -0.71714222
3.2508929 3.7900689 -0.7124697
3.2039955 3.6893203 -0.69717771
3.2540226 3.700819 -0.70312458
3.287199 3.6926146 -0.7053901
3.3230474 3.6870837 -0.70822191
3.3369355 3.6571169 -0.7063812
3.3720732 3.6503904 -0.70907146
3.4275355 3.6650634 -0.7160095
3.4615276 3.6561854 -0.71841657
3.4517064 3.6012836 -0.71176171
3.506134 3.6134319 -0.71841657
3.4782994 3.5409973 -0.70822191
3.5243888 3.5441589 -0.71317762
3.5088511 3.4854872 -0.70567328
3.549247 3.4826138 -0.70949626
3.6551266 3.542769 -0.72634572
3.6474829 3.4922023 -0.72054046
3.6616507 3.4629533 -0.7191245
3.6748736 3.4329863 -0.71756703
3.7336955 3.4452865 -0.72492981
3.7101409 3.381629 -0.71629268
3.7359698 3.3634372 -0.71728384
3.7698514 3.352293 -0.71983248
3.7368038 3.2820568 -0.70963782
3.7292073 3.2350614 -0.70439893
3.7444773 3.2082536 -0.70354939
3.7958269 3.2120788 -0.70949626
3.808629 3.1830132 -0.70822191
3.8548062 3.1816423 -0.71317762
3.8550751 3.1422913 -0.70963782
3.8943307 3.1347194 -0.71331924
3.9561088 3.1446495 -0.72110683
4.0181537 3.1539381 -0.72889441
3.9599769 3.0691779 -0.71487677
3.9787345 3.0448222 -0.71487677
4.0147166 3.0334833 -0.71799177
4.0491219 3.0206325 -0.72082365
4.0612035 2.9910338 -0.71969092
4.0986943 2.9800322 -0.7230891
4.0823236 2.9300025 -0.71700066
1.4809257 1.0487007 -0.25781661
1.5700723 1.0974693 -0.27225903
1.578406 1.0889398 -0.27254221
1.5842398 1.0786769 -0.27240062
1.596579 1.0728025 -0.27339178
1.6072558 1.0657226 -0.27409974
1.6187339 1.0590941 -0.27494928
1.6268649 1.0502161 -0.27523246
1.6416262 1.0455346 -0.2766484
1.6438204 1.0328076 -0.27594045
1.6593804 1.0284412 -0.27749795
1.6504596 1.0089414 -0.27494928
4.1527886 2.504878 -0.69193882
4.2395401 2.5218699 -0.70383257
4.2062674 2.4672542 -0.6957618
4.3498564 2.5157559 -0.71700066
4.3927274 2.5047128 -0.72153157
4.38903 2.4670386 -0.71841657
1.7251618 0.95537764 -0.28032979
1.7240412 0.94097793 -0.27919707
1.7297825 0.93038172 -0.27919707
1.7319604 0.91789508 -0.27863067
1.7279091 0.90220761 -0.27707317
1.7395735 0.89475989 -0.27806431
1.7353187 0.87914491 -0.27650681
1.7468798 0.87157631 -0.27749795
1.7557483 0.86258841 -0.27806431
1.7520978 0.84748578 -0.2766484
1.7706697 0.84310704 -0.27877229
1.7964228 0.8418951 -0.28202891
1.8141381 0.83666468 -0.28401119
4.6214657 2.0981576 -0.72422183
4.5755043 2.0435143 -0.71501833
4.5698314 2.007436 -0.71218652
4.6265893 1.9985996 -0.7191245
4.6651874 1.9813997 -0.72323072
4.6891322 1.9576967 -0.72507143
4.7083826 1.931895 -0.72620416
4.6375213 1.8696451 -0.7134608
4.6571889 1.844436 -0.71473515
4.7117782 1.8326969 -0.72139001
4.6868701 1.7899728 -0.71586788
4.713522 1.7670904 -0.71827495
4.706625 1.731639 -0.7155847
4.7329898 1.7084429 -0.71799177
4.7984381 1.6988691 -0.72634572
4.7564039 1.6512074 -0.71841657
4.8311067 1.6440043 -0.72818643
4.7875772 1.5964739 -0.72011566
4.7859917 1.5633779 -0.71841657
4.7087541 1.5062238 -0.7053901
4.7415242 1.4847014 -0.7089299
4.8716912 1.4927164 -0.7270537
4.8039527 1.4397666 -0.7155847
4.7832484 1.4016298 -0.71119535
4.8812122 1.3978837 -0.72450501
4.874445 1.3636378 -0.72223955
4.9591131 1.3545799 -0.73356694
4.9587231 1.32183 -0.73229259
5.0041037 1.3010986 -0.73781472
4.9860849 1.2637994 -0.73399174
4.9504995 1.2224965 -0.72762007
4.9044051 1.1474391 -0.71869975
4.9181166 1.0871681 -0.71869975
5.0098662 1.075262 -0.73115987
5.0415545 0.95327806 -0.73215103
4.8944254 0.89436907 -0.709921
4.9895072 0.88015282 -0.72294754
5.0767889 0.86347413 -0.73484129
5.0644069 0.82942516 -0.73229259
5.0341988 0.79278678 -0.72719526
5.0614805 0.76528919 -0.73045194
5.0092597 0.72597605 -0.72223955
5.0851979 0.7051608 -0.73257577
5.1816754 0.68617219 -0.74588549
5.0502553 0.63724631 -0.72634572
5.01967 0.60211581 -0.72139001
5.0753994 0.57723975 -0.72889441
5.0611291 0.54417968 -0.72634572
5.0436907 0.51101685 -0.72337228
5.1058593 0.48569155 -0.73186785
5.1225476 0.45558292 -0.73385012
5.1114349 0.42299825 -0.73186785
5.140584 0.39367127 -0.73569083
5.0579801 0.35613179 -0.7235139
5.0620456 0.32521707 -0.72379708
5.024416 0.2918497 -0.71813339
5.0715876 0.26338229 -0.72464663
1.6861814 0.076774709 -0.23969279
1.7093711 0.067331597 -0.24294941
1.7146989 0.057008121 -0.24365738
1.7219433 0.046676159 -0.24464852
1.7221973 0.036109634 -0.24464852
1.7342643 0.02572225 -0.24634764
1.7403286 0.015134328 -0.24719718
1.7379463 -0.0038518251 -0.27673572
1.740852 -0.014540761 -0.27721071
1.7446791 -0.025279947 -0.27784404
1.7829908 -0.036784355 -0.28401893
1.7866797 -0.047830138 -0.28465223
1.7429312 -0.057356879 -0.2776857
4.5633178 -0.17861667 -0.73035228
4.5660815 -0.20679222 -0.73098564
1.7208726 -0.0883625 -0.27436078
1.7045261 -0.098010674 -0.27182749
1.6831994 -0.10714724 -0.26850253
1.6490211 -0.11512988 -0.26311931
1.6620672 -0.12629539 -0.26533595
1.6474842 -0.13535723 -0.26311931
1.6446556 -0.14528939 -0.26280266
1.65258 -0.1562157 -0.26422763
1.6535553 -0.16655101 -0.26454428
1.653484 -0.17679903 -0.26470262
1.6631602 -0.18816392 -0.26644424
1.6698176 -0.19930267 -0.26771089
1.6861974 -0.211762 -0.27056083
4.6754003 -0.61677802 -0.75426018
4.6069741 -0.63653135 -0.74381042
4.6313214 -0.66888177 -0.748402
4.5851469 -0.69095749 -0.74159378
4.6286173 -0.7265839 -0.74935198
4.5782714 -0.74749058 -0.74191046
4.5434208 -0.77044916 -0.73700219
4.5843129 -0.8063544 -0.74444371
4.5472236 -0.82862484 -0.73921883
4.5226479 -0.85285002 -0.73605222
4.569663 -0.89078891 -0.74460202
4.5060339 -0.90711617 -0.73510224
4.5777225 -0.95081568 -0.74776864
4.522562 -0.96834046 -0.73969382
4.5001435 -0.9924562 -0.73700219
4.5372992 -1.0298874 -0.74412704
4.5078182 -1.05232 -0.74032712
4.5147181 -1.0831854 -0.74254376
4.4773088 -1.1033052 -0.73747718
4.4761977 -1.1322098 -0.73842716
4.4605651 -1.1574216 -0.73700219
4.5077677 -1.1992419 -0.74602699
4.4660306 -1.2175272 -0.74032712
4.5060258 -1.2581871 -0.74824363
4.493474 -1.2844548 -0.74745202
4.4561305 -1.3034073 -0.74254376
4.4802113 -1.3403491 -0.74792701
4.4804001 -1.3704135 -0.74935198
4.4747343 -1.3987628 -0.74982697
4.4293852 -1.4144766 -0.74365205
4.4318871 -1.4453025 -0.745552
4.4051361 -1.466542 -0.74254376
4.3595943 -1.4811542 -0.73636889
4.37468 -1.5162849 -0.74048543
4.3727412 -1.5457319 -0.74175209
4.3185878 -1.5564615 -0.73415226
4.3793941 -1.6088107 -0.74618536
4.3657408 -1.634267 -0.745552
4.3058128 -1.6420226 -0.73700219
4.3610039 -1.6937963 -0.74824363
4.3762374 -1.7306918 -0.7526769
4.3050847 -1.7331707 -0.74222708
4.35467 -1.7842646 -0.7526769
4.3354378 -1.8075308 -0.75125194
4.3706236 -1.8537637 -0.75932676
4.3020511 -1.8559031 -0.74935198
4.2462778 -1.8628258 -0.74159378
4.2681317 -1.9037291 -0.74745202
4.2186017 -1.9127549 -0.74080211
4.2525191 -1.9596819 -0.74887699
4.273499 -2.0012331 -0.75473517
4.2129936 -2.0045068 -0.74618536
4.2050595 -2.0324681 -0.74697703
4.1694655 -2.046917 -0.74286044
4.2045431 -2.0962548 -0.75141025
4.1827927 -2.1175535 -0.74982697
4.2057252 -2.1616869 -0.75631851
4.12848 -2.1541059 -0.74476039
4.1561947 -2.2011187 -0.75220191
4.1982713 -2.2564995 -0.76233506
4.1566086 -2.2670865 -0.75726849
4.1037445 -2.2710319 -0.75014359
4.0716529 -2.2860172 -0.74681866
4.0704188 -2.3182881 -0.74919361
4.0877504 -2.3614967 -0.75505185
4.0237732 -2.3575804 -0.74586868
4.0890207 -2.4296408 -0.76075172
4.044436 -2.4368482 -0.75521016
3.9754837 -2.4286716 -0.74507701
4.0175853 -2.4883759 -0.75584352
4.0072584 -2.5161312 -0.7567935
3.9875793 -2.5380208 -0.75600183
3.9843767 -2.5704701 -0.75837678
3.9660506 -2.5932481 -0.75790179
3.9113808 -2.591898 -0.75046027
3.8962233 -2.6163995 -0.75061858
3.9339709 -2.6769214 -0.7610684
3.8524425 -2.6561677 -0.748402
3.8652108 -2.7001138 -0.75410187
3.8501823 -2.7249205 -0.75441855
3.7387056 -2.680598 -0.73573554
3.7453544 -2.7203164 -0.74032712
3.6904182 -2.7151573 -0.73272729
3.7346487 -2.7831845 -0.7449187
3.683615 -2.7804668 -0.73811048
3.6609943 -2.7988183 -0.73700219
3.6726377 -2.8435967 -0.74286044
3.6527898 -2.8642502 -0.74238545
3.6869514 -2.9277518 -0.75299358
3.6781507 -2.9577446 -0.75489354
3.6453865 -2.9684112 -0.75188524
3.6057742 -2.9731338 -0.74745202
3.5897374 -2.9971011 -0.74792701
3.5569534 -3.0069582 -0.7449187
3.5391865 -3.0293689 -0.74507701
3.4936709 -3.0277469 -0.73937714
3.4609265 -3.0367525 -0.73636889
3.4230366 -3.0408802 -0.7322523
3.3969729 -3.055223 -0.73066896
3.3840024 -3.0813274 -0.73193562
3.3947959 -3.1294739 -0.73842716
3.3813043 -3.1556349 -0.73969382
3.3676195 -3.1817479 -0.74096042
3.3558819 -3.2098591 -0.74270207
3.3417976 -3.2358851 -0.74396873
3.3331611 -3.2673891 -0.74650198
3.2836156 -3.2585664 -0.73985213
3.2823663 -3.2975483 -0.74412704
3.3098347 -3.3662093 -0.75505185
3.3118184 -3.4098291 -0.76027673
3.2395685 -3.3766458 -0.748402
3.1780398 -3.353457 -0.73890215
3.1735971 -3.3901947 -0.74270207
3.1601088 -3.4175787 -0.74444371
3.1490674 -3.4478409 -0.74681866
2.0498383 -2.272033 -0.48874012
2.0273197 -2.2749841 -0.48668182
2.0133226 -2.2873807 -0.48668182
2.042001 -2.3488755 -0.49713165
1.9992509 -2.3283968 -0.49016511
1.9785409 -2.3330891 -0.48858181
1.9603845 -2.3406432 -0.48763183
1.939693 -2.3450189 -0.48604852
1.9171482 -2.346935 -0.48399022
1.8940332 -2.3478944 -0.48177359
1.8648273 -2.3409355 -0.47797367
1.8443246 -2.3445728 -0.47639036
1.8238474 -2.3480468 -0.47480705
1.8130108 -2.3638947 -0.47575703
1.8097963 -2.3899317 -0.47876531
1.6035575 -2.1447558 -0.42746627
1.5469803 -2.0957644 -0.41574982
1.5282776 -2.0972366 -0.41416651
1.5055797 -2.0929472 -0.41147488
1.4909945 -2.0997305 -0.41099989
1.4746828 -2.1039879 -0.41004992
1.4527586 -2.1000037 -0.40751663
1.4387326 -2.1072471 -0.40719998
1.4191557 -2.1062086 -0.40530002
1.4040191 -2.1115875 -0.40466669
1.3867036 -2.1135578 -0.40340003
1.3688806 -2.1145663 -0.40197507
1.3564115 -2.1237578 -0.40213341
1.3354607 -2.1195092 -0.39975846
1.3219093 -2.1268249 -0.39960012
1.3078026 -2.1332121 -0.39928344
1.2875375 -2.1293669 -0.39706683
1.2724251 -2.1338344 -0.3964335
1.2588079 -2.1407506 -0.39627516
1.2426778 -2.1433086 -0.39532518
1.2270536 -2.1466069 -0.39453354
1.2124052 -2.1515148 -0.39405856
1.1953461 -2.1520078 -0.3927919
1.1773785 -2.1506402 -0.39120859
1.1627541 -2.1552169 -0.3907336
1.1453375 -2.1544638 -0.38930863
1.1334704 -2.1640751 -0.38978362
1.1206234 -2.1718667 -0.38994196
1.1045923 -2.1734202 -0.38899198
1.08991 -2.1775079 -0.38851699
1.07391 -2.1788404 -0.38756701
1.05147 -2.1667333 -0.38424206
1.0364532 -2.1695802 -0.38360873
1.0185008 -2.1660695 -0.38186711
1.0056055 -2.1731744 -0.38202545
0.99429744 -2.1837971 -0.38281709
0.98128277 -2.190758 -0.38297543
0.95508617 -2.1678219 -0.37790886
1.0528286 -2.4300523 -0.42271635
1.0367376 -2.4337413 -0.42224136
1.024454 -2.4464324 -0.42334968
1.0086724 -2.4508457 -0.423033
0.99768621 -2.4670582 -0.42477465
0.9799785 -2.4667101 -0.42366633
0.96231282 -2.4662375 -0.42255801
0.9535194 -2.4886928 -0.42540798
0.93162835 -2.4769366 -0.4223997
0.92290747 -2.5002065 -0.42540798
0.9139359 -2.5234618 -0.42841625
0.89480013 -2.5187871 -0.4266746
0.88290036 -2.5344875 -0.42841625
0.86637545 -2.5370536 -0.42794126
0.84546661 -2.5264037 -0.42524964
0.83271658 -2.5399883 -0.4266746
0.81138259 -2.5271871 -0.42366633
0.7943809 -2.5274081 -0.42287469
0.77914828 -2.5331786 -0.423033
0.76273715 -2.5350749 -0.42255801
0.75106806 -2.552969 -0.42477465
0.73620749 -2.5603764 -0.42524964
0.7191487 -2.5600924 -0.424458
0.70577663 -2.5730269 -0.42588297
0.68589157 -2.562048 -0.42334968
0.66941005 -2.5633421 -0.42287469
0.65172082 -2.5597463 -0.42160803
0.63386339 -2.5550716 -0.42018306
0.617015 -2.5541139 -0.41939142
0.60291272 -2.5645802 -0.42049971
0.58892518 -2.5759318 -0.42176637
0.57096791 -2.5698578 -0.42018306
0.55747837 -2.58393 -0.42192471
0.53817546 -2.5708723 -0.41923308
0.5221945 -2.5731585 -0.41907474
0.50868016 -2.5879405 -0.4209747
0.49168491 -2.5851929 -0.42002472
0.47367194 -2.5765076 -0.41812477
0.45837128 -2.5822821 -0.41859975
0.44151905 -2.5792065 -0.41764978
0.42745087 -2.5925839 -0.41939142
0.41153505 -2.5951579 -0.41939142
0.3944152 -2.5898249 -0.41812477
0.37894461 -2.5951273 -0.41859975
0.36192146 -2.5895805 -0.41733313
0.34628645 -2.5937099 -0.41764978
0.33098802 -2.6006835 -0.41844144
0.31348312 -2.5899222 -0.41638315
0.29758579 -2.5917969 -0.41638315
0.28348795 -2.6102619 -0.41907474
0.26676291 -2.6050763 -0.41796643
0.25105682 -2.6096125 -0.41844144
0.23618937 -2.6238883 -0.42049971
0.21909635 -2.6134808 -0.41859975
0.20313257 -2.6157603 -0.41875809
0.18771155 -2.6258216 -0.42018306
0.1707608 -2.614115 -0.41812477
0.15500878 -2.6200418 -0.41891643
0.13861656 -2.6150277 -0.41796643
0.12233784 -2.6108975 -0.41717479
0.10647564 -2.6155453 -0.41780812
0.09015286 -2.6082549 -0.41654146
0.074370861 -2.6166549 -0.41780812
0.058554873 -2.6279204 -0.41954973
0.042524211 -2.6341541 -0.42049971
0.026507324 -2.6491752 -0.42287469
0.010233157 -2.644351 -0.42208302
-0.0060111247 -2.6522632 -0.42334968
-0.022360506 -2.6610627 -0.42477465
-0.038586918 -2.6539645 -0.42366633
-0.055301238 -2.6744082 -0.42699128
-0.071497552 -2.6661224 -0.42572463
-0.087953083 -2.6685939 -0.42619962
-0.10502173 -2.6857636 -0.42904958
-0.12123094 -2.6791503 -0.42809957
-0.13726139 -2.6704674 -0.42683294
-0.15341717 -2.6656318 -0.42619962
-0.16958167 -2.661684 -0.42572463
-0.18680622 -2.6733983 -0.42778292
-0.20253171 -2.6633408 -0.42635795
-0.22146189 -2.6935377 -0.43142453
-0.23781089 -2.6901612 -0.43110785
-0.25459215 -2.6916003 -0.43158284
-0.26872426 -2.66641 -0.42778292
-0.28518513 -2.6656928 -0.42794126
-0.30220303 -2.6697793 -0.42889124
-0.32724917 -2.7404251 -0.4406077
-0.51712668 -4.1148052 -0.66306192
-0.5375849 -4.0753355 -0.65720367
-0.56203979 -4.068048 -0.65657037
-0.58656669 -4.0615911 -0.65609533
-0.60205722 -3.9954288 -0.64596224
-0.62809312 -4.0014138 -0.64754552
-0.67571115 -4.1387835 -0.67050344
-0.6743421 -3.9768555 -0.64485389
-0.27918881 -1.5330312 -0.24791959
-0.31813315 -1.5324851 -0.24902791
-0.33497438 -1.565262 -0.25472781
-0.33588898 -1.4396023 -0.23509483
-0.33572984 -1.4000692 -0.22891994
-0.34927642 -1.4181155 -0.23224488
-0.33787933 -1.3028588 -0.21387856
-0.34637499 -1.3026694 -0.21419522
-0.35099465 -1.0997519 -0.18316247
-0.36110404 -1.1079034 -0.1849041
-0.36446387 -1.0953618 -0.18316247
-0.38229686 -1.125826 -0.18870403
-0.39404875 -1.1374528 -0.19107898
-0.39740017 -1.1247735 -0.18933734
-0.39558849 -1.098163 -0.18522076
-0.38019559 -0.99751699 -0.16922939
-0.37098095 -0.93860424 -0.15988789
-0.39123482 -0.93890733 -0.16115454
-0.38696301 -0.91285551 -0.15703794
-0.43428797 -0.91322988 -0.16020456
-0.43980467 -0.89630961 -0.15814626
-0.43751353 -0.82655388 -0.14801311
-0.46346763 -0.82589918 -0.14991307
-0.46803784 -0.82218188 -0.14975475
-0.46714628 -0.80903518 -0.14785478
-0.47160244 -0.80530167 -0.14769645
-0.463103 -0.76900828 -0.14199656
-0.46300185 -0.73777682 -0.13772164
-0.45326626 -0.69359529 -0.13091344
-0.46206769 -0.67942053 -0.12980512
-0.4992106 -0.71497911 -0.13787997
-0.50938499 -0.70167482 -0.13708831
-0.51565641 -0.67484361 -0.13423836
-0.52799076 -0.66523772 -0.13423836
-0.48213777 -0.57780474 -0.11872199
-0.4888615 -0.57860553 -0.11951364
-0.76105726 -0.74858588 -0.16922939
-0.78873682 -0.72958046 -0.17033769
-0.86347872 -0.76023215 -0.18252914
-0.90315241 -0.78536391 -0.18997067
-0.91319859 -0.78430969 -0.19107898
-1.0796465 -0.79708892 -0.21324524
-1.0773227 -0.7751323 -0.21087028
-1.0144284 -0.72049397 -0.19757053
-1.0759784 -0.74449933 -0.207862
-1.1775714 -0.80412716 -0.22670332
-1.1570972 -0.77978516 -0.22179508
-1.1561042 -0.76884437 -0.22068676
-1.1963458 -0.75392377 -0.22480336
-1.2776194 -0.77264011 -0.23746979
-1.289121 -0.76883113 -0.23873644
-1.3437338 -0.77919787 -0.24712794
-1.5190841 -0.81964082 -0.27483577
-1.795413 -0.92643285 -0.32201821
-1.8934926 -0.96236181 -0.33864293
-1.9770662 -0.98960871 -0.35257599
-1.9972723 -0.98444194 -0.35510927
-2.0938878 -1.016129 -0.37125897
-2.0635526 -0.98581541 -0.36476743
-2.116029 -0.99497789 -0.37300059
-2.1462901 -0.99316865 -0.37727553
-2.1415596 -0.97507185 -0.37537557
-2.1438975 -0.96029902 -0.37474224
-2.1533639 -0.94871819 -0.37537557
-2.1509902 -0.93195558 -0.3739506
-2.1566682 -0.9187398 -0.3739506
-2.1604431 -0.9047268 -0.37363392
-2.1540833 -0.8865695 -0.37157562
-2.1677213 -0.87666643 -0.37300059
-2.1703067 -0.86225557 -0.3725256
-2.1783161 -0.84999907 -0.37300059
-2.189945 -0.83908945 -0.37410891
-2.2005978 -0.82772154 -0.37505889
-2.2084138 -0.81522882 -0.37553388
-2.2059472 -0.79897368 -0.37426725
-2.2126689 -0.78608412 -0.3745839
-2.2165184 -0.77216792 -0.37442559
-2.2156079 -0.75663906 -0.37347561
-2.2492363 -0.75274122 -0.37838385
-2.3035417 -0.75522405 -0.38677534
-2.4322321 -0.78090614 -0.40767497
-2.4040084 -0.7556085 -0.40213341
-2.4180372 -0.74374545 -0.40371671
-2.4424117 -0.73486686 -0.40704164
-2.4506638 -0.720981 -0.40767497
-2.4512455 -0.70483935 -0.40704164
-2.4507713 -0.68845081 -0.40625
-2.4492359 -0.67183363 -0.40530002
-2.4571276 -0.65781379 -0.40593332
-2.4563406 -0.64147782 -0.40514168
-2.4697993 -0.62882918 -0.40672499
-2.5387795 -0.62982327 -0.41749144
-3.5993357 -0.8694101 -0.59181321
-3.7574339 -0.88322258 -0.61698776
-3.8243871 -0.87422901 -0.62712091
-3.7814841 -0.84004349 -0.6192044
-3.8898435 -0.83909625 -0.63614571
-4.0369878 -0.84493876 -0.65942031
-4.0479026 -0.82133007 -0.66037029
-4.0858073 -0.80294871 -0.66575348
-4.2283993 -0.80404747 -0.68823642
-4.1293426 -0.75899446 -0.67129505
-4.1086445 -0.72915858 -0.66717851
-4.1237473 -0.70576632 -0.6689201
-4.1543045 -0.68478453 -0.67319506
-4.0706592 -0.64537174 -0.65894532
-4.086256 -0.62216526 -0.66084528
-4.08218 -0.59594017 -0.65957862
-4.0808706 -0.57019824 -0.65878695
-4.0745053 -0.54384208 -0.65720367
-4.0973554 -0.52132243 -0.66037029
-4.047544 -0.48976988 -0.65182042
-4.0534158 -0.46526301 -0.65229541
-4.0689554 -0.44176763 -0.65435374
-4.0941815 -0.41910395 -0.65799534
-4.0986414 -0.39416355 -0.65831196
-4.1786728 -0.37599307 -0.67082006
-4.1740141 -0.34976941 -0.66971177
-4.1682057 -0.32354075 -0.66844511
-4.1612492 -0.29732624 -0.66702014
-4.1876273 -0.27339435 -0.67097843
-4.1852832 -0.24746153 -0.67034507
-4.2251768 -0.22381109 -0.67651999
-4.2116766 -0.19718988 -0.67414504
-4.2956791 -0.17470944 -0.68744475
-4.2552242 -0.14691983 -0.68079489
-4.241241 -0.12038814 -0.67841995
-4.2093239 -0.093639389 -0.67319506
-4.2127814 -0.067857228 -0.67367005
-4.1775742 -0.041654553 -0.66797012
-4.2132964 -0.016154816 -0.67367005
-4.2459002 0.0097747417 -0.67889494
-4.2279882 0.035675887 -0.676045
-4.2069569 0.061314244 -0.67272007
-4.2568469 0.088172294 -0.68079489
-4.255239 0.11426359 -0.68063658
-4.3077474 0.14213249 -0.68918639
-4.3354068 0.16968319 -0.69377798
-4.358943 0.19739971 -0.69773626
-4.2284732 0.21749008 -0.67699498
-4.2655034 0.24564767 -0.68316984
-4.3496437 0.27728575 -0.69694459
-4.3646054 0.30514109 -0.69963622
-4.3862796 0.33371517 -0.70343614
-4.3890696 0.3610276 -0.70422781
-4.3877559 0.38803867 -0.70438612
-4.3754621 0.41402337 -0.70280284
-4.3797164 0.44155663 -0.70391113
-4.3887057 0.46968329 -0.70581108
-4.374949 0.4953804 -0.7040695
-4.3669248 0.52162939 -0.70327783
-4.382256 0.55075496 -0.70628607
-4.3856463 0.57853794 -0.70739442
-4.4005976 0.60800552 -0.71040267
-4.4358735 0.64064336 -0.7167359
-4.4230719 0.66652465 -0.71531093
-4.4364567 0.69640869 -0.71816087
-4.4262533 0.72266221 -0.71721089
-4.3993459 0.74600953 -0.71356928
-4.4637294 0.78513765 -0.72481072
-4.4597993 0.81268889 -0.72496909
-4.4537582 0.83985537 -0.72481072
-4.4407682 0.86565548 -0.72354412
-4.4818349 0.90224326 -0.73114395
-4.5052166 0.9357518 -0.73589385
-4.512907 0.96627265 -0.73811048
-4.5165353 0.99607211 -0.73969382
-4.5151529 1.0248593 -0.74048543
-4.5126257 1.0534426 -0.74111879
-4.5051169 1.0808812 -0.74096042
-4.5051107 1.1101578 -0.74206877
-4.5097008 1.140686 -0.74396873
-4.5150414 1.1715602 -0.74602699
-4.5154009 1.2012731 -0.74729365
-4.4946084 1.2253199 -0.74507701
-4.4822507 1.2515472 -0.7442854
-4.4896765 1.2833691 -0.74681866
-4.5035138 1.3172696 -0.75046027
-4.4944005 1.3445948 -0.75030196
-4.4785118 1.3698359 -0.7490353
-4.4973521 1.4058343 -0.75362688
-4.5149775 1.4418148 -0.75806016
-4.5360847 1.4792889 -0.76312673
-4.5503426 1.5148923 -0.76708496
-4.5390921 1.5421489 -0.76676828
-4.5482025 1.5764395 -0.76993489
-4.5365825 1.6036587 -0.76961827
-4.5155106 1.6274464 -0.76771826
-4.5249028 1.6622736 -0.77104324
-4.5229402 1.6931224 -0.77246821
-4.5032406 1.717324 -0.77088487
-4.4907775 1.744208 -0.77056825
-4.502027 1.7804462 -0.77436817
-4.512084 1.816519 -0.77800977
-4.5282626 1.8554026 -0.78275967
-4.5067682 1.8789726 -0.78101802
-4.5069709 1.9116029 -0.78307635
-4.5069423 1.9443063 -0.78513461
-4.4931192 1.9711304 -0.78481799
-4.4710212 1.9942377 -0.78307635
-4.4631963 2.0236726 -0.78386801
-4.4731135 2.0613527 -0.78782624
-4.4576988 2.0875039 -0.78735125
-4.4448061 2.1148167 -0.78735125
-4.4237456 2.1381819 -0.78592628
-4.4273825 2.1735537 -0.78893453
-4.4493074 2.2183032 -0.79526776
-4.4232802 2.2393174 -0.79305112
-4.3901372 2.2564847 -0.78956789
-4.3954668 2.2934294 -0.79305112
-4.3830571 2.3212805 -0.7933678
-4.3565559 2.3415856 -0.79115117
-4.3429728 2.3687458 -0.79130954
-4.336132 2.3996525 -0.7927345
-4.3282137 2.4300807 -0.7940011
-4.3355289 2.4692988 -0.7981177
-4.3510733 2.5136375 -0.80381763
-4.3372722 2.5412862 -0.80413425
-4.3097138 2.5607893 -0.80191767
-4.2947655 2.5876946 -0.80207598
-4.2897606 2.6206908 -0.80413425
-4.2744389 2.6474826 -0.80429262
-4.2756734 2.6846874 -0.80761755
-4.2607861 2.7119324 -0.80793422
-4.2473845 2.7401662 -0.80856752
-4.2321444 2.7672567 -0.8088842
-4.2101464 2.7898998 -0.80793422
-4.1978669 2.8189833 -0.8088842
-4.1894698 2.8507986 -0.81062585
-4.1662087 2.8725274 -0.8095175
-4.1468863 2.8969057 -0.80920082
-4.1580462 2.9428325 -0.81490076
-4.1375041 2.9665639 -0.81442577
-4.0960565 2.9750669 -0.80983418
-4.0697718 2.994292 -0.80825084
-4.0568643 3.0233376 -0.80935919
-4.0571504 3.0624509 -0.81315911
-4.0476956 3.0944839 -0.81505907
-4.0262899 3.1174483 -0.81458408
-4.004755 3.1402667 -0.81410909
-3.9815452 3.16171 -0.81331742
-3.954376 3.1798925 -0.81173414
-3.9324934 3.2022259 -0.81125915
-3.9257212 3.2369742 -0.81395078
-3.9201858 3.2730255 -0.81695902
-3.9113393 3.3065798 -0.81933397
-3.9052286 3.3427172 -0.82234228
-3.8756907 3.358856 -0.82044232
-3.853524 3.3812709 -0.82012564
-3.8223705 3.3956709 -0.817909
-3.792654 3.4111366 -0.81600904
-3.7738421 3.4363382 -0.81648403
-3.7178411 3.4273038 -0.8088842
-3.6945758 3.4480305 -0.80840921
-3.6927269 3.4889448 -0.81268412
-3.6648281 3.5053945 -0.81125915
-3.635448 3.5202596 -0.8095175
-3.606024 3.5348966 -0.80777586
-3.5821638 3.5548697 -0.80730087
-3.5561051 3.5725832 -0.80635089
-3.5265026 3.586591 -0.80460924
-3.499614 3.6032031 -0.80350095
-3.4685533 3.6153457 -0.80144268
-3.4463048 3.6365604 -0.80144268
-3.4347222 3.6691718 -0.80397594
-3.4114735 3.6894529 -0.80381763
-3.3654668 3.6847975 -0.79827607
-3.3427939 3.7053781 -0.79827607
-3.3127699 3.71771 -0.79653442
-3.2957668 3.7446377 -0.79795939
-3.2863309 3.7804394 -0.80128431
-3.2502096 3.7855492 -0.7981177
-3.2077639 3.7828274 -0.7933678
-3.1920996 3.811523 -0.79526776
-3.1799791 3.8447337 -0.7981177
-3.1388402 3.8427606 -0.79368448
-3.1028047 3.8465767 -0.79051787
-3.0840652 3.8717213 -0.79178452
-3.0382762 3.8626323 -0.78608459
-3.018152 3.8858809 -0.78703457
-3.0026636 3.9152966 -0.78925121
-2.970835 3.9234133 -0.78719294
-2.9360645 3.9273329 -0.784343
-2.9083936 3.9405074 -0.78339297
-2.9045105 3.9862103 -0.78893453
-2.8788438 4.0023537 -0.78861791
-2.8439429 4.0054502 -0.78576797
-2.8057129 4.0034184 -0.781968
-2.8007541 4.0489812 -0.78750956
-2.7719605 4.0603819 -0.78640127
-2.7469943 4.0773139 -0.78640127
-2.7230179 4.0957365 -0.78671795
-2.689712 4.0999837 -0.784343
-2.6730883 4.129673 -0.78687626
-2.6291001 4.1168699 -0.7813347
-2.5927382 4.1153798 -0.77800977
-2.5804663 4.1521778 -0.781968
-2.5750639 4.2007647 -0.78814292
-2.5410671 4.2029662 -0.7856096
-2.5172527 4.2218709 -0.78624296
-2.4867969 4.2295766 -0.78481799
-2.4538655 4.2327962 -0.78260136
-2.4263775 4.2452011 -0.78212637
-2.4041612 4.2668915 -0.78339297
-2.3865631 4.2971005 -0.78624296
-2.3720031 4.3333168 -0.79020119
-2.3336513 4.3260636 -0.78624296
-2.3028927 4.3324542 -0.78481799
-2.2968774 4.3858652 -0.79194283
-2.2382369 4.33845 -0.78085971
-2.2066548 4.3424191 -0.77911806
-2.1702478 4.3364511 -0.77563483
-2.1379254 4.3381715 -0.7735765
-2.1147146 4.358315 -0.77484316
-2.0866559 4.3685355 -0.77436817
-2.0635924 4.3892994 -0.77579314
-2.0270863 4.3812671 -0.77215153
-2.0030286 4.3999133 -0.77325988
-1.9804324 4.4220338 -0.77500147
-1.9492821 4.425066 -0.77341819
-1.9181693 4.4278827 -0.77183485
-1.891351 4.4404774 -0.77199322
-1.8720763 4.4711256 -0.77531815
-1.8506181 4.497138 -0.7778514
-1.8104062 4.4772849 -0.77246821
-1.7781619 4.4763799 -0.77040988
-1.754609 4.4973245 -0.77215153
-1.7319255 4.520915 -0.77436817
-1.6989404 4.5175934 -0.77199322
-1.6728981 4.5325646 -0.77278483
-1.6484168 4.5520282 -0.77436817
-1.6240898 4.5722919 -0.77610981
-1.5924323 4.5719137 -0.77436817
-1.5697726 4.5974841 -0.77705979
-1.5337019 4.5836201 -0.77310151
-1.5080085 4.6004505 -0.77436817
-1.4924257 4.6491036 -0.78101802
-1.4570638 4.6365075 -0.77737641
-1.4248148 4.6330914 -0.77531815
-1.386975 4.6105437 -0.77009326
-1.3608878 4.6265454 -0.77135986
-1.3376567 4.6528392 -0.77436817
-1.3008072 4.6314902 -0.7694599
-1.2765421 4.6546202 -0.77199322
-1.2446396 4.6499658 -0.76993489
-1.2183291 4.6661134 -0.77135986
-1.1923542 4.6840267 -0.77310151
-1.158125 4.6692123 -0.7694599
-1.1269041 4.6656728 -0.76771826
-1.0966737 4.6657715 -0.76660997
-1.0618652 4.6454606 -0.76217669
-1.0294882 4.6345382 -0.75932676
-0.99915844 4.632081 -0.75790179
-0.97193104 4.6439233 -0.75885177
-0.94263303 4.6459289 -0.75821847
-0.91962832 4.6797223 -0.76281005
-0.89181876 4.6901269 -0.76360172
-0.8617748 4.6887131 -0.76249337
-0.82902223 4.6715517 -0.75885177
-0.79934347 4.670711 -0.75790179
-0.76810098 4.6599398 -0.75536853
-0.74011189 4.6684661 -0.75600183
-0.71709824 4.7100129 -0.76201838
-0.68604606 4.6996684 -0.75964344
-0.65009457 4.6529393 -0.75141025
-0.64503545 4.8330092 -0.77990973
-0.61100876 4.8025937 -0.77436817
-0.57951373 4.7895885 -0.77167654
-0.54932672 4.7861872 -0.77056825
-0.51622087 4.7551112 -0.76502669
-0.48130649 4.7021999 -0.75600183
-0.45131177 4.6932702 -0.75410187
-0.42011833 4.6693988 -0.74982697
-0.38610408 4.6079326 -0.73953545
-0.35224935 4.5383515 -0.72797734
-0.29601613 4.5344501 -0.72671074
-0.2708658 4.581522 -0.73399389
0.20607659 4.5502992 -0.72845232
0.23805504 4.6278358 -0.74111879
0.26201388 4.5493994 -0.728769
0.29017505 4.5516472 -0.7294023
0.31623715 4.5231867 -0.7251274
0.34585899 4.5457745 -0.72908568
0.37220579 4.5248699 -0.72607738
0.40361848 4.5638099 -0.73272729
0.64329106 4.6558785 -0.75172693
0.69507867 4.6124849 -0.74602699
0.71785301 4.5730176 -0.74032712
0.74176097 4.5431905 -0.73621053
0.79677266 4.5298557 -0.73557723
0.83252031 4.5685935 -0.74270207
0.85431421 4.5304103 -0.73731887
1.2358538 6.3393016 -1.0337133
0.91939586 4.5670152 -0.74507701
0.96306765 4.6366935 -0.7574268
0.99294722 4.6374555 -0.75853515
1.0186182 4.618741 -0.75647682
1.0416925 4.5892949 -0.7526769
1.0691587 4.5799322 -0.75220191
1.0951668 4.5646443 -0.75077695
1.1224453 4.5549626 -0.75030196
1.5365062 5.6358309 -0.93475688
1.2908553 4.6229978 -0.76771826
1.3703529 4.5804815 -0.76471001
1.574922 5.1488867 -0.8614499
1.5431373 4.9365101 -0.82740885
1.4646466 4.5864611 -0.77009326
1.4434654 4.4262552 -0.74460202
1.4649823 4.4004521 -0.74175209
1.4976736 4.4082084 -0.74460202
1.5204893 4.3868079 -0.74254376
1.5582389 4.4081159 -0.74776864
1.5725335 4.363174 -0.74175209
1.6125565 4.3895888 -0.74792701
1.6346132 4.3666658 -0.74571037
1.6613758 4.3565536 -0.74571037
1.6823553 4.3315516 -0.74317706
1.7132596 4.3321652 -0.74507701
1.7416531 4.3261509 -0.74586868
1.7734067 4.3281741 -0.74808532
1.8299514 4.3892064 -0.76059341
1.9436072 4.5824165 -0.79621774
1.8989311 4.4017768 -0.76676828
1.9604189 4.4687061 -0.78054303
1.9536093 4.3799462 -0.76708496
1.9718839 4.3489923 -0.76376003
1.9646415 4.2632794 -0.75077695
2.057116 4.3235502 -0.7658183
2.0470788 4.2352843 -0.75236022
2.183563 4.4477677 -0.79257613
2.1918666 4.3962898 -0.78576797
2.167954 4.2823348 -0.76771826
2.2700274 4.4164815 -0.79431778
2.205724 4.2273965 -0.76265174
2.3651857 4.4659491 -0.80840921
2.2808099 4.2434955 -0.77056825
2.4127192 4.4235864 -0.80603427
2.3556633 4.2566538 -0.77816808
2.2797325 4.0604606 -0.74476039
2.4155409 4.2411532 -0.7807014
2.3229675 4.0210648 -0.74270207
2.5847166 4.411387 -0.817909
2.5739043 4.3317833 -0.80603427
2.4441156 4.0007606 -0.74982697
2.4452198 3.9479158 -0.74270207
2.6888881 4.2823629 -0.8088842
2.569834 4.0375562 -0.76550168
2.9462638 4.5668106 -0.86952472
2.77158 4.2387552 -0.8101508
2.6775353 4.0405989 -0.77531815
3.0331278 4.5167241 -0.8704747
3.1868875 4.6833258 -0.9064157
2.7029412 3.8692579 -0.75489354
2.77512 3.9211037 -0.76835161
2.6938319 3.7571611 -0.73937714
2.7702219 3.8140569 -0.75394356
2.7619724 3.7540417 -0.74539369
2.7619424 3.7061481 -0.73921883
2.8221099 3.7387784 -0.74919361
2.8384004 3.7127635 -0.74745202
2.8006752 3.6172087 -0.73161894
2.8307383 3.6100566 -0.73367727
2.8694155 3.6134963 -0.73795217
2.8810139 3.5827415 -0.73526055
2.8524392 3.5029814 -0.72243577
2.9938641 3.6309128 -0.7526769
2.9993083 3.5479054 -0.74301875
2.9690108 3.4686782 -0.73019397
3.001879 3.4638257 -0.73304391
3.0706182 3.4995184 -0.74460202
2.9872098 3.3213603 -0.71436095
3.0221591 3.3190291 -0.71784419
3.0277431 3.2844524 -0.71436095
4.3077006 4.6156225 -1.0104388
4.3684907 4.6235528 -1.0180386
3.2139544 3.3601627 -0.74365205
4.4743567 4.620666 -1.0294384
4.5413337 4.6326094 -1.0383049
3.1118059 3.1357429 -0.70644444
3.1113923 3.0970874 -0.70201117
4.681459 4.6029191 -1.0508131
3.1774971 3.0861883 -0.7083444
3.2034993 3.0734689 -0.70992768
3.2853687 3.1135201 -0.72386074
3.2935979 3.0831816 -0.72148579
3.3537791 3.1011219 -0.73051065
3.3705566 3.0784879 -0.73003566
3.3886492 3.0570872 -0.72987729
3.4161899 3.0441194 -0.73177731
3.3488212 2.9474325 -0.71341097
3.3631172 2.9235902 -0.7126193
3.3862371 2.9074018 -0.71372759
3.4070251 2.8891237 -0.71436095
3.4019778 2.8491464 -0.70961106
3.454397 2.8571649 -0.71689421
3.5192769 2.87464 -0.72671074
3.5683599 2.878407 -0.73320228
3.4701025 2.7641845 -0.70945269
3.570817 2.808764 -0.72655237
3.5677085 2.7710545 -0.72243577
3.5572205 2.7280822 -0.71689421
3.5912113 2.7193165 -0.7203775
3.609411 2.6984124 -0.72069418
3.6433783 2.6891134 -0.72417742
3.6342723 2.648102 -0.71911085
3.6151819 2.6003859 -0.71214432
1.6520836 1.1731915 -0.32296821
1.5953708 1.1182681 -0.31046009
1.5989541 1.1062114 -0.30982679
1.603265 1.0947096 -0.30935177
1.6148653 1.0881615 -0.31030178
1.6215117 1.0782324 -0.31030178
1.6280972 1.0682627 -0.31030178
1.6379368 1.0603987 -0.31093508
1.6477413 1.0524541 -0.31156841
1.6550034 1.0428503 -0.31172675
1.671435 1.0389295 -0.31362671
1.6457884 1.0090467 -0.30761015
1.6485689 0.99688607 -0.30697682
3.9326668 2.3448374 -0.7322523
3.9776235 2.3386776 -0.73795217
4.0737472 2.3283935 -0.75046027
4.0027919 2.2553735 -0.73478556
3.8559968 2.1416087 -0.70533609
1.8076482 0.98965174 -0.32850978
1.7380806 0.93776178 -0.31473503
1.7403144 0.92522591 -0.3141017
1.7372115 0.90994978 -0.31251839
1.7436396 0.89972597 -0.31267673
1.7447261 0.88677394 -0.31188506
1.7474853 0.87472618 -0.31141007
1.7599052 0.86747879 -0.31267673
1.7589765 0.85364705 -0.31156841
1.776655 0.84879541 -0.31378505
1.7979141 0.84543908 -0.31663498
1.8021716 0.83397681 -0.31647664
1.7856869 0.81308585 -0.31267673
4.1075282 1.8395991 -0.71974415
4.1304855 1.819535 -0.72180247
4.1307001 1.7894473 -0.71990252
4.1116238 1.7513012 -0.71467757
4.1368647 1.7321404 -0.71721089
4.1848526 1.7221284 -0.72370243
4.1797786 1.6901267 -0.7210108
4.2258592 1.6786623 -0.72718573
4.3216281 1.6860725 -0.74191046
4.2931657 1.6446903 -0.73526055
4.29948 1.6169269 -0.73462725
4.2907934 1.5836786 -0.73146063
4.2159452 1.5267316 -0.71705258
4.2791996 1.52 -0.72623575
4.2492824 1.4800762 -0.71958584
4.2685628 1.4574842 -0.72132748
4.353272 1.4566395 -0.73415226
4.3499298 1.4259033 -0.73209393
4.3162909 1.3856072 -0.72496909
4.3765206 1.3753753 -0.73367727
4.3848772 1.3484956 -0.73367727
4.4479103 1.3380599 -0.74286044
4.3804574 1.14376 -0.72401911
4.3720827 1.1129639 -0.72148579
4.4344144 1.0999001 -0.73066896
4.3854117 1.0592279 -0.72148579
4.548244 0.95191157 -0.74317706
4.4920678 0.91142404 -0.73304391
4.486918 0.88175029 -0.73130232
4.4951539 0.8547557 -0.73177731
4.4867182 0.82465965 -0.72956067
4.4955826 0.79780406 -0.73019397
4.4721689 0.76537597 -0.72560239
4.5264678 0.746108 -0.73367727
4.5104814 0.71507448 -0.73035228
4.4269304 0.67401445 -0.7161026
4.4700727 0.62455505 -0.72180247
4.4679484 0.59633207 -0.72085249
4.4901342 0.57127273 -0.72386074
4.4906139 0.54335535 -0.72338575
4.5174065 0.5184921 -0.72718573
4.5155945 0.49023145 -0.72639406
4.4910145 0.45970142 -0.72196078
4.5114417 0.43383667 -0.72481072
4.5582724 0.41012603 -0.73193562
4.5744786 0.38330278 -0.73415226
4.60923 0.35774675 -0.73937714
4.6231575 0.33030203 -0.7412771
4.6113029 0.30102891 -0.73906046
4.6032066 0.27214664 -0.73747718
4.5811253 0.24264467 -0.73367727
4.5440621 0.21273218 -0.72750235
1.6674486 0.067971431 -0.2656526
1.7300028 0.059881672 -0.2756274
1.7382334 0.049489103 -0.27689406
1.7394916 0.03884447 -0.27705237
1.7377228 0.028138734 -0.27673572
1.7437866 0.01753445 -0.2776857
1.7438613 0.0068344451 -0.2776857
1.7784456 0.0042585656 -0.31876314
1.7784384 -0.0066538523 -0.31876314
1.7931249 -0.017706592 -0.32142714
1.8008544 -0.028831938 -0.32284793
1.8065468 -0.040009912 -0.32391351
1.8151207 -0.051341269 -0.32551193
1.8010023 -0.062008411 -0.32302552
1.7474892 -0.070922136 -0.31343514
1.6713265 -0.078133106 -0.29975992
1.6698327 -0.088335089 -0.29958233
1.68989 -0.099789888 -0.30331191
1.6607668 -0.10831048 -0.29816154
1.6590893 -0.11842902 -0.29798391
1.6524444 -0.12815246 -0.29691833
1.6496654 -0.13812578 -0.29656312
1.6556482 -0.14885961 -0.29780632
1.6488259 -0.15845306 -0.29674071
1.6693612 -0.17076215 -0.30064791
1.6790445 -0.18216553 -0.30260152
1.6534519 -0.18966997 -0.29816154
1.6825448 -0.20346296 -0.30366713
1.689075 -0.21477319 -0.30508792
16.44232 -2.1877558 -2.9912887
16.451979 -2.2918603 -2.9955509
16.484352 -2.3995674 -3.0040758
4.1254168 -0.62687278 -0.75086403
4.1292691 -0.65340334 -0.75228482
4.111587 -0.67649305 -0.74979842
4.1306405 -0.7056824 -0.7540608
4.0584002 -0.71900737 -0.74162883
4.0955343 -0.75152689 -0.74926561
4.0908461 -0.7766425 -0.74926561
4.0831065 -0.80116081 -0.74873281
4.1118727 -0.8330332 -0.75494885
4.0845275 -0.85362053 -0.75086403
4.0897956 -0.88094455 -0.75281763
4.0362744 -0.89537358 -0.74393761
4.0479746 -0.92406243 -0.74713445
4.070013 -0.95540076 -0.75228482
4.0812945 -0.9845072 -0.75548166
4.0541615 -1.0043283 -0.75157446
4.0240774 -1.0231265 -0.74713445
4.0005832 -1.0433309 -0.74393761
3.9541743 -1.0571889 -0.73647845
4.0188012 -1.1009212 -0.74979842
4.011023 -1.1252936 -0.74962085
4.0466089 -1.1621008 -0.75761282
3.9988003 -1.1749849 -0.74997604
3.9622974 -1.1907234 -0.74447042
3.9727912 -1.2205015 -0.74784482
3.9755561 -1.2480961 -0.74979842
3.9575145 -1.2691619 -0.74784482
3.9346881 -1.2885228 -0.74500322
3.9864442 -1.3326005 -0.75636965
3.968878 -1.3538598 -0.75459361
3.977227 -1.384006 -0.75779045
3.9324882 -1.3955534 -0.75086403
3.9099693 -1.4146364 -0.74820006
3.8956754 -1.4365588 -0.74713445
3.8812599 -1.4583592 -0.74606884
3.866724 -1.4800367 -0.74500322
3.8401475 -1.4969465 -0.74162883
3.9022405 -1.5487872 -0.75548166
3.8780637 -1.5668056 -0.75264001
3.8556337 -1.5853341 -0.75015366
3.8222282 -1.5990903 -0.74553603
3.8313611 -1.6306031 -0.74926561
3.8077362 -1.6482193 -0.74660164
3.8083603 -1.6763079 -0.74873281
3.7899182 -1.6960275 -0.74713445
3.8054194 -1.7310631 -0.75228482
3.8152726 -1.7638755 -0.75636965
3.7856717 -1.7784679 -0.75264001
3.774688 -1.8016628 -0.75264001
3.7653334 -1.8256483 -0.75299525
3.7761335 -1.8595835 -0.75743526
3.7435265 -1.8721573 -0.75317281
3.7337236 -1.8959829 -0.75352806
3.7430143 -1.9296764 -0.75779045
3.7066879 -1.9398339 -0.75281763
3.6903698 -1.9602336 -0.75192964
3.7059948 -1.9977793 -0.75761282
3.645314 -1.994041 -0.74766725
3.6106365 -2.0039575 -0.74304962
3.6411517 -2.0502095 -0.75192964
3.6122656 -2.0632412 -0.74855524
3.6387112 -2.1080539 -0.75672483
3.5926147 -2.1109028 -0.74979842
3.6193323 -2.1565764 -0.75814563
3.5293753 -2.1324444 -0.74198401
3.5187423 -2.1556017 -0.74251682
3.5547776 -2.2077777 -0.75299525
3.5070162 -2.2080555 -0.74571365
3.4950614 -2.2305913 -0.74606884
3.5358493 -2.2872641 -0.75779045
3.4945867 -2.2911148 -0.75192964
3.5148926 -2.3353825 -0.7593888
3.5045788 -2.359653 -0.76027685
3.4754 -2.3711312 -0.75708002
3.4300213 -2.3711507 -0.75033122
3.4057341 -2.3853791 -0.74820006
3.3854146 -2.4022458 -0.74695683
3.3450382 -2.4045956 -0.74127364
3.3413594 -2.4331839 -0.74376005
3.3406236 -2.4641533 -0.74695683
3.3640749 -2.5134609 -0.75565922
3.3305385 -2.5203993 -0.75157446
3.3353212 -2.5563495 -0.75619203
3.2908065 -2.5544438 -0.74962085
3.2975094 -2.592222 -0.75477123
3.3038723 -2.630178 -0.75992161
3.1597099 -2.5472736 -0.7302624
3.1051364 -2.5348806 -0.72120482
3.0713177 -2.5388405 -0.71694243
3.0654936 -2.5658476 -0.71925122
3.0797262 -2.6100547 -0.72635525
3.0658939 -2.6308246 -0.726888
3.0801566 -2.6760447 -0.7341696
3.0695906 -2.7000928 -0.7355904
3.0419405 -2.7090607 -0.73292643
3.0442662 -2.7448056 -0.737544
2.9939284 -2.7329192 -0.72937441
2.9893913 -2.7625906 -0.73239362
2.9335725 -2.7445815 -0.72280324
2.9488337 -2.7929776 -0.7307952
2.918853 -2.7987609 -0.72759843
2.9955552 -2.9077675 -0.75121921
2.9306216 -2.8798862 -0.73932004
2.9310379 -2.9158566 -0.74393761
2.9352834 -2.9561293 -0.74962085
2.911576 -2.9684644 -0.74820006
2.8946769 -2.9876871 -0.74855524
2.8538327 -2.9819338 -0.74269444
2.8219588 -2.9850876 -0.73914242
2.7948568 -2.9929976 -0.73683363
2.7824454 -3.0165997 -0.73843205
2.1169078 -2.3237195 -0.56509441
2.0848329 -2.3169169 -0.56029916
2.0601149 -2.3178988 -0.55745757
2.0380611 -2.3216224 -0.5553264
2.0166843 -2.3259068 -0.5533728
1.9889293 -2.3225427 -0.54964316
1.9625634 -2.3204291 -0.54626876
1.940716 -2.3233657 -0.5441376
1.9182806 -2.3253629 -0.54182875
1.9002459 -2.3325124 -0.5407632
1.8772596 -2.3333955 -0.53827679
1.8567836 -2.3371661 -0.53650075
1.8351171 -2.3392253 -0.53436959
1.8195238 -2.3488855 -0.5340144
1.807469 -2.363132 -0.53472477
1.7858164 -2.3647554 -0.53259361
1.5329709 -2.0561948 -0.46066555
1.5162407 -2.0600152 -0.45942235
1.4960493 -2.0589321 -0.45711356
1.4822402 -2.066474 -0.45675835
1.4706703 -2.077136 -0.45711356
1.4516945 -2.0772493 -0.45515996
1.4372444 -2.0836878 -0.45462716
1.4188923 -2.0843334 -0.45285115
1.4016845 -2.0864666 -0.45143035
1.3883119 -2.0942078 -0.45125276
1.3716633 -2.0969229 -0.45000955
1.3545002 -2.098686 -0.44858876
1.3394824 -2.1036377 -0.44787836
1.3218364 -2.1043181 -0.44627997
1.3057883 -2.1073709 -0.44521436
1.2907796 -2.111985 -0.44450396
1.2752551 -2.1156518 -0.44361594
1.2587281 -2.1175163 -0.44237277
1.2432224 -2.1209555 -0.44148475
