# .PCD v0.7 - Point Cloud Data file format
VERSION 0.7
FIELDS x y z
SIZE 4 4 4
TYPE F F F
COUNT 1 1 1
WIDTH 1445
HEIGHT 1
VIEWPOINT 0 0 0 1 0 0 0
POINTS 1445
DATA ascii
1.4438927 2.4929059 -0.74083382
1.4611226 2.4873395 -0.74183398
1.4733852 2.4733357 -0.74033374
1.4825283 2.4543021 -0.73733324
1.5066589 2.4600234 -0.74183398
1.5263202 2.4581366 -0.74408436
1.5398275 2.4462662 -0.74333423
1.5584527 2.4424865 -0.74508452
1.572359 2.4312518 -0.74458444
1.5792881 2.4094098 -0.74083382
1.6122516 2.4270992 -0.74933523
1.61252 2.3954713 -0.74258411
1.6353693 2.397532 -0.74633473
1.6632574 2.4065716 -0.75233573
1.6679988 2.3820422 -0.74783498
1.6949047 2.3891387 -0.75333589
1.6835473 2.3425212 -0.74183398
1.6825068 2.3110092 -0.73508281
1.7202098 2.3325963 -0.74533457
1.7176911 2.2994981 -0.73808336
1.7171675 2.2696085 -0.73183227
1.7322388 2.2605669 -0.73233235
1.7603197 2.2682567 -0.7383334
1.7670267 2.248276 -0.73533285
1.7904333 2.2495148 -0.73933357
1.7871941 2.2173748 -0.73233235
1.8081107 2.2153699 -0.73533285
1.835236 2.2206566 -0.74083382
1.8668424 2.2308917 -0.74808502
1.8623488 2.197968 -0.74083382
1.8707579 2.1806195 -0.73883349
1.8650594 2.147166 -0.73133218
1.8916234 2.1509535 -0.73658311
1.8835435 2.115438 -0.72833169
1.880285 2.0858581 -0.72208065
1.9080564 2.0907342 -0.7278316
1.9300456 2.0889454 -0.73133218
1.9428269 2.0770636 -0.73133218
1.9435544 2.0524461 -0.72683144
1.9581211 2.0425794 -0.72758156
1.9726397 2.0326109 -0.72833169
1.9748982 2.0101066 -0.72458106
1.9947039 2.0055039 -0.72733152
2.0275769 2.0137002 -0.73483276
2.0378218 1.9991866 -0.73408264
2.0347564 1.971818 -0.72858173
2.0468171 1.9592959 -0.72858173
2.0728681 1.9600075 -0.73358256
2.0841479 1.9465908 -0.73333251
2.0882266 1.9265423 -0.73058206
2.0828359 1.8980372 -0.72458106
2.0966015 1.8871653 -0.72533119
2.1327391 1.8961439 -0.7338326
2.130513 1.8708801 -0.72908181
2.0951488 1.8171602 -0.71307915
2.1158166 1.8124613 -0.71632969
2.1446347 1.8144578 -0.72233069
2.1453276 1.7925705 -0.71883011
2.1510596 1.7750583 -0.71707982
2.169415 1.7679445 -0.71958023
2.1787138 1.7533854 -0.71908015
2.1909471 1.7411894 -0.71958023
2.2259593 1.7468464 -0.72758156
2.2572966 1.7491727 -0.73433268
2.2380023 1.7123367 -0.72458106
2.2492392 1.6991562 -0.7248311
2.2409987 1.6714258 -0.71883011
2.2512121 1.657644 -0.71883011
2.2558596 1.6398132 -0.71707982
2.2509346 1.615212 -0.71232903
2.2615931 1.6019299 -0.71257907
2.2610655 1.5808082 -0.70932853
2.2755032 1.5702053 -0.71082878
2.2978976 1.5649368 -0.71482944
2.3170984 1.557291 -0.71782994
2.3169286 1.5366203 -0.71482944
2.3360343 1.5287393 -0.71782994
2.35269 1.5191054 -0.72008032
2.3619668 1.5046411 -0.72008032
2.3506625 1.4772356 -0.71382928
2.3333523 1.4464538 -0.70582789
2.3595283 1.4427202 -0.71107882
2.3633621 1.4252139 -0.70957857
2.3604133 1.4037545 -0.70607793
2.3489399 1.377485 -0.70007694
2.4671376 1.4265622 -0.73283243
2.4077194 1.3725413 -0.71257907
2.4414151 1.3719779 -0.72008032
2.4167593 1.3386674 -0.7103287
2.3892388 1.3043194 -0.6998269
2.3997548 1.2910116 -0.70057702
2.4050648 1.2749016 -0.6998269
2.4300051 1.2690887 -0.70482773
2.4101985 1.239974 -0.6968264
2.428988 1.230854 -0.70007694
2.4364946 1.2159269 -0.70007694
2.4534671 1.2056534 -0.70282739
2.4512322 1.1859359 -0.70007694
2.444478 1.1642085 -0.69607627
2.4585881 1.1524768 -0.69807661
2.5280299 1.1661794 -0.71582961
2.5210326 1.1442399 -0.71182895
2.5059056 1.1188756 -0.70557785
2.5277929 1.1101005 -0.70982862
2.5283351 1.0918808 -0.70807827
2.4931037 1.0585518 -0.69632632
2.4870436 1.0380105 -0.69282573
2.5005317 1.025672 -0.69482607
2.5229414 1.0168283 -0.69932681
2.5129299 0.99490935 -0.69482607
2.5379364 0.98684466 -0.70007694
2.5285678 0.96537918 -0.69582623
2.5616407 0.96004605 -0.70332748
2.5247772 0.92859161 -0.69157553
2.5431769 0.91768634 -0.69507611
2.5688386 0.90917611 -0.70057702
2.5725398 0.89276165 -0.70007694
2.588968 0.8807044 -0.70307744
2.5952418 0.86510861 -0.70332748
2.5820942 0.843153 -0.69832665
2.6231837 0.83880299 -0.70807827
2.6116498 0.81748158 -0.70357752
2.6416109 0.80910325 -0.7103287
2.6168478 0.78398067 -0.70232731
2.6076717 0.76382339 -0.69857669
2.618825 0.74967539 -0.70032698
2.6140516 0.73098284 -0.69782656
2.6268935 0.71722674 -0.70007694
2.6293738 0.70059592 -0.69957685
2.6439307 0.68713051 -0.70232731
2.6208797 0.66399252 -0.69507611
2.6220846 0.6472019 -0.69432598
2.6194167 0.62951559 -0.69257569
2.6251156 0.61387271 -0.69307578
2.6326091 0.59861332 -0.69407594
2.6598673 0.58767635 -0.70032698
2.6388102 0.56605881 -0.6938259
2.6308594 0.54748684 -0.6908254
2.6493542 0.53440058 -0.69482607
2.6354792 0.51478922 -0.69032532
2.5976801 0.49086821 -0.67957348
2.6120722 0.47700992 -0.68257403
2.6187642 0.46164685 -0.6835742
2.6263199 0.44638205 -0.68482441
2.6223209 0.42916259 -0.68307412
2.6277742 0.41351649 -0.68382424
2.61303 0.39477736 -0.67932343
2.6182778 0.37915364 -0.68007356
2.62535 0.36374661 -0.68132377
2.6092956 0.34521368 -0.67657298
2.6267343 0.33113813 -0.68057364
2.6027608 0.31189784 -0.67382252
2.6123216 0.29679799 -0.67582285
2.6112058 0.28045264 -0.67507273
2.6263633 0.26579335 -0.67857331
2.6520417 0.25196847 -0.68482441
2.6892214 0.23886912 -0.69407594
2.6645832 0.22020461 -0.68732482
2.677469 0.2047395 -0.69032532
2.6641874 0.18728511 -0.6865747
2.6594889 0.17056125 -0.68507445
2.666285 0.15457733 -0.6865747
2.6401095 0.136805 -0.67957348
2.6438007 0.12073623 -0.6803236
2.6454594 0.10455036 -0.68057364
2.6663725 0.088999286 -0.68582457
2.677515 0.072929561 -0.68857503
2.6072469 0.054991666 -0.67032194
2.6259296 0.03927239 -0.67507273
2.6454852 0.02333468 -0.68007356
2.4735861 0.0048630005 -0.68076497
2.4436913 -0.010186806 -0.67250144
2.4445467 -0.025190862 -0.67276806
2.4395275 -0.040110078 -0.67143518
2.460434 -0.055559043 -0.67729962
2.4542663 -0.070488267 -0.67570025
2.4913535 -0.086859912 -0.68609631
2.4628465 -0.10099658 -0.67836589
2.470845 -0.11651597 -0.68076497
2.4787457 -0.13213731 -0.68316406
2.4384418 -0.14499409 -0.67223489
2.4452002 -0.16045913 -0.67436743
2.4508986 -0.17594342 -0.67623341
2.4468904 -0.19075347 -0.6754337
2.4456739 -0.20576373 -0.6754337
2.438606 -0.22024542 -0.67383426
2.4458427 -0.23603849 -0.67623341
2.4194207 -0.24847846 -0.6693027
2.4226413 -0.26384136 -0.67063552
2.3960822 -0.27583274 -0.66370481
2.3838198 -0.28925136 -0.66077256
2.4202425 -0.30875579 -0.67143518
2.4039731 -0.3216812 -0.66743672
2.4105444 -0.33762985 -0.66983581
2.4055665 -0.35199535 -0.66903609
2.4271805 -0.37038654 -0.67570025
2.4105844 -0.38300228 -0.67170179
2.418649 -0.39951518 -0.67463398
2.4019029 -0.41190299 -0.67063552
2.4192576 -0.43017867 -0.67623341
2.4232075 -0.44623747 -0.67809933
2.4005418 -0.4573077 -0.67250144
2.3863428 -0.4697932 -0.6693027
2.3862488 -0.48500291 -0.67010236
2.4020936 -0.50359291 -0.6754337
2.4093211 -0.52056259 -0.67836589
2.3844435 -0.53051919 -0.67223489
2.3755064 -0.54384869 -0.67063552
2.3721247 -0.55841428 -0.67063552
2.3742743 -0.57431912 -0.67223489
2.3622875 -0.58678454 -0.66983581
2.3614442 -0.60198277 -0.67063552
2.37449 -0.6208514 -0.6754337
2.4115968 -0.64639312 -0.68716258
2.4001503 -0.65913558 -0.68503004
2.3923495 -0.67280602 -0.68396378
2.3853977 -0.68667239 -0.68316406
2.3755922 -0.69966155 -0.68156469
2.3758686 -0.71561515 -0.68289751
2.3539319 -0.72478884 -0.67783278
2.3632305 -0.7435593 -0.68183124
2.3512833 -0.75568575 -0.67969871
2.3429391 -0.76889616 -0.6786325
2.3427467 -0.78478897 -0.67996532
2.3278556 -0.79571861 -0.67703307
2.34022 -0.81601846 -0.68209785
2.3442497 -0.83359253 -0.68476349
2.3100963 -0.83744627 -0.67623341
2.3311317 -0.86129493 -0.68396378
2.3023515 -0.86675066 -0.67703307
2.3122878 -0.88672978 -0.68156469
2.3220651 -0.90686327 -0.68609631
2.3119791 -0.91931307 -0.68476349
2.3196952 -0.93890744 -0.68876195
2.3254752 -0.95789653 -0.6922273
2.3346646 -0.97848231 -0.69675893
2.3286169 -0.99278915 -0.69675893
2.3198285 -1.005908 -0.69595921
2.3056762 -1.0166228 -0.69356012
2.303792 -1.0327227 -0.69489294
2.3272305 -1.06043 -0.70395619
2.3136837 -1.0714489 -0.70182365
2.3009615 -1.0827519 -0.69995773
2.291666 -1.0956025 -0.69915801
2.2822998 -1.1083798 -0.6983583
2.2806418 -1.1249217 -0.69995773
2.2599092 -1.1319863 -0.69569266
2.2675247 -1.1532609 -0.70022428
2.2698255 -1.1720177 -0.70315653
2.2625914 -1.1859231 -0.70315653
2.2467635 -1.1952561 -0.70049083
2.2368431 -1.2076455 -0.69969118
2.2277005 -1.2204214 -0.69915801
2.2285941 -1.2387508 -0.70182365
2.2184329 -1.2509815 -0.701024
2.1981666 -1.2573903 -0.69702548
2.1870756 -1.2689192 -0.69595921
2.1900468 -1.2886704 -0.69942456
2.1729946 -1.2966503 -0.69649237
2.1831381 -1.320938 -0.70235682
2.1815639 -1.3383412 -0.70448935
2.171674 -1.3506837 -0.70395619
2.1698675 -1.3680964 -0.70608872
2.1581838 -1.3793081 -0.70502245
2.1561508 -1.3967174 -0.70715499
2.1564021 -1.4157405 -0.71008718
2.1364415 -1.4214696 -0.70635527
2.1204875 -1.4297017 -0.70395619
2.1148582 -1.4448609 -0.70502245
2.1146696 -1.4638455 -0.7079547
2.1103818 -1.4801145 -0.70955408
2.103617 -1.4947106 -0.71035379
2.0959704 -1.5087165 -0.7108869
2.0648699 -1.5056462 -0.70342308
2.0501661 -1.5142788 -0.7015571
2.0493245 -1.5331818 -0.70448935
2.0360379 -1.5428165 -0.70315653
2.0150652 -1.5464771 -0.69915801
2.0101037 -1.5623616 -0.70075744
1.9989647 -1.5734736 -0.70022428
1.9975621 -1.5923187 -0.70315653
1.981755 -1.5997018 -0.701024
1.9875717 -1.6246426 -0.70662189
1.9701415 -1.6306614 -0.70395619
1.9497582 -1.634051 -0.70022428
1.9514521 -1.6559626 -0.70448935
1.9397926 -1.6666491 -0.70395619
1.917896 -1.6683974 -0.69969118
1.9083461 -1.6807711 -0.69995773
1.910225 -1.7033548 -0.70448935
1.8961607 -1.7118142 -0.70315653
1.9019829 -1.7383738 -0.70928752
1.8856217 -1.744774 -0.70715499
1.8769906 -1.7582881 -0.7079547
1.8654673 -1.7691087 -0.70768809
1.861529 -1.7871974 -0.71035379
1.8539833 -1.801945 -0.71168661
1.8353355 -1.8058504 -0.70875436
1.8303654 -1.8232001 -0.71115345
1.8062507 -1.8213924 -0.70608872
1.7889714 -1.8262439 -0.70368963
1.7717009 -1.8309519 -0.70129055
1.7697554 -1.8515438 -0.70502245
1.7676235 -1.8721802 -0.70875436
1.7547882 -1.8815812 -0.70822126
1.7347218 -1.8830965 -0.7047559
1.7367549 -1.9086769 -0.71035379
1.7308085 -1.9257495 -0.71275288
1.7227985 -1.9406586 -0.71435225
1.7184826 -1.95989 -0.71755105
1.6717255 -1.9303222 -0.70288992
1.6523329 -1.9317534 -0.69969118
1.6448021 -1.9470098 -0.7015571
1.6396157 -1.965207 -0.70448935
1.6336547 -1.9826695 -0.70715499
1.6178091 -1.9881701 -0.70555562
1.6037685 -1.9958053 -0.7047559
1.5872991 -2.0003228 -0.70288992
1.5714291 -2.0054724 -0.70129055
1.5614531 -2.0181262 -0.70235682
1.5332452 -2.006988 -0.69515955
1.5394716 -2.0409832 -0.70368963
1.5108031 -2.0287447 -0.69622582
1.5028932 -2.0441895 -0.6983583
1.4965484 -2.0619533 -0.70129055
1.4838685 -2.0710974 -0.70129055
1.4700196 -2.0785892 -0.70075744
1.4655119 -2.0994253 -0.7047559
1.4526024 -2.1083782 -0.7047559
1.4347616 -2.1100779 -0.70235682
1.42662 -2.126045 -0.7047559
1.4071636 -2.1251144 -0.7015571
1.402531 -2.1466196 -0.70582217
1.3898555 -2.1559949 -0.70608872
1.371946 -2.1571624 -0.70368963
1.351514 -2.154109 -0.69995773
1.3362427 -2.1590829 -0.69889146
1.3279907 -2.1754682 -0.7015571
1.3220725 -2.1959624 -0.70555562
1.3090655 -2.2048619 -0.70582217
1.2906435 -2.2045345 -0.70315653
1.2881726 -2.2316122 -0.70928752
1.2553908 -2.2059655 -0.69862491
1.2493751 -2.227077 -0.70288992
1.2258941 -2.2169874 -0.69729209
1.2113457 -2.2227747 -0.69675893
1.1990519 -2.2327132 -0.69755864
1.1866816 -2.2425842 -0.6983583
1.1755719 -2.2549517 -0.69995773
1.1568713 -2.2526908 -0.69702548
1.1321539 -2.2382443 -0.69036138
1.1179693 -2.2442861 -0.69009477
1.1067237 -2.2562959 -0.6916942
1.087411 -2.2517607 -0.68822885
1.0739877 -2.2592609 -0.6884954
1.0674552 -2.281523 -0.69329357
1.051421 -2.2836523 -0.69196075
1.0433532 -2.3032303 -0.69595921
1.0205724 -2.29022 -0.69009477
1.0068876 -2.2973218 -0.69036138
0.99544209 -2.3096528 -0.6922273
0.97561252 -2.3024051 -0.68822885
0.96146685 -2.3083479 -0.68822885
0.94107968 -2.2990396 -0.68369722
0.91976452 -2.2868857 -0.67836589
0.91315007 -2.3113115 -0.68396378
0.90417904 -2.3303497 -0.68796229
0.89843881 -2.3583715 -0.69462639
0.87483901 -2.3394644 -0.68742913
0.86245948 -2.3502173 -0.6890285
0.84639072 -2.3509307 -0.68769568
0.82072133 -2.3242698 -0.67836589
0.80739015 -2.3319943 -0.6791656
0.79430461 -2.3405554 -0.68023187
0.77597588 -2.3334951 -0.67676651
0.75955439 -2.3317974 -0.67490053
0.74552524 -2.3373322 -0.67516714
0.72714961 -2.3289819 -0.67143518
0.7139715 -2.3370869 -0.67250144
0.69879043 -2.3386533 -0.67170179
0.69145173 -2.3669517 -0.6786325
0.67427063 -2.3618817 -0.6759668
0.66442382 -2.3826859 -0.68076497
0.64979142 -2.386718 -0.68076497
0.63365036 -2.3850708 -0.6791656
0.6163457 -2.3786507 -0.67623341
0.60244673 -2.3851912 -0.67703307
0.58503795 -2.3776116 -0.67383426
0.57043821 -2.3811567 -0.67383426
0.55166203 -2.3667769 -0.66876954
0.54053605 -2.3851576 -0.67303461
0.52692652 -2.3931358 -0.67436743
0.51263535 -2.3982091 -0.67490053
0.49810612 -2.4022529 -0.67516714
0.48373637 -2.4071541 -0.67570025
0.46509358 -2.390209 -0.67010236
0.45309144 -2.4072258 -0.67410088
0.43538234 -2.3938398 -0.66956925
0.4210189 -2.3983648 -0.67010236
0.4066163 -2.4028037 -0.67063552
0.39604691 -2.4309382 -0.67783278
0.37888798 -2.4190392 -0.67383426
0.36432427 -2.4232249 -0.67436743
0.34876209 -2.4206445 -0.67303461
0.33534905 -2.4332418 -0.6759668
0.32116637 -2.4409873 -0.67756623
0.30510491 -2.434305 -0.67516714
0.28811264 -2.4189041 -0.67036897
0.27434519 -2.4302039 -0.67303461
0.25779447 -2.4165072 -0.66876954
0.24161473 -2.4046175 -0.66503763
0.22658463 -2.4031761 -0.66423792
0.20997633 -2.3833988 -0.65837348
0.1950338 -2.3807998 -0.65730721
0.18187551 -2.4011731 -0.66263855
0.1664709 -2.3926289 -0.65997291
0.15056916 -2.3743675 -0.65464157
0.13797686 -2.4098876 -0.66423792
0.12274577 -2.4020257 -0.66183883
0.10891148 -2.4229534 -0.66743672
0.093259975 -2.4033511 -0.66183883
0.07841748 -2.4009881 -0.66103917
0.063811019 -2.4062414 -0.66237199
0.049123507 -2.4104421 -0.66343826
0.034468535 -2.4203355 -0.6661039
0.019732501 -2.4349582 -0.67010236
0.0047539743 -2.4147935 -0.66450447
-0.0099680973 -2.3926096 -0.65837348
-0.024708927 -2.3982859 -0.65997291
-0.039519791 -2.4038713 -0.66157228
-0.054159593 -2.3987656 -0.66023946
-0.069127128 -2.407059 -0.66263855
-0.083827876 -2.4046631 -0.66210538
-0.097511873 -2.3781023 -0.65490812
-0.11273889 -2.3909376 -0.65864003
-0.1266875 -2.3767266 -0.65490812
-0.14126843 -2.3759046 -0.65490812
-0.15805677 -2.408654 -0.66423792
-0.17373157 -2.420136 -0.66770327
-0.18760274 -2.406533 -0.66423792
-0.20147538 -2.3947721 -0.66130573
-0.21633926 -2.3954105 -0.66183883
-0.23019892 -2.3854039 -0.65943974
-0.24404253 -2.3762763 -0.65730721
-0.2593497 -2.3814411 -0.65917319
-0.2734054 -2.3750174 -0.65784037
-0.28762445 -2.370425 -0.65704066
-0.30399483 -2.3829563 -0.66103917
-0.31630775 -2.3638511 -0.65624094
-0.3329469 -2.3771374 -0.66050601
-0.34626958 -2.366467 -0.65810692
-0.35685486 -2.338573 -0.65090966
-0.37876463 -2.3839324 -0.66423792
-0.38301098 -2.3188031 -0.64664459
-0.39902484 -2.3268585 -0.64957684
-0.41532072 -2.3357532 -0.65277559
-0.42981949 -2.3341088 -0.6530422
-0.44557703 -2.3390017 -0.65517473
-0.45787141 -2.3258216 -0.65224248
-0.47290206 -2.3267462 -0.65330875
-0.48439965 -2.3105948 -0.64957684
-0.49917904 -2.3104053 -0.6503765
-0.51523083 -2.3157659 -0.65277559
-0.52641767 -2.2994082 -0.64904368
-0.5354346 -2.2745574 -0.64291269
-0.54892755 -2.2693558 -0.64237958
-0.56353909 -2.2687509 -0.64317924
-0.57959294 -2.2736557 -0.64557832
-0.59548426 -2.2775161 -0.64771086
-0.61069578 -2.2784741 -0.64904368
-0.62236673 -2.2663198 -0.64664459
-0.63861018 -2.2708085 -0.64904368
-0.65359849 -2.2705519 -0.65010995
-0.66779041 -2.2674232 -0.6503765
-0.67529494 -2.2420578 -0.64424551
-0.68989038 -2.2406354 -0.64504522
-0.70594066 -2.243715 -0.64717776
-0.72264469 -2.2485168 -0.64984339
-0.73191816 -2.2303045 -0.64584494
-0.74589556 -2.2266853 -0.64611149
-0.76110339 -2.2266266 -0.64744431
-0.77221191 -2.2146344 -0.64531177
-0.77900273 -2.1907847 -0.63971388
-0.79768783 -2.2004609 -0.64397895
-0.80683076 -2.1837723 -0.6405136
-0.82700849 -2.1968203 -0.64584494
-0.84634084 -2.2070024 -0.6503765
-0.85706103 -2.1945858 -0.64824402
-0.87478536 -2.2000325 -0.65144277
-0.88356584 -2.1830096 -0.64797741
-0.89510792 -2.1730914 -0.64664459
-0.91326928 -2.1791136 -0.65010995
-0.92624485 -2.1725821 -0.64984339
-0.93035346 -2.1456366 -0.64344579
-0.93572247 -2.1222508 -0.63811451
-0.94478327 -2.1076746 -0.63544887
-0.96009636 -2.1071 -0.63704824
-0.97908384 -2.1142876 -0.6410467
-0.9932698 -2.1108563 -0.64184642
-1.0007975 -2.0934184 -0.63838106
-1.011518 -2.0829036 -0.63704824
-1.0234265 -2.074929 -0.63651514
-1.0395927 -2.0755041 -0.63864762
-1.0523082 -2.0690861 -0.63864762
-1.0592344 -2.0514579 -0.63518226
-1.0758297 -2.0526023 -0.63758135
-1.086593 -2.0425591 -0.63651514
-1.105517 -2.0477264 -0.64024705
-1.1166713 -2.0383687 -0.63944733
-1.1268158 -2.0272667 -0.63811451
-1.1401807 -2.0219936 -0.63864762
-1.152566 -2.0149596 -0.63864762
-1.1692618 -2.015352 -0.6410467
-1.1835612 -2.0114622 -0.64211297
-1.1978569 -2.0074725 -0.64317924
-1.2041636 -1.9901901 -0.63998049
-1.213328 -1.9778351 -0.63838106
-1.2335868 -1.983447 -0.64264613
-1.2498467 -1.9823625 -0.64477867
-1.2578337 -1.9681597 -0.64264613
-1.2746035 -1.9676845 -0.64504522
-1.2855948 -1.9582155 -0.64451206
-1.2874403 -1.9350451 -0.63944733
-1.2965949 -1.9231137 -0.63811451
-1.3072828 -1.9135302 -0.63758135
-1.319548 -1.9062653 -0.63784796
-1.3312199 -1.8981328 -0.63784796
-1.3478665 -1.8969994 -0.64024705
-1.3679284 -1.9004259 -0.64424551
-1.3892183 -1.9052348 -0.64877713
-1.3991644 -1.8943492 -0.64797741
-1.4026772 -1.874925 -0.64424551
-1.380971 -1.8225001 -0.62905127
-1.3956488 -1.8185796 -0.6306507
-1.4126968 -1.8175908 -0.63331634
-1.4059362 -1.7861702 -0.62531936
-1.4378992 -1.8038861 -0.63464916
-1.4398587 -1.7837808 -0.6306507
-1.4507766 -1.7749124 -0.6306507
-1.4462745 -1.7474167 -0.62398654
-1.4835933 -1.7702709 -0.63544887
-1.4987934 -1.7662781 -0.6373148
-1.4976674 -1.7431599 -0.63225007
-1.5178248 -1.7448442 -0.63624853
-1.5176716 -1.7232035 -0.63171691
-1.531424 -1.7174553 -0.63304979
-1.5315984 -1.6965809 -0.62878472
-1.5445809 -1.6899966 -0.62985098
-1.5667053 -1.6932199 -0.63464916
-1.5829962 -1.6899049 -0.63704824
-1.5966519 -1.6836563 -0.63838106
-1.6069525 -1.6738278 -0.63838106
-1.6151773 -1.661863 -0.63758135
-1.6118228 -1.6381823 -0.63225007
-1.6259258 -1.6323581 -0.63384944
-1.6242758 -1.6108148 -0.62931782
-1.6334404 -1.6001437 -0.62905127
-1.6453059 -1.5921015 -0.62985098
-1.658528 -1.5853055 -0.6311838
-1.6794381 -1.5856847 -0.63544887
-1.6686933 -1.5562887 -0.62771845
-1.6803378 -1.5479794 -0.62851816
-1.6883785 -1.5363427 -0.627985
-1.694189 -1.5227331 -0.62665218
-1.6948504 -1.5046318 -0.62345338
-1.7091241 -1.4986514 -0.62531936
-1.7131869 -1.4837199 -0.62345338
-1.7266536 -1.4769385 -0.62505281
-1.7342107 -1.4650724 -0.62451965
-1.7416873 -1.4531692 -0.62398654
-1.7453637 -1.4381653 -0.62212056
-1.7556505 -1.4286454 -0.62265372
-1.755367 -1.4106023 -0.61945492
-1.7685196 -1.4033991 -0.62105429
-1.7725452 -1.3889549 -0.61945492
-1.7878954 -1.3833601 -0.62185401
-1.8170308 -1.3881594 -0.62905127
-1.8232056 -1.3752432 -0.62825155
-1.836248 -1.3674839 -0.62985098
-1.8477106 -1.3584744 -0.63091725
-1.8411895 -1.3363565 -0.62585247
-1.8571901 -1.3306466 -0.62851816
-1.8637459 -1.3181131 -0.627985
-1.8670564 -1.3033431 -0.62638563
-1.8750184 -1.2918624 -0.62638563
-1.8837069 -1.2808751 -0.62665218
-1.8851277 -1.2649971 -0.62451965
-1.8816026 -1.245958 -0.62078774
-1.8997023 -1.2412413 -0.62425309
-1.9340171 -1.246792 -0.63304979
-1.9278044 -1.22611 -0.62851816
-1.9336582 -1.2132338 -0.627985
-1.9410663 -1.2013464 -0.627985
-1.9475783 -1.1889116 -0.62771845
-1.9341923 -1.1645131 -0.62105429
-1.9537333 -1.1600026 -0.62505281
-1.9524961 -1.1431242 -0.62238711
-1.9644821 -1.1340129 -0.62398654
-1.9822937 -1.1281338 -0.6274519
-1.9740471 -1.107463 -0.62265372
-1.9782747 -1.0939307 -0.62185401
-1.9917204 -1.0854605 -0.62398654
-1.9881533 -1.0677482 -0.62078774
-1.9963714 -1.0564303 -0.6213209
-1.9985424 -1.0419337 -0.61998802
-2.0169017 -1.0358142 -0.62371999
-2.0094578 -1.0164602 -0.61945492
-2.032912 -1.0127043 -0.62478626
-2.0174532 -0.98960268 -0.6181221
-2.0312989 -0.98097658 -0.62052119
-2.0407619 -0.97014904 -0.62158746
-2.0396919 -0.95434213 -0.61945492
-2.0402563 -0.9393909 -0.61785555
-2.0565176 -0.93162578 -0.62105429
-2.0551519 -0.91585195 -0.61892182
-2.0607328 -0.90322459 -0.61892182
-2.059155 -0.88751209 -0.61678928
-2.057462 -0.87185311 -0.61465675
-2.0743399 -0.86402869 -0.6181221
-2.0715742 -0.84799939 -0.61572301
-2.0990944 -0.84426093 -0.62238711
-2.0997531 -0.82959503 -0.62105429
-2.1182826 -0.82192361 -0.62505281
-2.1088746 -0.80342239 -0.62078774
-2.1083479 -0.78844249 -0.61918837
-2.1194799 -0.77781463 -0.62105429
-2.1160507 -0.76185769 -0.6186552
-2.1188679 -0.74821788 -0.6181221
-2.1307054 -0.73772454 -0.62025464
-2.1361046 -0.72494644 -0.62052119
-2.1368542 -0.71060979 -0.61945492
-2.1411743 -0.69748497 -0.61945492
-2.1564329 -0.68784726 -0.62265372
-2.1615329 -0.6748898 -0.62292027
-2.1895998 -0.66893291 -0.62985098
-2.1908927 -0.65465766 -0.62905127
-2.1846914 -0.63823062 -0.62611908
-2.1978345 -0.62745833 -0.62878472
-2.1858599 -0.6095615 -0.62425309
-2.180259 -0.59360701 -0.62158746
-2.1726818 -0.57724959 -0.61838865
-2.1892452 -0.56729048 -0.62212056
-2.1898816 -0.55313909 -0.6213209
-2.1848109 -0.53762019 -0.61892182
-2.206815 -0.52869308 -0.62425309
-2.1921825 -0.5109874 -0.61918837
-2.2018566 -0.49901721 -0.62105429
-2.2086422 -0.48632607 -0.62212056
-2.2153549 -0.47357038 -0.62318683
-2.2135 -0.45899042 -0.62185401
-2.2323389 -0.44862631 -0.62638563
-2.2341034 -0.43473652 -0.62611908
-2.2196791 -0.41781303 -0.6213209
-2.2326322 -0.40608141 -0.62425309
-2.2350819 -0.3923746 -0.62425309
-2.2345965 -0.37817088 -0.62345338
-2.234972 -0.36414275 -0.62292027
-2.2390687 -0.35072044 -0.62345338
-2.2411788 -0.33697516 -0.62345338
-2.2489278 -0.32404125 -0.62505281
-2.2527835 -0.31049898 -0.62558591
-2.2584686 -0.29717278 -0.62665218
-2.2592933 -0.28318971 -0.62638563
-2.2696018 -0.27034658 -0.62878472
-2.2807956 -0.25749558 -0.63145036
-2.2794573 -0.24318965 -0.6306507
-2.2857018 -0.22967984 -0.63198352
-2.2707553 -0.21411453 -0.6274519
-2.2845078 -0.20127556 -0.63091725
-2.284739 -0.18717572 -0.6306507
-2.2743115 -0.17228107 -0.6274519
-2.2570574 -0.15705398 -0.62238711
-2.2820258 -0.14472412 -0.62905127
-2.2924933 -0.13126898 -0.63171691
-2.2999938 -0.11754357 -0.63358289
-2.2843032 -0.10269497 -0.62905127
-2.3002999 -0.089272998 -0.63331634
-2.2902079 -0.074812084 -0.63038409
-2.2877333 -0.060681902 -0.62958443
-2.2976987 -0.046838768 -0.63225007
-2.3143263 -0.03297092 -0.63678169
-2.3067746 -0.01870825 -0.63464916
-2.3000994 -0.0045412839 -0.63278317
-2.3010478 0.009576072 -0.63304979
-2.3028731 0.023714935 -0.63358289
-2.2776287 0.037429862 -0.62665218
-2.306263 0.052060414 -0.63464916
-2.3203514 0.06662707 -0.63864762
-2.3141196 0.080661088 -0.63704824
-2.313581 0.094858751 -0.63704824
-2.3168063 0.10923485 -0.63811451
-2.289144 0.12200888 -0.6306507
-2.3143294 0.13760009 -0.63784796
-2.3019006 0.15103932 -0.63464916
-2.3066986 0.16557539 -0.63624853
-2.3085217 0.17995095 -0.63704824
-2.2987306 0.19338419 -0.63464916
-2.332057 0.21061023 -0.64424551
-2.3220868 0.22408126 -0.64184642
-2.3091629 0.23714218 -0.63864762
-2.317246 0.25235105 -0.64131331
-2.3032064 0.26513031 -0.63784796
-2.2910118 0.27797925 -0.63491571
-2.2949994 0.29276386 -0.63651514
-2.2893386 0.30632845 -0.63544887
-2.3017333 0.32237676 -0.63944733
-2.2825463 0.33398011 -0.63464916
-2.2899816 0.34943426 -0.6373148
-2.2792277 0.36211663 -0.63491571
-2.2883737 0.37798113 -0.63811451
-2.2841115 0.39168918 -0.63758135
-2.3025413 0.40941134 -0.64344579
-2.3056731 0.42457971 -0.64504522
-2.3068116 0.43944097 -0.64611149
-2.3040719 0.453587 -0.64611149
-2.2833002 0.46406654 -0.6410467
-2.27475 0.47688064 -0.63944733
-2.2840278 0.49347675 -0.64291269
-2.2960093 0.51083285 -0.64717776
-2.2834368 0.52275932 -0.64451206
-2.3064544 0.54294717 -0.65197593
-2.2562408 0.5457536 -0.63864762
-2.2715571 0.56423646 -0.64397895
-2.2661843 0.57768744 -0.64344579
-2.2625971 0.59158164 -0.64344579
-2.2821977 0.61169434 -0.65010995
-2.2635314 0.62160069 -0.64584494
-2.2559636 0.63443357 -0.64477867
-2.2520285 0.64826399 -0.64477867
-2.2535553 0.66370434 -0.64637804
-2.2226784 0.66945541 -0.63864762
-2.2397144 0.68960661 -0.64477867
-2.2262473 0.70044255 -0.64211297
-2.2182374 0.71290934 -0.6410467
-2.2412932 0.73552579 -0.64904368
-2.2531874 0.75477672 -0.65384185
-2.2320983 0.7629745 -0.64904368
-2.231925 0.77824324 -0.6503765
-2.2252917 0.79127735 -0.64984339
-2.2203946 0.80491662 -0.64984339
-2.2235503 0.82153273 -0.65224248
-2.2238796 0.83719879 -0.65384185
-2.2169011 0.85013813 -0.65330875
-2.2062564 0.86162043 -0.65170938
-2.1982415 0.87407291 -0.65090966
-2.1901567 0.88645947 -0.65010995
-2.1730914 0.89510792 -0.64664459
-2.1888912 0.91736841 -0.6530422
-2.1779015 0.92851341 -0.65144277
-2.1792371 0.94492739 -0.6535753
-2.1531155 0.94933552 -0.64744431
-2.1560445 0.96647239 -0.65010995
-2.1448116 0.97728497 -0.64851058
-2.1562657 0.99852908 -0.65384185
-2.1509702 1.0121514 -0.65410846
-2.154284 1.0299044 -0.65704066
-2.1427224 1.0405766 -0.65544128
-2.1397545 1.0554103 -0.65650755
-2.1220362 1.062907 -0.6530422
-2.125783 1.0811518 -0.65624094
-2.1208217 1.0950596 -0.6567741
-2.1166234 1.1093948 -0.65757382
-2.117434 1.1264361 -0.65997291
-2.1070902 1.1375753 -0.65890664
-2.0949993 1.1477038 -0.65730721
-2.0887599 1.1610051 -0.65757382
-2.0673258 1.1657501 -0.6530422
-2.0818844 1.1908579 -0.65997291
-2.072871 1.2026422 -0.65943974
-2.0604689 1.2124052 -0.65784037
-2.0587845 1.2284828 -0.65970629
-2.0322428 1.2296144 -0.6535753
-2.0328748 1.2471018 -0.65624094
-2.00718 1.2483512 -0.6503765
-2.0206788 1.2740108 -0.65730721
-2.0120113 1.2858663 -0.65704066
-2.0162165 1.3060491 -0.66103917
-2.0073593 1.3178667 -0.66077256
-2.0008399 1.3312267 -0.66130573
-1.9894377 1.341323 -0.66023946
-1.9883319 1.3583988 -0.66263855
-1.971243 1.3645381 -0.65970629
-1.9533648 1.3699657 -0.65650755
-1.9464934 1.3830421 -0.65704066
-1.9207625 1.3825703 -0.65117621
-1.9153579 1.3966016 -0.65224248
-1.9129543 1.4129094 -0.65437502
-1.9027054 1.4234655 -0.65384185
-1.8993123 1.4391887 -0.65570784
-1.8873878 1.4484681 -0.65464157
-1.8929219 1.4712613 -0.65970629
-1.8876451 1.4858295 -0.66103917
-1.8702031 1.4907744 -0.65810692
-1.8715193 1.5106982 -0.66183883
-1.8622147 1.5221533 -0.66183883
-1.8617488 1.5409265 -0.66503763
-1.8596452 1.5585126 -0.66770327
-1.822859 1.5468173 -0.65784037
-1.8389177 1.5799596 -0.66717017
-1.7979232 1.5640088 -0.65570784
-1.7969713 1.5826566 -0.65890664
-1.7915422 1.597502 -0.66050601
-1.7817063 1.6084646 -0.66050601
-1.7838966 1.630422 -0.66503763
-1.7674927 1.6354451 -0.66263855
-1.7806344 1.6680063 -0.67143518
-1.785051 1.6928297 -0.67703307
-1.7760206 1.7050859 -0.67756623
-1.7634518 1.7139357 -0.67676651
-1.7590846 1.7308084 -0.6791656
-1.736824 1.7300049 -0.67463398
-1.7268549 1.7413138 -0.67490053
-1.7154635 1.7511882 -0.67463398
-1.7107174 1.7679154 -0.67703307
-1.7044986 1.7832566 -0.67889905
-1.6849241 1.7845702 -0.6754337
-1.6844589 1.806154 -0.67969871
-1.6687742 1.8114929 -0.67783278
-1.6537362 1.8174206 -0.67623341
-1.6431979 1.8282504 -0.67649996
-1.6332285 1.8397403 -0.67703307
-1.6238154 1.8519012 -0.67783278
-1.61116 1.8603725 -0.67729962
-1.600341 1.8709559 -0.67756623
-1.6037565 1.8984121 -0.68396378
-1.5957823 1.9126576 -0.68556321
-1.5766624 1.9134862 -0.6823644
-1.5594176 1.9163957 -0.67996532
-1.5524588 1.9319389 -0.68209785
-1.5465655 1.9489789 -0.68476349
-1.5363607 1.9607079 -0.68556321
-1.5237116 1.9693356 -0.6852966
-1.5069191 1.9725201 -0.68316406
-1.4947876 1.9817293 -0.68316406
-1.4825997 1.9908638 -0.68316406
-1.480631 2.0139022 -0.68796229
-1.4665478 2.0206089 -0.68716258
-1.445142 2.0170329 -0.68289751
-1.4260613 2.0164185 -0.67969871
-1.4158684 2.0282919 -0.68076497
-1.4121441 2.0496414 -0.68503004
-1.3756995 2.023196 -0.67330116
-1.3739986 2.0476069 -0.6786325
-1.3805619 2.0849311 -0.68822885
-1.3540387 2.0723829 -0.68129814
-1.3449523 2.086323 -0.68316406
-1.3357456 2.1002295 -0.68503004
-1.3320524 2.1230826 -0.68982822
-1.3129147 2.1213808 -0.68662941
-1.3064007 2.1400919 -0.69009477
-1.2902625 2.1431129 -0.6884954
-1.2790562 2.1543047 -0.68956167
-1.2663003 2.1629441 -0.68982822
-1.2438517 2.1548123 -0.68476349
-1.2420454 2.1825092 -0.69116104
-1.228159 2.1892486 -0.69089448
-1.2133039 2.1942127 -0.69009477
-1.2058122 2.2126186 -0.69356012
-1.1976842 2.2301657 -0.69675893
-1.1799213 2.229805 -0.69435984
-1.1675537 2.239567 -0.69515955
-1.160393 2.2595501 -0.69915801
-1.1404177 2.2545862 -0.69542611
-1.1364443 2.2813845 -0.7015571
-1.1270925 2.2978337 -0.70448935
-1.1154863 2.3099139 -0.70608872
-1.0983959 2.3106213 -0.70422274
-1.0805224 2.3094602 -0.70182365
-1.0562569 2.2941587 -0.69515955
-1.0465341 2.3102543 -0.69809175
-1.0260634 2.3025458 -0.69382674
-1.0161709 2.3185089 -0.69675893
-1.0030696 2.3273559 -0.69755864
-0.9944095 2.3467789 -0.7015571
-0.98221415 2.3581748 -0.70315653
-0.96736121 2.3632653 -0.70288992
-0.95212317 2.3673677 -0.70235682
-0.93580908 2.3686833 -0.701024
-0.93275928 2.4040341 -0.70982063
-0.90941542 2.3871942 -0.70315653
-0.89171332 2.3846042 -0.70075744
-0.87673295 2.3891261 -0.70049083
-0.86107796 2.3917398 -0.69969118
-0.85119843 2.4106112 -0.70368963
-0.83765215 2.4194319 -0.7047559
-0.82031387 2.4172244 -0.70262337
-0.80698681 2.4267852 -0.70395619
-0.79387158 2.4371901 -0.70555562
-0.77919513 2.4429333 -0.70582217
-0.76017094 2.4347878 -0.70209026
-0.75056535 2.4569204 -0.70715499
-0.73161417 2.4485505 -0.70342308
-0.71657646 2.4529934 -0.70342308
-0.70759463 2.4786608 -0.70955408
-0.6861617 2.4606736 -0.70315653
-0.67687124 2.4862275 -0.70928752
-0.66135597 2.4894023 -0.70902097
-0.64365232 2.4840832 -0.70635527
-0.63547575 2.5160208 -0.71435225
-0.61864471 2.514257 -0.71275288
-0.60343033 2.5189431 -0.71301943
-0.58993113 2.5310462 -0.71541852
-0.5718348 2.5233383 -0.71221972
-0.5565483 2.5277407 -0.71248633
-0.54183334 2.5348783 -0.71355253
-0.52802962 2.546649 -0.71595168
-0.51220393 2.5488961 -0.71568507
-0.49673855 2.552937 -0.71595168
-0.4892607 2.5995083 -0.72821367
-0.46985403 2.5834959 -0.72288233
-0.45482585 2.5910769 -0.72421521
-0.43715093 2.5833652 -0.72128296
-0.42237556 2.592658 -0.72314894
-0.40690649 2.5980575 -0.7239486
-0.39038467 2.5966928 -0.72288233
-0.37348297 2.5923615 -0.72101641
-0.3592788 2.6070168 -0.72448176
-0.34101447 2.5919714 -0.71968359
-0.32450524 2.5892334 -0.71835077
-0.31419227 2.6380718 -0.73141247
-0.29324698 2.5978093 -0.71968359
-0.27934423 2.6187277 -0.72501487
-0.26404077 2.6280642 -0.7271474
-0.24917538 2.643069 -0.73087931
-0.23016548 2.6128645 -0.72208267
-0.21570055 2.6334398 -0.72741395
-0.19852039 2.6212587 -0.72368205
-0.18330115 2.634927 -0.7271474
-0.1671301 2.6360021 -0.7271474
-0.15095274 2.6369779 -0.7271474
-0.13526049 2.6474802 -0.72981304
-0.11970403 2.6636658 -0.73407811
-0.10264986 2.6460514 -0.72901338
-0.086286664 2.6427782 -0.72794712
-0.069814853 2.6336231 -0.72528142
-0.054220237 2.6619468 -0.73301184
-0.038239799 2.6872861 -0.73994255
-0.021935027 2.7106011 -0.74634016
-0.0052901679 2.703938 -0.74447417
0.01124321 2.6904261 -0.74074227
0.027590496 2.6748862 -0.7364772
0.043923005 2.6698482 -0.73514438
0.060325924 2.6704919 -0.73541093
0.076599509 2.666218 -0.73434466
0.093058735 2.6685874 -0.73514438
0.11034191 2.6901152 -0.74127537
0.12684606 2.6893876 -0.74127537
0.14313979 2.6847088 -0.7402091
0.15920894 2.6770451 -0.73834318
0.17714927 2.6990998 -0.74474072
0.19142634 2.6662378 -0.73594409
0.20845762 2.6736612 -0.73834318
0.22623447 2.688659 -0.7428748
0.24168588 2.6757014 -0.739676
0.25884065 2.6818428 -0.74180853
0.27755851 2.7022555 -0.74793953
0.29026911 2.6650505 -0.73807657
0.30782974 2.6737514 -0.74100882
0.32585669 2.6852074 -0.74474072
0.33890855 2.6563878 -0.73727691
0.36185434 2.7039332 -0.75113833
0.37562877 2.681618 -0.74554044
0.39710331 2.713594 -0.75513679
0.41549215 2.7225394 -0.75833559
0.42401686 2.6685383 -0.74394101
0.44242612 2.6782482 -0.74740636
0.45966628 2.6802328 -0.74873924
0.4755967 2.6745152 -0.74793953
0.48955303 2.6582766 -0.74420762
0.50729847 2.662797 -0.74634016
0.52344126 2.6586885 -0.74607354
0.53820825 2.6478708 -0.74394101
0.55523658 2.6482916 -0.74500728
0.57636338 2.6674442 -0.75140488
0.58811224 2.6431601 -0.74554044
0.60281289 2.6329255 -0.74367446
0.62116647 2.6385584 -0.74634016
0.63915837 2.6421916 -0.74847263
0.65373135 2.6316726 -0.74660671
0.67653596 2.6537616 -0.75407052
0.68500108 2.6197224 -0.74554044
0.70031363 2.6126771 -0.74474072
0.72297037 2.6324949 -0.75167143
0.74067563 2.6335759 -0.7532708
0.75655431 2.6280556 -0.75300425
0.77402747 2.6279864 -0.75433707
0.78374237 2.6019626 -0.74820608
0.79231602 2.5731559 -0.74127537
0.80895787 2.5710037 -0.74207509
0.81911284 2.5485582 -0.73701036
0.8317287 2.5343268 -0.73434466
0.85400081 2.5492809 -0.7402091
0.87524009 2.5604084 -0.74500728
0.8925212 2.55954 -0.74634016
0.90530223 2.5458426 -0.74394101
0.92090625 2.54024 -0.74394101
0.93848032 2.5399659 -0.74554044
0.94080019 2.4989824 -0.73514438
0.9533543 2.4859638 -0.73301184
0.97770864 2.5034087 -0.73994255
0.99554449 2.5036314 -0.74180853
1.020654 2.5215967 -0.74900579
1.0221539 2.4814236 -0.73887628
1.0455586 2.4946601 -0.74474072
1.0619801 2.4908574 -0.74554044
1.0783943 2.4869468 -0.74634016
1.1029683 2.5014477 -0.7527377
1.1108035 2.4779232 -0.74767298
1.128785 2.4772 -0.7495389
1.1391022 2.4597328 -0.74634016
1.1574571 2.4596734 -0.74847263
1.1642114 2.4351349 -0.74314135
1.1803946 2.4305465 -0.74394101
1.207653 2.4483237 -0.75167143
1.1971799 2.3900268 -0.73594409
1.2166296 2.3920858 -0.73887628
1.2255346 2.3734429 -0.73541093
1.2481302 2.3812437 -0.7402091
1.2581902 2.365032 -0.73754346
1.2758838 2.3632038 -0.73940945
1.289897 2.3544853 -0.73914284
1.2977626 2.334733 -0.73541093
1.3182195 2.3376396 -0.73887628
1.3363674 2.3361995 -0.74100882
1.3414853 2.3121171 -0.73594409
1.351247 2.2963667 -0.73354501
1.3603721 2.2797563 -0.73087931
1.377828 2.2771385 -0.73274529
1.4023602 2.2858925 -0.73834318
1.3944677 2.2420545 -0.72688085
1.4097408 2.2359018 -0.72768056
1.4493896 2.2678132 -0.74100882
1.4627533 2.2580683 -0.74074227
1.4654709 2.2321322 -0.73514438
1.4727317 2.2134695 -0.73194557
1.5040691 2.2307613 -0.74074227
1.5160971 2.2191031 -0.73994255
1.5066409 2.1764774 -0.72874677
1.5105575 2.1537783 -0.72421521
1.5231861 2.1436837 -0.7239486
1.5278636 2.1225646 -0.71995014
1.5488098 2.1240516 -0.72368205
1.5515049 2.1005547 -0.71888387
1.5684066 2.0963972 -0.72074986
1.6353829 2.1581693 -0.74554044
1.6169027 2.1068094 -0.73114592
1.6274333 2.0938048 -0.73007965
1.6217672 2.0603039 -0.72181612
1.6355801 2.0518215 -0.72234923
1.6372406 2.028249 -0.71755105
1.6606359 2.0315959 -0.72234923
1.6564755 2.001323 -0.71515197
1.6736777 1.9970305 -0.7172845
1.689018 1.9903975 -0.71861732
1.7024556 1.9814583 -0.71915042
1.7164794 1.9731563 -0.71995014
1.7189976 1.9517388 -0.71595168
1.7700742 1.9850312 -0.73221213
1.7815751 1.9734175 -0.73194557
1.7708893 1.937551 -0.72261578
1.7755432 1.9188676 -0.71968359
1.7925557 1.9135636 -0.72181612
1.7956405 1.8934382 -0.71835077
1.7871974 1.861529 -0.71035379
1.825459 1.8781711 -0.72101641
1.8423573 1.8724306 -0.72314894
1.8619747 1.8692842 -0.72634768
1.8782004 1.8625743 -0.72821367
1.8923479 1.8537123 -0.72927994
1.8967593 1.8353648 -0.7266143
1.8863841 1.8030496 -0.71835077
1.8995146 1.7934258 -0.71915042
1.9069586 1.7784504 -0.7178176
1.9086186 1.7582278 -0.71435225
1.9207968 1.7477808 -0.71488541
1.9365032 1.7404715 -0.71675134
1.9579588 1.7381533 -0.72074986
1.9765594 1.7330956 -0.72368205
1.9784125 1.7133644 -0.72048324
1.9793658 1.6930494 -0.71701789
1.9771993 1.6703001 -0.71248633
1.9999931 1.6686321 -0.71701789
2.0228403 1.6667469 -0.72154951
2.0263004 1.6488295 -0.71915042
2.0251086 1.6273106 -0.71515197
2.02826 1.609463 -0.71275288
2.0365798 1.5957986 -0.71221972
2.0539567 1.5891696 -0.71488541
2.0429881 1.5607412 -0.70768809
2.0486786 1.5452747 -0.70635527
2.0743563 1.5447624 -0.71195316
2.081466 1.5302927 -0.71115345
2.0837955 1.5123978 -0.70875436
2.129863 1.5259624 -0.72128296
2.107707 1.4906076 -0.71062034
2.1476381 1.4991592 -0.72101641
2.1433027 1.4766587 -0.71648479
2.1499317 1.4618543 -0.71568507
2.1620626 1.4507829 -0.71675134
2.1540465 1.4263167 -0.71115345
2.172441 1.419398 -0.71435225
2.1640964 1.3950768 -0.70875436
2.1856289 1.3900462 -0.71301943
2.184319 1.3704635 -0.70982063
2.1746554 1.3458781 -0.70395619
2.1812272 1.3315052 -0.70342308
2.2075231 1.329031 -0.70928752
2.21315 1.3139851 -0.70848781
2.2012074 1.2886959 -0.70209026
2.2140818 1.2780559 -0.70368963
2.2176936 1.2620634 -0.70235682
2.2127862 1.2413601 -0.6983583
2.2169874 1.2258941 -0.69729209
2.2151577 1.2071956 -0.69435984
2.2123332 1.1881099 -0.69116104
2.2161739 1.1727101 -0.69009477
2.2233279 1.1590898 -0.69009477
2.2432592 1.152029 -0.69409329
2.2683477 1.1473768 -0.69969118
2.2632668 1.1274216 -0.69595921
2.2831223 1.1198785 -0.69995773
2.2769315 1.099563 -0.69595921
2.2966931 1.0917768 -0.69995773
2.2937455 1.0731721 -0.69702548
2.3011627 1.0594808 -0.69729209
2.3190341 1.05051 -0.70075744
2.3175125 1.0327311 -0.6983583
2.3070326 1.0111424 -0.69329357
2.3114231 0.99620485 -0.69276047
2.3166046 0.98162752 -0.69249386
2.3208046 0.9666537 -0.69196075
2.3124199 0.94655502 -0.68769568
2.3414347 0.94169647 -0.69462639
2.3283436 0.91987699 -0.6890285
2.3555102 0.91393816 -0.69542611
2.3745844 0.90461314 -0.69942456
2.3764791 0.88867599 -0.6983583
2.3873162 0.87606907 -0.69995773
2.3817642 0.85748774 -0.69675893
2.4078846 0.850236 -0.70288992
2.4166994 0.83670646 -0.70395619
2.3834534 0.80885744 -0.69276047
2.4020908 0.798778 -0.69675893
2.4069469 0.78402406 -0.69675893
2.3795726 0.75899321 -0.68742913
2.3998258 0.74925953 -0.69196075
2.3979254 0.73254991 -0.69009477
2.4282334 0.72554594 -0.69755864
2.4159863 0.70577013 -0.69276047
2.4415882 0.69701558 -0.69889146
2.4151809 0.67348129 -0.69009477
2.4285679 0.66118014 -0.69276047
2.436305 0.64725578 -0.69382674
2.4309003 0.62987816 -0.69116104
2.4235055 0.61211956 -0.68796229
2.4216003 0.59585655 -0.68636286
2.4205244 0.5798645 -0.68503004
2.4597065 0.57331139 -0.69515955
2.477278 0.5614019 -0.69915801
2.5013845 0.55074823 -0.70502245
2.5037744 0.53518826 -0.7047559
2.478698 0.51394796 -0.69675893
2.4572363 0.49379492 -0.68982822
2.4725192 0.48110005 -0.69329357
2.4668996 0.46431637 -0.69089448
2.4649608 0.44830924 -0.68956167
2.4467802 0.42951226 -0.68369722
2.453171 0.41513383 -0.68476349
2.4604282 0.400848 -0.68609631
2.464746 0.38604164 -0.68662941
2.4775527 0.37248605 -0.68956167
2.4378164 0.3512342 -0.67783278
2.4418352 0.33653241 -0.67836589
2.4744332 0.3255631 -0.68689603
2.4476938 0.30678147 -0.67889905
2.4380453 0.29039034 -0.67570025
2.4445701 0.27596533 -0.67703307
2.4567597 0.26208401 -0.67996532
2.4583216 0.24700467 -0.67996532
2.4713056 0.2330004 -0.68316406
2.4784493 0.2183392 -0.68476349
2.4653332 0.20194891 -0.68076497
2.4982414 0.1892167 -0.68956167
2.4608953 0.17121276 -0.67889905
2.4946039 0.15817988 -0.68796229
2.4291325 0.1390765 -0.66956925
2.4722931 0.12632841 -0.68129814
2.4913158 0.11197656 -0.68636286
2.4746203 0.096017323 -0.68156469
2.4655297 0.080518022 -0.67889905
2.4746487 0.065617256 -0.68129814
2.48175 0.050568558 -0.68316406
2.47334 0.035217341 -0.68076497
2.4831476 0.020117559 -0.68343067
2.3302729 -0.0073091588 -0.69415194
2.3071938 -0.021400403 -0.6872673
2.3118086 -0.035629168 -0.68870163
2.304842 -0.04967086 -0.68669361
2.301621 -0.063733414 -0.68583304
2.3098035 -0.078143835 -0.68841475
2.3083234 -0.092277057 -0.68812788
2.3096275 -0.10652668 -0.68870163
2.2964938 -0.12004959 -0.68497247
2.2813685 -0.13330413 -0.68066955
2.2738156 -0.14686948 -0.67866153
2.2231803 -0.15731658 -0.66374487
2.2536938 -0.17337067 -0.67321122
2.2535422 -0.18727487 -0.67349809
2.2428088 -0.2002496 -0.6706295
2.289221 -0.2185463 -0.68497247
2.2725875 -0.23104256 -0.68038273
2.2758894 -0.2454949 -0.681817
2.2886176 -0.26107964 -0.68611991
2.2660475 -0.27260602 -0.67980897
2.2690842 -0.28710502 -0.6812433
2.2710786 -0.30152571 -0.68239075
2.2577991 -0.31387541 -0.6789484
2.2672074 -0.32937264 -0.68239075
2.2670381 -0.34356433 -0.68296444
2.2677262 -0.3579154 -0.68382502
2.2617061 -0.3712036 -0.68267757
2.2565525 -0.38459215 -0.681817
2.2513201 -0.3979314 -0.68095642
2.2469513 -0.41139323 -0.68038273
2.2415609 -0.42463839 -0.67952216
2.237973 -0.43820053 -0.67923528
2.2389982 -0.45268255 -0.68038273
2.2361786 -0.46641228 -0.68038273
2.2417042 -0.48193422 -0.68296444
2.2527356 -0.49878249 -0.6872673
2.2468305 -0.51195788 -0.68640673
2.2492435 -0.52704436 -0.68812788
2.2487614 -0.5415076 -0.68898845
2.2453966 -0.55529553 -0.68898845
2.2428756 -0.56929797 -0.68927532
2.2430487 -0.58401376 -0.69042277
2.2347951 -0.59653181 -0.68898845
2.225548 -0.60871822 -0.6872673
2.2226937 -0.62262052 -0.68755418
2.2160685 -0.63545561 -0.68669361
2.2084506 -0.64796346 -0.68554616
2.209939 -0.66315252 -0.6872673
2.2021646 -0.6755771 -0.68611991
2.2016346 -0.69022191 -0.6872673
2.2000954 -0.70459372 -0.68812788
2.1875353 -0.71540231 -0.68554616
2.1703818 -0.72456789 -0.68153012
2.1867535 -0.74497092 -0.68812788
2.1884758 -0.76057416 -0.6901359
2.2018285 -0.78038365 -0.69587308
2.1969986 -0.79387915 -0.69587308
2.2046726 -0.81197637 -0.69988912
2.187988 -0.82111621 -0.69615996
2.1838036 -0.83486789 -0.69644684
2.1804254 -0.84894639 -0.69702053
2.1796284 -0.86407322 -0.6984548
2.1813931 -0.88029695 -0.7007497
2.1892445 -0.89912069 -0.70505255
2.1854544 -0.913275 -0.70562631
2.193917 -0.93266028 -0.71021605
2.1969471 -0.94990391 -0.71308464
2.1910772 -0.96336621 -0.71308464
2.1877489 -0.97796446 -0.71394521
2.1825793 -0.99176586 -0.71423209
2.1686244 -1.0015265 -0.71165031
2.1693771 -1.0180681 -0.71394521
2.1751969 -1.0371288 -0.71796125
2.1696546 -1.0508735 -0.71824807
2.1631658 -1.0641664 -0.71824807
2.153167 -1.0757077 -0.71710068
2.1388359 -1.0850005 -0.7145189
2.1278794 -1.0959117 -0.71308464
2.1160207 -1.1062858 -0.71136349
2.1091928 -1.1192486 -0.71136349
2.1065032 -1.1344393 -0.71279776
2.095299 -1.1450474 -0.71136349
2.0832062 -1.1550964 -0.70964235
2.0702338 -1.1645709 -0.70763433
2.056392 -1.1734551 -0.70533943
2.0516407 -1.1874899 -0.7062
2.041837 -1.1986018 -0.70533943
2.0418537 -1.2155161 -0.70792115
2.0269747 -1.2235681 -0.70533943
2.0104394 -1.2304838 -0.70218396
2.006922 -1.2453208 -0.70361829
1.989511 -1.2514932 -0.700176
2.0003755 -1.2755182 -0.70677376
2.012629 -1.3007625 -0.71394521
2.0182352 -1.3220074 -0.71882182
2.0021031 -1.32907 -0.71595323
1.9939104 -1.3413297 -0.71595323
1.9856426 -1.3535388 -0.71595323
1.9733582 -1.3629758 -0.7145189
1.9665279 -1.3761566 -0.71509266
1.9471041 -1.3804432 -0.71107662
1.934706 -1.3895713 -0.70964235
1.9284676 -1.4031065 -0.71050292
1.9259926 -1.419458 -0.71279776
1.9187822 -1.4323947 -0.71337152
1.9198929 -1.4516495 -0.71710068
1.885085 -1.4436061 -0.70734745
1.883763 -1.4610146 -0.71021605
1.8732558 -1.4713627 -0.70964235
1.8671919 -1.4852135 -0.71078974
1.8572977 -1.4960418 -0.71050292
1.8488255 -1.508015 -0.71078974
1.8439704 -1.52299 -0.71251088
1.8228306 -1.5244458 -0.70792115
1.8075924 -1.5306507 -0.70562631
1.7981665 -1.5417132 -0.70562631
1.8024211 -1.5646455 -0.71107662
1.7884682 -1.5718824 -0.70935547
1.7895272 -1.5923759 -0.71365833
1.7733157 -1.5975573 -0.71107662
1.7748073 -1.6187339 -0.71566635
1.7732896 -1.6373897 -0.71910864
1.7646092 -1.6495477 -0.7196824
1.7551506 -1.6610023 -0.71996927
1.7338551 -1.6611397 -0.71537948
1.7146881 -1.6630791 -0.71165031
1.7017164 -1.6708848 -0.71050292
1.6914321 -1.681295 -0.71050292
1.6844612 -1.6950384 -0.71193719
1.6740289 -1.7053422 -0.71193719
1.668203 -1.7203946 -0.71394521
1.6589411 -1.7319815 -0.7145189
1.6456484 -1.7393452 -0.71337152
1.630365 -1.7445118 -0.71136349
1.6183302 -1.7530752 -0.71078974
1.6043148 -1.7594337 -0.70935547
1.5928476 -1.7685329 -0.7090686
1.5826031 -1.7789886 -0.70935547
1.5697601 -1.7865074 -0.7084949
1.5612811 -1.798999 -0.70964235
1.5527078 -1.8114536 -0.71078974
1.5477554 -1.8282566 -0.71365833
1.537123 -1.8384539 -0.71394521
1.5264236 -1.8485893 -0.71423209
1.5102073 -1.8519825 -0.71193719
1.4964111 -1.8582302 -0.71078974
1.4825952 -1.8643785 -0.70964235
1.466393 -1.8674141 -0.70734745
1.4507966 -1.8710784 -0.70533943
1.4410362 -1.8822265 -0.7062
1.4311936 -1.8933252 -0.70706058
1.4218422 -1.9051415 -0.70820802
1.4129679 -1.9176854 -0.70964235
1.4079393 -1.9356138 -0.71308464
1.3982719 -1.9473282 -0.71423209
1.3807553 -1.9480569 -0.71136349
1.3737205 -1.9635558 -0.71394521
1.3551121 -1.9624898 -0.71050292
1.3484418 -1.9786825 -0.71337152
1.3362756 -1.9869192 -0.71337152
1.3219391 -1.9918889 -0.71222407
1.306542 -1.995155 -0.71050292
1.2942754 -2.0031343 -0.71050292
1.2804145 -2.008615 -0.70964235
1.271127 -2.0212986 -0.71136349
1.259711 -2.0306878 -0.71193719
1.244226 -2.0334768 -0.71021605
1.2351917 -2.0468135 -0.71222407
1.214277 -2.0403616 -0.70734745
1.2041601 -2.0519042 -0.70878172
1.1886672 -2.0542798 -0.70706058
1.1760399 -2.0615346 -0.70706058
1.1633685 -2.068712 -0.70706058
1.1525118 -2.0791624 -0.70820802
1.1300828 -2.0685427 -0.70218396
1.1114628 -2.0644741 -0.6984548
1.0947319 -2.0636396 -0.69587308
1.0833811 -2.0728648 -0.69673365
1.0697643 -2.07777 -0.69615996
1.0660989 -2.1022346 -0.70218396
1.0471841 -2.0967395 -0.69816798
1.0359911 -2.1065636 -0.69931543
1.0276408 -2.1223638 -0.70247084
1.0080001 -2.114795 -0.6978811
0.99541217 -2.1218073 -0.69816798
0.97353518 -2.1087427 -0.69185704
0.95899212 -2.1111882 -0.69070965
0.96596491 -2.161633 -0.70533943
0.95075464 -2.1631348 -0.70390517
0.93099868 -2.1539805 -0.69902855
0.91364056 -2.1499553 -0.69587308
0.90190947 -2.1590564 -0.69702053
0.88609636 -2.1583469 -0.69501251
0.87176037 -2.1610785 -0.69415194
0.86166227 -2.1744013 -0.69673365
0.85039037 -2.1850033 -0.6984548
0.83217651 -2.1776533 -0.69443882
0.81543189 -2.1737499 -0.69157022
0.80307227 -2.1814091 -0.69243079
0.78641546 -2.1772864 -0.6895622
0.77112019 -2.1766536 -0.68784106
0.75900835 -2.1849635 -0.68898845
0.74651462 -2.1922996 -0.68984908
0.7330488 -2.1968389 -0.68984908
0.72104496 -2.205848 -0.69128335
0.70866573 -2.2138798 -0.69243079
0.69019437 -2.2026472 -0.68755418
0.67722839 -2.2086723 -0.68812788
0.66228622 -2.2081985 -0.68669361
0.64683568 -2.2057865 -0.68468559
0.63487417 -2.2152388 -0.68640673
0.62204534 -2.2218599 -0.6872673
0.61219341 -2.2394948 -0.69157022
0.59399134 -2.2265494 -0.68640673
0.57959378 -2.227371 -0.68554616
0.56520855 -2.2281001 -0.68468559
0.55152655 -2.2315261 -0.68468559
0.53715056 -2.2320743 -0.68382502
0.5254128 -2.2437222 -0.68640673
0.51163572 -2.2469039 -0.68640673
0.49618161 -2.2425187 -0.68411189
0.48422566 -2.2539499 -0.68669361
0.46666786 -2.2390609 -0.6812433
0.45235056 -2.2390654 -0.68038273
0.4398928 -2.2483795 -0.68239075
0.42430446 -2.2416241 -0.67952216
0.41088739 -2.2460701 -0.68009585
0.39759862 -2.251379 -0.68095642
0.38281053 -2.2481101 -0.67923528
0.36885387 -2.2494714 -0.6789484
0.35609075 -2.258316 -0.68095642
0.34352025 -2.2689826 -0.68353814
0.3293159 -2.2691517 -0.68296444
0.31485829 -2.2673342 -0.681817
0.30030924 -2.2644753 -0.68038273
0.28412187 -2.2482183 -0.67493236
0.26986355 -2.246115 -0.67378497
0.25825065 -2.2667642 -0.67952216
0.24341142 -2.2597342 -0.67694038
0.23051155 -2.2707157 -0.67980897
0.21630086 -2.2692266 -0.6789484
0.20203181 -2.2666943 -0.67780095
0.18796092 -2.2659819 -0.67722726
0.17375919 -2.263272 -0.67607981
0.15973327 -2.2623844 -0.67550611
0.1459104 -2.2642777 -0.67579299
0.13195831 -2.2641742 -0.67550611
0.11771215 -2.2582448 -0.67349809
0.1039864 -2.2617953 -0.67435867
0.089607216 -2.2499471 -0.6706295
0.075897671 -2.2533269 -0.67149007
