# .PCD v0.7 - Point Cloud Data file format
VERSION 0.7
FIELDS x y z
SIZE 4 4 4
TYPE F F F
COUNT 1 1 1
WIDTH 1435
HEIGHT 1
VIEWPOINT 0 0 0 1 0 0 0
POINTS 1435
DATA ascii
0.66993177 -2.6462293 -0.59451318
0.65297973 -2.647445 -0.59387201
0.63946301 -2.6627996 -0.59643656
0.62400234 -2.6704781 -0.59729141
0.60283834 -2.6533 -0.59258974
0.58570343 -2.6531336 -0.59173489
0.57146263 -2.666229 -0.59387201
0.55270314 -2.6582084 -0.59130746
0.53870082 -2.6730411 -0.59387201
0.51891714 -2.6590383 -0.59002519
0.50259185 -2.6621721 -0.59002519
0.48501867 -2.658479 -0.58852923
0.46920642 -2.6642911 -0.58917034
0.45890859 -2.7027538 -0.59707773
0.43915939 -2.6862376 -0.59280348
0.42479557 -2.7023916 -0.59579545
0.4047021 -2.6817651 -0.59066635
0.38795936 -2.6822641 -0.59023893
0.371494 -2.6845942 -0.59023893
0.35411727 -2.6800439 -0.58874291
0.33949989 -2.6967046 -0.59194863
0.32085344 -2.6812778 -0.5881018
0.3056092 -2.6938732 -0.59045261
0.28949171 -2.6995828 -0.59130746
0.27302033 -2.7022803 -0.5915212
0.2578212 -2.7184923 -0.59472686
0.2421739 -2.7316997 -0.59729141
0.22387809 -2.7146366 -0.5932309
0.20781352 -2.7237515 -0.5949406
0.19226258 -2.7415416 -0.59857368
0.17587526 -2.7494938 -0.6000697
0.15724675 -2.7202883 -0.59344459
0.14029934 -2.7163241 -0.59237605
0.12456685 -2.7376273 -0.59686399
0.10857819 -2.7588387 -0.60135198
0.09177883 -2.7633586 -0.60220683
0.073888391 -2.729691 -0.59472686
0.057034597 -2.7252095 -0.59365833
0.040238589 -2.7206242 -0.59258974
0.023709305 -2.7393804 -0.5966503
0.0069164489 -2.7453353 -0.59793258
-0.0099585224 -2.7541184 -0.59985596
-0.026736349 -2.7413063 -0.59707773
-0.043770339 -2.7547655 -0.6000697
-0.060246643 -2.7349117 -0.59579545
-0.077108458 -2.7374201 -0.59643656
-0.094036594 -2.7408009 -0.59729141
-0.11124469 -2.7499332 -0.59942853
-0.12757285 -2.7374887 -0.59686399
-0.14370127 -2.7239723 -0.59408575
-0.15932529 -2.7045102 -0.59002519
-0.17673855 -2.7161548 -0.59280348
-0.19270934 -2.7052746 -0.59066635
-0.21313837 -2.7537153 -0.60156566
-0.22930059 -2.7435939 -0.59964228
-0.24682751 -2.7499194 -0.60135198
-0.26285833 -2.7396009 -0.59942853
-0.2792671 -2.7340491 -0.59857368
-0.29614267 -2.7332554 -0.59878743
-0.31357381 -2.7372103 -0.6000697
-0.33071384 -2.7381444 -0.60071081
-0.34898296 -2.7476931 -0.60327536
-0.36712402 -2.7551837 -0.60541248
-0.38119286 -2.7325606 -0.60092455
-0.39978126 -2.7427375 -0.60370278
-0.4149901 -2.7296088 -0.60135198
-0.42990044 -2.7154322 -0.59878743
-0.45225823 -2.7474456 -0.60648108
-0.46582043 -2.7253594 -0.60220683
-0.48866391 -2.7570798 -0.60990047
-0.50698119 -2.7617166 -0.61161017
-0.51881951 -2.7316802 -0.60562623
-0.53068435 -2.7035203 -0.6000697
-0.55036408 -2.715533 -0.6034891
-0.56941229 -2.7235799 -0.60605365
-0.58734649 -2.725765 -0.60733593
-0.60258049 -2.7154336 -0.60583991
-0.61640626 -2.6993036 -0.60306168
-0.63295728 -2.6954706 -0.60306168
-0.65452111 -2.7124293 -0.60776335
-0.66551769 -2.6856036 -0.60263425
-0.68992269 -2.7127144 -0.60968673
-0.70162702 -2.6895237 -0.60541248
-0.7249251 -2.7106502 -0.61118275
-0.74102777 -2.7042668 -0.61075532
-0.74732113 -2.6629846 -0.60242051
-0.77038443 -2.6818237 -0.60776335
-0.78517377 -2.6714222 -0.60648108
-0.80070746 -2.6637475 -0.60583991
-0.81732357 -2.659718 -0.60605365
-0.83509022 -2.6593137 -0.60712218
-0.85675907 -2.6708844 -0.61096901
-0.87495446 -2.6711478 -0.61225128
-0.88389808 -2.6434917 -0.60712218
-0.8978948 -2.631546 -0.60562623
-0.91627121 -2.6324458 -0.60712218
-0.9275077 -2.6129639 -0.60391653
-0.94418752 -2.609061 -0.60434395
-0.95848936 -2.5986352 -0.60327536
-0.96479911 -2.5670986 -0.59729141
-0.9829759 -2.567517 -0.59878743
-0.99977535 -2.564168 -0.59942853
-1.0165708 -2.5607092 -0.6000697
-1.0370194 -2.5661993 -0.60284793
-1.0538597 -2.5624986 -0.6034891
-1.0714476 -2.5604904 -0.60455763
-0.86992383 -2.0432734 -0.48316899
-0.85994494 -1.9858962 -0.47077367
-0.8681798 -1.9716406 -0.46863654
-0.87308091 -1.9502249 -0.46478972
-0.85227722 -1.8727996 -0.44747901
-0.85063845 -1.8391579 -0.44064021
-0.85983104 -1.8294826 -0.43957165
-0.88786697 -1.8594397 -0.44812015
-0.90565062 -1.8671432 -0.45132583
-0.93504745 -1.8689958 -0.45453152
-0.94959301 -1.8693209 -0.45602751
-0.95567495 -1.8530387 -0.45346296
-0.98604602 -1.8834952 -0.46243888
-1.006747 -1.8946658 -0.46671313
-1.0415246 -1.9314519 -0.47739875
-1.1011624 -2.0124512 -0.49919742
-1.1727324 -2.1124353 -0.52591145
-1.1899846 -2.1128616 -0.52783489
-1.215036 -2.126729 -0.53317767
-1.2412813 -2.1420584 -0.53894794
-1.2969508 -2.2068431 -0.55732721
-1.4749409 -2.4749699 -0.62763858
-1.4946449 -2.4733989 -0.62956202
-1.523568 -2.4866748 -0.63533223
-1.5264306 -2.457361 -0.63020313
-1.5461633 -2.4553897 -0.63212657
-1.5738105 -2.4656217 -0.63725567
-1.5862572 -2.4518173 -0.63618708
-1.6103748 -2.4559276 -0.63982022
-1.6108203 -2.4240291 -0.63404995
-1.6387552 -2.4335496 -0.63917905
-1.647051 -2.413764 -0.6366145
-1.6568321 -2.3963795 -0.63469112
-1.686633 -2.4077747 -0.64046133
-1.6996795 -2.3949902 -0.63982022
-1.7194736 -2.3916557 -0.6417436
-1.7099687 -2.3478889 -0.63276768
-1.7307204 -2.3460014 -0.63511854
-1.7550207 -2.3486431 -0.63875163
-1.7534852 -2.3167953 -0.63298142
-1.7694504 -2.3083189 -0.63362253
-1.8081355 -2.3290613 -0.64238477
-1.833861 -2.3325167 -0.64644527
-1.8511803 -2.3250425 -0.64751387
-1.8482475 -2.2923424 -0.64152992
-1.862896 -2.2817154 -0.6417436
-1.8787282 -2.272501 -0.64238477
-1.8970248 -2.2661753 -0.64388072
-1.9064738 -2.2492752 -0.64238477
-1.9355042 -2.2553301 -0.64751387
-1.9486656 -2.2426741 -0.64730012
-1.9456172 -2.2116013 -0.6417436
-1.9825358 -2.2258885 -0.64943725
-2.0164318 -2.2361765 -0.65606236
-2.0228715 -2.2158241 -0.6537115
-2.0331149 -2.1997826 -0.65264297
-2.057251 -2.1986818 -0.65606236
-2.0599566 -2.1746676 -0.65264297
-2.0779934 -2.1669235 -0.65413892
-2.0898895 -2.1527302 -0.6537115
-2.1016898 -2.1384726 -0.65328407
-2.1223493 -2.1331558 -0.65563494
-2.1561913 -2.1407461 -0.66204631
-2.1755619 -2.1336331 -0.6639697
-2.1535378 -2.0862503 -0.65328407
-2.1599469 -2.0669174 -0.65136069
-2.1811063 -2.0616798 -0.65392524
-2.2008545 -2.0549264 -0.65606236
-2.2048061 -2.0334342 -0.65349782
-2.2396243 -2.0402663 -0.66012287
-2.2608137 -2.0343289 -0.66268742
-2.2732534 -2.0204186 -0.66268742
-2.29882 -2.0180354 -0.66653425
-2.2845926 -1.9808481 -0.6588406
-2.3182182 -1.9852244 -0.66503829
-2.3393047 -1.9785348 -0.66760284
-2.3274131 -1.9440984 -0.66076404
-2.3475859 -1.9366211 -0.66311485
-2.3374646 -1.9042819 -0.65691721
-2.3468218 -1.8880662 -0.65627605
-2.3629513 -1.8772779 -0.65755832
-2.3790364 -1.8663625 -0.6588406
-2.3950765 -1.8553203 -0.66012287
-2.4320173 -1.86018 -0.66717541
-2.4363706 -1.8399224 -0.66525197
-2.4562275 -1.8313636 -0.66760284
-2.4949501 -1.8365326 -0.67508274
-2.4785166 -1.801084 -0.66760284
-2.4903147 -1.7864116 -0.66781652
-2.5203605 -1.7846507 -0.67294562
-2.5248587 -1.7646739 -0.67123592
-2.5300109 -1.7452644 -0.66973996
-2.5616646 -1.7440058 -0.67529649
-2.5633988 -1.7222604 -0.67294562
-2.588572 -1.7162188 -0.67679244
-2.5696278 -1.6810443 -0.66909879
-2.6077964 -1.6832641 -0.67636502
-2.6147799 -1.6651314 -0.67551017
-2.6266019 -1.6500959 -0.67593759
-2.6109388 -1.6179909 -0.66931254
-2.6358192 -1.6111137 -0.67315936
-2.6556933 -1.6009647 -0.67572391
-2.6738629 -1.5896332 -0.67786103
-2.6869369 -1.5751739 -0.67871588
-2.7151563 -1.5694163 -0.68341756
-2.7026699 -1.5401469 -0.67786103
-2.712069 -1.5235348 -0.67786103
-2.7487113 -1.5220137 -0.68469983
-2.7631431 -1.5079281 -0.68598211
-2.7921298 -1.5015916 -0.69089746
-2.7659037 -1.46567 -0.68213528
-2.7904308 -1.4568123 -0.68598211
-2.7958424 -1.4378753 -0.68512726
-2.8159404 -1.4264342 -0.68790549
-2.8080325 -1.40084 -0.68384498
-2.8007939 -1.3758278 -0.67999816
-2.8417194 -1.3743603 -0.68790549
-2.8509808 -1.3573182 -0.68811923
-2.8919826 -1.3551425 -0.69602656
-2.8789539 -1.3275502 -0.69089746
-2.9164002 -1.3231857 -0.69795001
-2.9324923 -1.308851 -0.69987339
-2.9592509 -1.2990828 -0.70436138
-2.9617851 -1.2785766 -0.7030791
-2.9650788 -1.2584702 -0.70201051
-2.9727447 -1.240253 -0.70201051
-2.9721646 -1.2186522 -0.70008713
-3.009486 -1.2124451 -0.70713961
-3.0341263 -1.2007899 -0.71120018
-3.0168543 -1.17259 -0.70542991
-3.0458953 -1.1624206 -0.71055901
-3.0593736 -1.1461097 -0.71205503
-3.0690989 -1.128328 -0.71269614
-3.0741267 -1.1088119 -0.71226871
-3.0827141 -1.0905805 -0.71269614
-3.1078055 -1.0780514 -0.71697038
-3.1384075 -1.0671432 -0.72252691
-3.1328485 -1.0438495 -0.71974868
-3.1419804 -1.0255169 -0.72038978
-3.1575184 -1.0091946 -0.72252691
-3.1785676 -0.99447143 -0.72594631
-3.1565883 -0.96636498 -0.71953493
-3.2270277 -0.96632665 -0.73428112
-3.2244587 -0.94403583 -0.73235768
-3.2649393 -0.93418264 -0.74026507
-3.2621429 -0.91176355 -0.73834163
-3.2516553 -0.88735509 -0.73470855
-3.2438235 -0.8638646 -0.73171657
-3.2433901 -0.84246993 -0.7304343
-3.2598622 -0.82543266 -0.73299885
-3.2790918 -0.8089273 -0.7362045
-3.2887428 -0.78993362 -0.7372731
-3.3106496 -0.7737444 -0.74111992
-3.2819951 -0.74583298 -0.73363996
-3.3227572 -0.73369175 -0.74176103
-3.3338823 -0.7147246 -0.74325705
-3.3382051 -0.69425482 -0.74325705
-3.354851 -0.67627072 -0.74603528
-3.3416796 -0.65230095 -0.74218845
-3.3849747 -0.63922393 -0.75095069
-3.3532765 -0.61194646 -0.7430433
-3.3733232 -0.59424382 -0.74667645
-3.4009829 -0.57762814 -0.75201923
-3.402535 -0.5564335 -0.7515918
-3.4232552 -0.53828007 -0.75543863
-3.4941084 -0.52748495 -0.7703985
-3.4798768 -0.50351441 -0.76655167
-3.4722567 -0.48067737 -0.76420087
-3.4819198 -0.46026027 -0.76569682
-3.5050321 -0.44145414 -0.77018481
-3.4746964 -0.41598523 -0.76291859
-3.4723303 -0.39410535 -0.76185
-3.4911952 -0.37456667 -0.76548314
-3.5109224 -0.35490969 -0.76932997
-3.5149789 -0.33354533 -0.76975739
-3.5315554 -0.3132689 -0.77296305
-3.5353582 -0.29175481 -0.77339047
-3.5322118 -0.26968405 -0.77232194
-3.5552387 -0.24951415 -0.77702361
-3.5606022 -0.22794525 -0.77787846
-3.5326762 -0.20439549 -0.77146709
-3.5689847 -0.18453772 -0.77916074
-3.5134492 -0.16004689 -0.76676542
-3.5270548 -0.13898809 -0.76954365
-3.5005033 -0.11642966 -0.7635597
-3.5460725 -0.096175082 -0.77339047
-3.5407357 -0.074290983 -0.7721082
-3.5587068 -0.052828159 -0.77595502
-3.5755708 -0.031138901 -0.77958816
-3.589371 -0.0092366189 -0.78258014
-3.6069441 0.01284708 -0.78642696
-3.6312189 0.035211198 -0.79176974
-3.6240969 0.057384204 -0.79027379
-3.6109798 0.079343393 -0.78749549
-3.6524153 0.10267158 -0.79668516
-3.6673377 0.12561283 -0.80010456
-3.6782112 0.14858396 -0.80266911
-3.686013 0.17155752 -0.80459249
-3.721962 0.19611831 -0.81271356
-3.6719275 0.21609096 -0.80202794
-3.6851554 0.23956552 -0.80523366
-3.6417148 0.25919765 -0.79604399
-3.6497958 0.28228959 -0.79818112
-3.6538363 0.30516586 -0.79946339
-3.6869233 0.3307156 -0.80715704
-3.7023287 0.35500735 -0.81100386
-3.7408988 0.38187763 -0.81997979
-3.7530539 0.40639925 -0.8231855
-3.7436957 0.42864317 -0.82168949
-3.7565131 0.45347664 -0.82510889
-3.7701352 0.47860637 -0.82874203
-3.7283928 0.49657807 -0.82019353
-3.6691573 0.51163024 -0.80779821
-3.7065508 0.54004288 -0.81677413
-3.7331083 0.56732064 -0.82339919
-3.7372766 0.59143615 -0.82510889
-3.7798471 0.62196231 -0.83536708
-3.7586262 0.64218473 -0.83152026
-3.7613487 0.66642702 -0.83301628
-3.7552669 0.68914139 -0.83258885
-3.7480886 0.71162409 -0.83194768
-3.7359822 0.73310494 -0.83023798
-3.7955644 0.76900113 -0.84455675
-3.7343547 0.78049356 -0.83194768
-3.7562361 0.80914819 -0.83793163
-3.7635992 0.83492923 -0.84070992
-3.7231655 0.84996766 -0.83280253
-3.7483146 0.87993598 -0.83964133
-3.7390461 0.90200293 -0.83878648
-3.7438722 0.92751062 -0.84113735
-3.704972 0.94204503 -0.83365738
-3.8049974 0.99235511 -0.85759318
-3.7205026 0.99475282 -0.83985507
-3.7642667 1.0312346 -0.85118181
-3.76069 1.0551037 -0.85182297
-3.7597795 1.0797759 -0.85310525
-3.7521458 1.1025499 -0.8528915
-3.7827344 1.1367922 -0.86144
-3.8009021 1.1677233 -0.86721027
-3.8048508 1.1945328 -0.86977482
-3.7834954 1.2133837 -0.8665691
-3.7536969 1.2292827 -0.86144
-3.7544222 1.2550781 -0.86336344
-6.2755156 2.1403108 -1.4478669
-3.726743 1.2968842 -0.86058515
-3.7003014 1.313195 -0.8563109
-3.6949303 1.3368716 -0.85695207
-3.7315719 1.3760728 -0.86742395
-3.7029388 1.391387 -0.86272228
-3.7782726 1.4461964 -0.88238382
-5.4412379 2.2370119 -1.284377
-5.3724322 2.247366 -1.2713405
-5.3153925 2.2619321 -1.2610823
-5.3058968 2.2964439 -1.2621509
-5.2702456 2.319515 -1.2570218
-5.2273784 2.3390439 -1.250183
-5.1844711 2.3581347 -1.2433442
-4.9650578 2.2952347 -1.1939765
-5.0304637 2.3630288 -1.2132107
-3.8300042 1.8280551 -0.92576748
-4.5140729 2.1885409 -1.0948139
-4.580317 2.2554598 -1.1142619
-3.8664839 1.9336258 -0.94307816
-3.5818939 1.8189125 -0.87618619
-3.6375299 1.875315 -0.89264202
-3.7731073 1.9745808 -0.92897314
-3.5805936 1.9019445 -0.88430727
-3.5955155 1.9382448 -0.89093232
-3.5535557 1.9438659 -0.88345242
-3.5595002 1.9755862 -0.88794035
-3.5583782 2.003619 -0.89071864
-3.6367908 2.0772443 -0.91358584
-3.6028423 2.0872808 -0.90824306
-3.6649356 2.1533818 -0.92726344
-3.6642432 2.1833274 -0.93046916
-3.6499412 2.2052648 -0.93025541
-3.5838566 2.1954772 -0.91679156
-3.5138817 2.1823871 -0.90225911
-3.5169601 2.214314 -0.90653336
-3.4695411 2.2143092 -0.89777112
-3.4017479 2.2005453 -0.8836661
-3.3571336 2.2010276 -0.87554502
-3.315084 2.2026677 -0.86806512
-3.3104208 2.2289677 -0.87041593
-3.3192792 2.2646503 -0.87639987
-3.3013029 2.2821975 -0.87533134
-3.2768345 2.2951269 -0.87255305
-3.2650805 2.3168855 -0.87319422
-3.2714288 2.3516982 -0.87875074
-3.2537782 2.3694274 -0.87789589
-3.2203085 2.375433 -0.87276679
-3.2009764 2.3916402 -0.87148452
-3.1550784 2.3876607 -0.86293602
-3.1256351 2.3956861 -0.85887545
-3.1131921 2.4166162 -0.85951662
-3.0752625 2.4175642 -0.85310525
-3.0550203 2.4321299 -0.85160923
-3.0339544 2.4459255 -0.84989953
-3.025701 2.4700541 -0.85182297
-3.0059698 2.4848394 -0.8505407
-2.9726853 2.4881911 -0.8454116
-2.9640703 2.5120678 -0.84733498
-2.9248741 2.5098541 -0.84049618
-2.9020431 2.5213478 -0.83835906
-2.8777146 2.5313659 -0.83579451
-2.8533728 2.5411804 -0.83322996
-2.8217626 2.5442512 -0.82852829
-2.7981606 2.5542743 -0.82617748
-2.8061144 2.5932713 -0.83322996
-2.7851553 2.6057692 -0.831734
-2.7634392 2.6174362 -0.8300243
-2.7099497 2.598515 -0.81869751
-2.6890471 2.610332 -0.81720155
-2.671586 2.6254132 -0.81677413
-2.6450365 2.6314232 -0.81356841
-2.6219563 2.6406724 -0.81143129
-2.5981781 2.64904 -0.80908048
-2.5811954 2.6642311 -0.80886674
-2.5560172 2.670845 -0.80608851
-2.530184 2.6765411 -0.80309653
-2.5150473 2.6934435 -0.80352396
-2.4978108 2.7081068 -0.80331022
-2.4831212 2.7255483 -0.80395138
-2.4670045 2.7414591 -0.80416507
-2.4326105 2.7368333 -0.79839486
-2.4061022 2.7406981 -0.79518914
-2.3783584 2.7428646 -0.79155606
-2.3583059 2.7536969 -0.79048747
-2.338841 2.7651324 -0.78963262
-2.3287213 2.787677 -0.79198349
-2.3128161 2.8034201 -0.79241091
-2.2838447 2.8031709 -0.78835034
-2.2610893 2.8102822 -0.78642696
-2.2535286 2.8363395 -0.78984636
-2.2451296 2.8616405 -0.79305202
-2.2185526 2.86378 -0.78984636
-2.1950023 2.8695807 -0.78770924
-2.1791203 2.8853333 -0.78835034
-2.1491094 2.8822057 -0.78386241
-2.1197984 2.8796058 -0.77958816
-2.099792 2.8893981 -0.77873331
-2.0774665 2.8958783 -0.77702361
-2.0664351 2.9181366 -0.77958816
-2.045692 2.9267583 -0.77851957
-2.0238111 2.9336271 -0.77702361
-2.0074222 2.9484119 -0.77766472
-1.9931082 2.9663491 -0.77916074
-1.9786494 2.9842215 -0.7806567
-1.945857 2.9742365 -0.77488649
-1.9206815 2.9754512 -0.7721082
-1.8924149 2.9715266 -0.76804769
-1.8788251 2.990526 -0.76997107
-1.8558073 2.9945254 -0.76804769
-1.8266956 2.9883544 -0.7635597
-1.8042889 2.9928143 -0.76185
-1.7953796 3.0197816 -0.76591057
-1.8005396 3.0711884 -0.77616876
-1.7528076 3.0322838 -0.7635597
-1.7191697 3.0166733 -0.75693464
-1.7030206 3.0314231 -0.75800318
-1.679654 3.0332704 -0.75586605
-1.6516478 3.026371 -0.7515918
-1.6325845 3.035588 -0.75137812
-1.61347 3.0446851 -0.75116438
-1.587069 3.0398078 -0.74753129
-1.5581073 3.0295095 -0.74261588
-1.5399307 3.0398843 -0.74282962
-1.5243032 3.0553944 -0.74432558
-1.5020798 3.0576761 -0.74261588
-1.4837155 3.0677145 -0.74282962
-1.4594032 3.0652952 -0.74005133
-1.4206625 3.0317357 -0.72979313
-1.4204496 3.0803125 -0.73941022
-1.3995035 3.0845225 -0.73834163
-1.3825425 3.0975118 -0.73941022
-1.3658676 3.1113029 -0.7406925
-1.3467513 3.1196251 -0.7406925
-1.2978003 3.057694 -0.72402292
-1.2737457 3.0529785 -0.72103095
-1.2557305 3.0625443 -0.72145838
-1.2244977 3.0393858 -0.71419215
-1.2033076 3.0404842 -0.71269614
-1.1495746 2.9576738 -0.69153863
-1.1387233 2.9838369 -0.69602656
-1.1135356 2.9724729 -0.69175231
-1.0892051 2.9627466 -0.68790549
-1.0673577 2.9592664 -0.68555468
-1.0472239 2.9602344 -0.68427241
-1.019751 2.9398406 -0.67807472
-0.99917585 2.9386437 -0.67636502
-0.98112589 2.9447193 -0.67636502
-0.96455538 2.955327 -0.67743361
-0.95086747 2.9751468 -0.68063927
-0.9296757 2.9716024 -0.67850214
-0.91285551 2.9819212 -0.67957073
-0.89650452 2.9940166 -0.68106669
-0.88086331 3.008836 -0.68320382
-0.86480504 3.0226367 -0.68512726
-0.84334767 3.0175376 -0.68277639
-0.82378703 3.0188859 -0.68192154
-0.80650592 3.0286033 -0.68299013
-0.79405195 3.0571318 -0.68833292
-0.77815849 3.0733101 -0.69089746
-0.75998878 3.0808723 -0.69153863
-0.74518061 3.1025746 -0.69538546
-0.72879952 3.1185031 -0.69795001
-0.71615076 3.1514933 -0.70436138
-0.69174063 3.132935 -0.69923228
-0.67065978 3.1285241 -0.69730884
-0.65085357 3.1297112 -0.69666773
-0.63414961 3.1460946 -0.69944596
-0.61577028 3.1547203 -0.70051455
-0.59567589 3.1545994 -0.69965971
-0.5784151 3.1697271 -0.70222425
-0.56319654 3.1972678 -0.70756704
-0.54062039 3.1833279 -0.70372021
-0.51934141 3.1759806 -0.7013694
-0.50181919 3.1916525 -0.70414764
-0.48251814 3.1966033 -0.70457506
-0.46401557 3.2072382 -0.70628476
-0.44566894 3.2197015 -0.70842189
-0.4261612 3.2243123 -0.70884931
-0.40759164 3.2365587 -0.71098644
-0.38528255 3.2186298 -0.7064985
-0.36993992 3.2597589 -0.715047
-0.34961832 3.2590537 -0.71440583
-0.33640584 3.3282003 -0.72915202
-0.31607053 3.3311744 -0.72936571
-0.29527891 3.3291588 -0.72851086
-0.2738798 3.3192251 -0.72594631
-0.25321007 3.316947 -0.72509146
-0.23333287 3.3252597 -0.72658747
-0.21305023 3.3285785 -0.7270149
-0.19324507 3.3405509 -0.72936571
-0.17365529 3.3592341 -0.73321253
-0.15237071 3.3455982 -0.73000687
-0.1323806 3.360136 -0.73299885
-0.11231575 3.3774831 -0.73663193
-0.091963008 3.3917801 -0.7396239
-0.071253031 3.3971639 -0.7406925
-0.050304376 3.3906996 -0.73919648
-0.02945509 3.3860605 -0.73812795
-0.0086565763 3.3783619 -0.73641825
0.012079445 3.3803055 -0.73684567
0.032690141 3.366492 -0.7338537
0.053131785 3.3525529 -0.73086172
0.073786817 3.3560705 -0.73171657
0.094568864 3.36239 -0.73321253
0.11516505 3.3607702 -0.73299885
0.13590196 3.3629286 -0.73363996
0.15666971 3.364959 -0.73428112
0.17716004 3.3610077 -0.73363996
0.19714999 3.3491299 -0.73128915
0.21308212 3.2766933 -0.71568811
0.23581259 3.3123529 -0.72380918
0.25485459 3.2942855 -0.7201761
0.28147316 3.3695681 -0.73705935
0.29813603 3.3230193 -0.72722858
0.31433147 3.2773671 -0.71761155
0.3328504 3.2598269 -0.71419215
0.34906584 3.2227588 -0.7064985
0.37360516 3.262291 -0.71568811
0.3925629 3.2512083 -0.71376473
0.4127503 3.2506764 -0.71419215
0.43165782 3.2403357 -0.71248245
0.45180151 3.2395613 -0.71290988
0.47012311 3.2260942 -0.71055901
0.49152189 3.2337732 -0.71290988
0.51211739 3.2355211 -0.71397841
0.52958369 3.2178583 -0.71077275
0.5491538 3.2135851 -0.71055901
0.56835085 3.2072694 -0.7099179
0.58801961 3.2037215 -0.7099179
0.60803032 3.201973 -0.71034533
0.6265381 3.1924298 -0.70906305
0.65464306 3.2306545 -0.7184664
0.67964584 3.2514396 -0.72402292
0.69629455 3.2319279 -0.72060353
0.72900862 3.285773 -0.73363996
0.73829275 3.2336166 -0.72295433
0.78400028 3.3393507 -0.74774498
0.78867871 3.2689486 -0.73299885
0.80590457 3.2526686 -0.7304343
0.82344168 3.2381942 -0.72829717
0.85093313 3.2623856 -0.73492223
0.87547386 3.2740912 -0.73876905
0.89709461 3.2743111 -0.74005133
0.92191583 3.2856762 -0.74389815
0.94691008 3.2968595 -0.74774498
0.96381831 3.2797394 -0.74518043
0.98167616 3.266279 -0.74347073
1.0039932 3.2676649 -0.74518043
1.0269489 3.2707639 -0.74731755
1.0469986 3.264401 -0.74731755
1.0688323 3.2634859 -0.74859983
1.0894556 3.2587192 -0.74902725
1.1009184 3.2270081 -0.74325705
1.1361024 3.2644808 -0.75351524
1.1678683 3.2905934 -0.76120889
1.2003292 3.3173566 -0.76911622
1.2247157 3.3209283 -0.77168077
1.2433521 3.3087785 -0.77061224
1.2657254 3.3065615 -0.77189451
1.2884729 3.3051045 -0.77339047
1.3015236 3.2789755 -0.76911622
1.3069861 3.234695 -0.76056772
1.3268092 3.2266145 -0.76056772
1.351859 3.2310302 -0.7635597
1.3559794 3.1858184 -0.75479752
1.4507599 3.351373 -0.79625773
1.47287 3.3459849 -0.79711258
1.4929738 3.3359926 -0.79689884
1.5061364 3.3107622 -0.79305202
1.5395367 3.3298354 -0.79989082
1.5740576 3.3503907 -0.80715704
1.5907996 3.3327341 -0.80523366
1.6154796 3.3317013 -0.80737078
1.6436583 3.3375025 -0.81121761
1.6715318 3.3422089 -0.81485069
1.7119057 3.3710887 -0.82446778
1.7379283 3.3709416 -0.82703233
1.7766926 3.3948386 -0.83558083
1.8455938 3.4744682 -0.8580206
1.8353653 3.4045997 -0.84348816
1.8379421 3.3598464 -0.8351534
1.8258213 3.2895637 -0.82040721
1.8660966 3.3140535 -0.82938313
1.87138 3.2762423 -0.82275808
1.8845934 3.2528629 -0.8197661
1.9342027 3.2917786 -0.83258885
1.9403664 3.2563484 -0.8266049
1.95627 3.2376916 -0.8248952
1.964365 3.206466 -0.81997979
1.9912167 3.205972 -0.82297176
2.0160544 3.2019615 -0.82510889
2.0204258 3.1656475 -0.81891125
2.0387509 3.1515503 -0.81848383
2.0473402 3.1226404 -0.81420958
2.0648401 3.107578 -0.81356841
2.1040521 3.1248355 -0.8214758
2.1160302 3.1013746 -0.81869751
2.1300216 3.0810995 -0.81677413
2.1589723 3.0823762 -0.82062095
2.148454 3.0276382 -0.80950791
2.1675606 3.015192 -0.80972159
2.184871 3.0002556 -0.80929416
2.2020795 2.9852204 -0.80886674
2.2057405 2.9520857 -0.80352396
2.2485664 2.9712169 -0.81249988
2.2406125 2.9232447 -0.80309653
2.2573092 2.9078979 -0.80266911
2.2932179 2.9170353 -0.80908048
2.3074234 2.8983235 -0.80779821
2.3251638 2.8841107 -0.80779821
2.3397284 2.8660052 -0.80672961
2.3535359 2.8470767 -0.80544734
2.3665726 2.8273375 -0.80395138
2.383245 2.8120179 -0.80373764
2.4182634 2.8181028 -0.80972159
2.4041209 2.7670717 -0.79924971
2.4100876 2.7397969 -0.79561657
2.4275026 2.725687 -0.79583031
2.450722 2.7179971 -0.79796743
2.4660363 2.7014654 -0.79754001
2.48124 2.6848481 -0.79711258
2.5116804 2.6845558 -0.80160052
2.5220602 2.6627097 -0.79967713
2.5417309 2.6507106 -0.80074567
2.5273333 2.6035168 -0.79112864
2.5487373 2.5935354 -0.79283834
2.5652919 2.5785406 -0.79305202
2.5484893 2.5303955 -0.78300756
2.5855842 2.5359197 -0.78963262
2.5961852 2.5152478 -0.78813666
2.602396 2.4904888 -0.78535837
2.6034327 2.4610496 -0.78108412
2.620626 2.4470294 -0.78172529
2.6528227 2.4468021 -0.78685439
2.6807826 2.4423232 -0.79070121
2.6572373 2.3911881 -0.77937442
2.6623685 2.3664 -0.77659619
2.7685907 2.4305983 -0.80331022
2.7126083 2.3521137 -0.78279382
2.7381177 2.3449588 -0.78599954
2.7263529 2.3060286 -0.77851957
2.7397015 2.2886302 -0.77830589
2.7634876 2.2798603 -0.78108412
2.7357759 2.2289162 -0.76932997
2.7904956 2.2451639 -0.78087044
2.7904537 2.2170584 -0.77702361
2.8186059 2.2113543 -0.78108412
2.8243997 2.1880338 -0.778947
2.8571675 2.1855037 -0.78428984
2.8876717 2.180887 -0.78899151
2.901782 2.1637115 -0.78920519
2.8709531 2.1134264 -0.7772373
2.8562114 2.0756655 -0.76975739
2.8641317 2.0546834 -0.76847512
2.9125564 2.0624824 -0.77809215
2.9283595 2.0468116 -0.778947
2.9384511 2.0271401 -0.77830589
2.9605229 2.0156713 -0.78087044
2.9744568 1.9985578 -0.78129786
2.9899201 1.9824293 -0.78215271
2.9709668 1.9437171 -0.77403164
2.9885819 1.9291607 -0.7755276
2.9929478 1.9060625 -0.77360421
3.0112035 1.891821 -0.77531391
3.0343788 1.8805156 -0.77830589
3.0500274 1.8644097 -0.77937442
3.0555539 1.8421284 -0.77787846
3.0609224 1.8198495 -0.77638245
3.0855136 1.8089415 -0.77980185
3.0906353 1.7865516 -0.77830589
3.0871119 1.7593288 -0.77467275
3.0748553 1.7274307 -0.76890254
3.0794151 1.7052174 -0.76740652
3.1541266 1.721401 -0.78343499
3.119035 1.6774831 -0.7721082
3.1292691 1.6583134 -0.7721082
3.1541057 1.6467701 -0.77574134
3.1771803 1.6340903 -0.778947
3.1740766 1.6079403 -0.77574134
3.1926236 1.5927969 -0.77787846
3.1848021 1.5645596 -0.77360421
3.1749961 1.5356274 -0.76890254
3.1852407 1.5165372 -0.76911622
3.1688354 1.4849385 -0.76291859
3.1823223 1.4675132 -0.76398712
3.1779237 1.4419023 -0.76078147
3.1706555 1.4152057 -0.75693464
3.1801736 1.3961172 -0.75714833
3.184196 1.3746409 -0.75607979
3.184478 1.3516406 -0.75415635
3.1845982 1.3286886 -0.75223297
3.1691923 1.2994829 -0.74667645
3.1734817 1.2785518 -0.7458216
3.1894417 1.2622925 -0.74774498
3.191664 1.2405742 -0.7464627
3.1855266 1.2157398 -0.74325705
3.229516 1.2098863 -0.75180554
3.2176256 1.182965 -0.74731755
3.2459579 1.1708274 -0.75223297
3.2300582 1.1427388 -0.74689013
3.237932 1.1232184 -0.74710387
3.2530866 1.1061616 -0.74902725
3.2320104 1.0769107 -0.74261588
3.2664158 1.0661579 -0.74902725
3.2533565 1.0398461 -0.74453932
3.2447591 1.0151944 -0.74111992
3.2770805 1.0032779 -0.74710387
3.260716 0.97642142 -0.74197477
3.2544584 0.95282501 -0.73919648
3.2564869 0.93176252 -0.73834163
3.2386231 0.9051851 -0.73299885
3.2318654 0.8819505 -0.73022056
3.2202249 0.85757524 -0.72637373
3.2509539 0.84443617 -0.732144
3.2428167 0.82111323 -0.72915202
3.2458971 0.80073184 -0.7287246
3.2545485 0.78171366 -0.72957945
3.2497716 0.75950444 -0.72744232
3.2524655 0.73911655 -0.7270149
3.2483544 0.71724862 -0.72509146
3.2488735 0.69648379 -0.72423661
3.2521296 0.67633688 -0.72402292
3.2705824 0.65926772 -0.72722858
3.254432 0.63525331 -0.72274065
3.2534688 0.61436528 -0.72167206
3.2879291 0.60000861 -0.72851086
3.2809663 0.57795674 -0.72616005
3.2777092 0.55666798 -0.72466403
3.2579257 0.5327577 -0.71953493
3.2582383 0.51230168 -0.71889383
3.2584226 0.49186188 -0.71825266
3.2526779 0.47059873 -0.71632928
3.2767925 0.45358273 -0.72103095
3.3027568 0.43654475 -0.72616005
3.2666044 0.4113813 -0.71761155
3.2583976 0.39005077 -0.71526068
3.2471406 0.36850545 -0.71226871
3.2260294 0.34606919 -0.70713961
3.2387831 0.32735077 -0.70949048
3.2115555 0.30469802 -0.7030791
3.2318528 0.28662989 -0.70713961
3.2228415 0.26590851 -0.7047888
3.2146719 0.24538308 -0.70265168
3.2404792 0.22736773 -0.70799446
3.2047675 0.20510206 -0.69987339
3.2235203 0.18645294 -0.70372021
3.6616654 0.18934624 -0.79946339
3.7486353 0.17080247 -0.81827009
3.7652309 0.14841631 -0.82168949
3.6674595 0.12201284 -0.80010456
3.7179422 0.10086702 -0.81100386
3.6989574 0.077638932 -0.80672961
3.5841033 0.053209662 -0.78151155
3.6273444 0.031598911 -0.79091489
2.9829836 0.0078816712 -0.70282286
2.9858952 -0.010432182 -0.7035135
2.9303086 -0.028213982 -0.690391
2.9806771 -0.046995778 -0.70236242
3.238152 -0.070954643 -0.76337057
3.2551653 -0.09131486 -0.76751453
3.2224491 -0.11018637 -0.75991732
3.2285187 -0.13023199 -0.76152885
3.1936359 -0.14845496 -0.75347114
3.1742008 -0.16707453 -0.74909699
3.1906021 -0.18757741 -0.75324094
3.187449 -0.20702474 -0.7527805
3.1812651 -0.22623311 -0.75162941
3.1672041 -0.24477287 -0.74863654
3.1908565 -0.26630834 -0.75462228
3.1872239 -0.2857081 -0.75416183
3.1854107 -0.30525917 -0.75416183
3.1708922 -0.3235136 -0.75116897
3.1862624 -0.34485003 -0.75531292
3.1773186 -0.363619 -0.75370139
3.1518407 -0.38030803 -0.7481761
3.1465518 -0.39927247 -0.74748546
3.1411488 -0.41818631 -0.74679476
3.1240664 -0.43543586 -0.74334151
3.1049654 -0.45221096 -0.73942775
3.1107912 -0.4725703 -0.74149972
3.0934153 -0.48936677 -0.73804647
3.0701897 -0.50501972 -0.73321182
3.0727887 -0.52483207 -0.73459315
3.0695105 -0.5436765 -0.73459315
3.0565453 -0.56074357 -0.73229098
3.0511348 -0.57912451 -0.73183054
3.03702 -0.59577352 -0.72929811
3.0008795 -0.60782593 -0.72147065
3.0142393 -0.62981164 -0.72561461
2.9893894 -0.64378577 -0.72054976
2.9768326 -0.66021901 -0.71847779
2.9765205 -0.67933857 -0.71939868
2.9789276 -0.69914645 -0.72101021
2.9651217 -0.7151292 -0.71870798
2.952177 -0.73120296 -0.716636
2.9702697 -0.75505948 -0.72216129
2.9382734 -0.76614761 -0.71548492
2.9400978 -0.78592181 -0.71709645
2.9117565 -0.79751831 -0.71134096
2.8965018 -0.81247753 -0.70880854
2.9064271 -0.83453321 -0.71249205
2.9040527 -0.85317415 -0.71318275
2.8782601 -0.86481464 -0.7081179
2.879411 -0.88445979 -0.70972943
2.8590748 -0.89744651 -0.70604593
2.8655608 -0.91883636 -0.70903879
2.85432 -0.93458444 -0.70765746
2.8393025 -0.94899499 -0.70535529
2.8334262 -0.96639866 -0.70535529
2.8338766 -0.98600519 -0.70696682
2.8075974 -0.99621391 -0.70190197
2.8133278 -1.0177269 -0.70489484
2.8335078 -1.0447351 -0.71157122
2.768744 -1.0401927 -0.69683713
2.7368622 -1.0474203 -0.690391
2.7802508 -1.0836351 -0.70305306
2.7753584 -1.101392 -0.7035135
2.7396755 -1.106734 -0.69614649
2.7400334 -1.1264844 -0.69798821
2.7411494 -1.1466563 -0.70006019
2.7224216 -1.1584995 -0.69706738
2.7072246 -1.1717026 -0.6949954
2.7177975 -1.1961335 -0.6995998
2.6731012 -1.1960903 -0.68993056
2.6603971 -1.2100518 -0.68854922
2.6529222 -1.2263528 -0.68854922
2.6744127 -1.256264 -0.69614649
2.6297693 -1.2550429 -0.68647724
2.6447852 -1.2821949 -0.69246298
2.5932181 -1.2769005 -0.68095201
2.5949082 -1.2975768 -0.68348438
2.61553 -1.3280157 -0.69108164
2.4983501 -1.2878481 -0.66207397
2.5248885 -1.3212038 -0.67128277
2.4832175 -1.3188663 -0.66230422
2.4673691 -1.329922 -0.66023225
2.5009954 -1.3679219 -0.67151296
2.5010636 -1.3879648 -0.67381519
2.4992833 -1.407105 -0.67565691
2.4855328 -1.4195176 -0.67427564
2.484354 -1.4391327 -0.67634761
2.4477897 -1.4380796 -0.66875035
2.4522953 -1.4610424 -0.67243385
2.4257934 -1.465493 -0.66759926
2.4184153 -1.4813665 -0.66805971
2.4010136 -1.4910432 -0.66575748
2.4165242 -1.5213032 -0.67266411
2.4046834 -1.5345314 -0.67197341
2.3862348 -1.5434427 -0.66944098
2.3531191 -1.5425812 -0.66276467
2.3468518 -1.5591449 -0.6636855
2.329169 -1.5680801 -0.66138333
2.3106613 -1.5763088 -0.65885091
2.3169551 -1.6015252 -0.66345531
2.2911437 -1.6045455 -0.65885091
2.2741127 -1.6135046 -0.65677893
2.261009 -1.6251559 -0.65585804
2.2447016 -1.6344156 -0.65401632
2.2260165 -1.6418033 -0.65148389
2.2197986 -1.6583433 -0.65263498
2.2072535 -1.6701708 -0.65194434
2.2062321 -1.690787 -0.65470695
2.1912038 -1.7007118 -0.65332562
2.1929674 -1.7237482 -0.65700912
2.1656005 -1.7238365 -0.65194434
2.1549826 -1.737092 -0.65194434
2.1420219 -1.7484357 -0.65125364
2.1237531 -1.7553456 -0.64895147
2.124882 -1.7783376 -0.65263498
2.0842357 -1.7661742 -0.64342618
2.0807443 -1.785267 -0.64572841
2.0616703 -1.7909797 -0.64319599
2.0528343 -1.8055245 -0.64388663
2.0322702 -1.8096724 -0.64089376
2.0146234 -1.8162431 -0.63882178
1.9833177 -1.8101995 -0.63237566
1.9671705 -1.8177114 -0.63076413
1.9694816 -1.84238 -0.63513827
1.965205 -1.861122 -0.6374405
1.9537482 -1.8731453 -0.6374405
1.945011 -1.8878094 -0.63836139
1.9070165 -1.8737881 -0.62961304
1.9147996 -1.9046719 -0.63605917
1.8941634 -1.9074076 -0.6330663
1.8831054 -1.9196888 -0.63329655
1.8672283 -1.9270136 -0.63191521
1.8553692 -1.9384344 -0.63191521
1.8521305 -1.9589758 -0.63490808
1.8340985 -1.9639019 -0.6328361
1.8299308 -1.9837028 -0.63559872
1.8046173 -1.9805061 -0.63099432
1.7826673 -1.980691 -0.62754107
1.7640157 -1.9843184 -0.62523884
1.756943 -2.0009551 -0.62708062
1.7548324 -2.0234618 -0.63076413
1.7335218 -2.0238433 -0.62754107
1.7260985 -2.040386 -0.62938279
1.6948307 -2.0285332 -0.62247622
1.6712049 -2.025382 -0.61833227
1.6704243 -2.049933 -0.62270641
1.6480546 -2.0480125 -0.61902291
1.6294038 -2.0504668 -0.61672074
1.6318082 -2.0795672 -0.62247622
1.6017349 -2.0672305 -0.61579984
1.5902028 -2.0785656 -0.61626029
1.5850431 -2.0983791 -0.61925316
1.5645759 -2.0979233 -0.61626029
1.5418667 -2.0941608 -0.61234653
1.543862 -2.1240501 -0.61833227
1.5160519 -2.1129243 -0.61234653
1.5053083 -2.1253636 -0.61326742
1.4927963 -2.1353576 -0.61349767
1.473035 -2.1348646 -0.610735
1.4555267 -2.1374276 -0.60889328
1.4364145 -2.1374331 -0.60636085
1.4329518 -2.1608057 -0.61050481
1.4212646 -2.1720004 -0.61119545
1.405272 -2.1765924 -0.61004436
1.4028674 -2.2024112 -0.61487895
1.3939865 -2.2183938 -0.61695093
1.3854744 -2.2351773 -0.61925316
1.3661507 -2.2345028 -0.61672074
1.3493999 -2.2378428 -0.6153394
1.3212217 -2.2218225 -0.60866302
1.3129777 -2.2391224 -0.61119545
1.295805 -2.2412388 -0.60958391
1.2815468 -2.248302 -0.60935372
1.2634377 -2.2484872 -0.60728174
1.2491461 -2.2553461 -0.60705149
1.2399458 -2.2715101 -0.60935372
1.2273675 -2.2816467 -0.61004436
1.2201793 -2.3020329 -0.61349767
1.2100847 -2.3172402 -0.61556965
1.1936182 -2.3202946 -0.61441851
1.1657264 -2.3006635 -0.60728174
1.1424651 -2.2894862 -0.60244709
1.1322572 -2.3043141 -0.60451907
1.1159784 -2.3068378 -0.60336798
1.1018028 -2.313642 -0.60336798
1.0884117 -2.3221214 -0.60382843
1.0753654 -2.3314071 -0.60451907
1.0630504 -2.3423924 -0.60567021
1.0565902 -2.3666439 -0.61027455
1.0408753 -2.3704095 -0.60958391
1.0247684 -2.3731778 -0.60866302
0.99421912 -2.3417976 -0.59899384
0.9779579 -2.3433633 -0.59784269
0.97205204 -2.3700287 -0.60313779
0.961128 -2.3849752 -0.60543996
0.94504362 -2.387208 -0.60451907
0.92755777 -2.3857057 -0.60267735
0.91567767 -2.3986254 -0.60451907
0.89889449 -2.398731 -0.60313779
0.88080126 -2.3950677 -0.60083556
0.86146635 -2.3876114 -0.5976125
0.84874737 -2.3983569 -0.59899384
0.83305854 -2.4007614 -0.59830314
0.82269788 -2.4187264 -0.60152626
0.80876428 -2.4264984 -0.6022169
0.79204863 -2.4258647 -0.60083556
0.78100032 -2.4427292 -0.60382843
0.76425385 -2.4419029 -0.60244709
0.75894159 -2.4781835 -0.61027455
0.74372149 -2.4827938 -0.61027455
0.71835673 -2.4527547 -0.60175645
0.70704103 -2.4702146 -0.60497952
0.68427444 -2.4473271 -0.59830314
0.67001355 -2.4542961 -0.59899384
0.65744585 -2.4677646 -0.60129601
0.64204693 -2.4708104 -0.60106581
0.62639654 -2.4728165 -0.60060537
0.61097872 -2.4756687 -0.60037512
0.59577686 -2.4793711 -0.60037512
0.57922375 -2.4772944 -0.59899384
0.56660008 -2.4921892 -0.60175645
0.55381542 -2.5070219 -0.60451907
0.5365864 -2.5018091 -0.60244709
0.52162176 -2.5069599 -0.60290754
0.50276834 -2.4929423 -0.59876359
0.49230966 -2.5208132 -0.60474932
0.47466618 -2.5123117 -0.60198665
0.46011546 -2.5199635 -0.60313779
0.44312522 -2.5141137 -0.60106581
0.42817938 -2.5196636 -0.60175645
0.41695112 -2.5481739 -0.60797238
0.3988896 -2.5353029 -0.60428888
0.38477826 -2.5473251 -0.60659105
0.36816552 -2.5428963 -0.60497952
0.35255569 -2.5451074 -0.60497952
0.33629504 -2.5423989 -0.60382843
0.31959453 -2.5357251 -0.60175645
0.3036826 -2.5347395 -0.60106581
0.28790456 -2.5346212 -0.60060537
0.27172422 -2.5305347 -0.59922403
0.25648561 -2.535059 -0.59991467
0.24202892 -2.5482104 -0.60267735
0.22681867 -2.5544941 -0.60382843
0.21258064 -2.5732949 -0.60797238
0.19575028 -2.5609665 -0.60474932
0.17989658 -2.560178 -0.60428888
0.16399778 -2.55832 -0.60359824
0.14807236 -2.555392 -0.60267735
0.13264114 -2.5611117 -0.60382843
0.11754368 -2.5754874 -0.60705149
0.10131726 -2.5654638 -0.60451907
0.086155973 -2.583544 -0.60866302
0.070064738 -2.575269 -0.60659105
0.054445427 -2.5844066 -0.60866302
0.038543504 -2.581773 -0.60797238
0.022726679 -2.5848804 -0.60866302
0.0068483367 -2.5781591 -0.60705149
-0.0089710793 -2.5781527 -0.60705149
-0.024686119 -2.5673449 -0.60451907
-0.040438585 -2.5671451 -0.60451907
-0.056510512 -2.5814424 -0.60797238
-0.072841503 -2.5985565 -0.61211634
-0.088351212 -2.5854173 -0.60912347
-0.10425267 -2.585799 -0.60935372
-0.11948311 -2.5715013 -0.6061306
-0.13490067 -2.5639172 -0.60451907
-0.1509732 -2.5688701 -0.60590041
-0.16666949 -2.5669243 -0.60567021
-0.18310782 -2.5755599 -0.60797238
-0.1976316 -2.557894 -0.60405862
-0.21421401 -2.5673006 -0.60659105
-0.23065835 -2.5736918 -0.60843283
-0.24588843 -2.5664158 -0.60705149
-0.26380581 -2.5861571 -0.61211634
-0.27935484 -2.5815873 -0.6114257
-0.29452553 -2.5740237 -0.61004436
-0.31124717 -2.5798969 -0.61188614
-0.32768419 -2.5827656 -0.61303723
-0.34262601 -2.5739541 -0.6114257
-0.35639673 -2.5573461 -0.60797238
-0.37081864 -2.5464444 -0.60590041
-0.3877525 -2.5527802 -0.60797238
-0.40158311 -2.5388186 -0.60520977
-0.42379081 -2.5766361 -0.61487895
-0.43533081 -2.5490472 -0.60889328
-0.45317075 -2.558785 -0.61188614
-0.47114643 -2.568399 -0.61487895
-0.48417374 -2.5511189 -0.6114257
-0.50206697 -2.5595591 -0.61418831
-0.52066165 -2.5707366 -0.61764163
-0.53702295 -2.5703511 -0.61833227
-0.55544871 -2.5793746 -0.62132514
-0.56662756 -2.5550172 -0.61626029
-0.58294404 -2.5543387 -0.61695093
-0.59593701 -2.539345 -0.61418831
-0.61470234 -2.5488844 -0.61741138
-0.62916017 -2.5403421 -0.61626029
-0.64545506 -2.539263 -0.61695093
-0.66544467 -2.5522041 -0.62109488
-0.68058944 -2.5461929 -0.62063444
-0.69825697 -2.5494773 -0.62247622
-0.70968062 -2.5301538 -0.61879271
-0.72062492 -2.509851 -0.61487895
-0.73601145 -2.5053821 -0.61487895
-0.75193059 -2.5026827 -0.6153394
-0.76041287 -2.4756966 -0.60981417
-0.77384001 -2.4654136 -0.60843283
-0.79103345 -2.4671056 -0.61004436
-0.80645931 -2.46313 -0.61027455
-0.82649469 -2.4729023 -0.61395812
-0.84730846 -2.4843626 -0.61810201
-0.86317611 -2.4809549 -0.61856246
-0.87773162 -2.4737778 -0.61810201
-0.8922317 -2.4665153 -0.61764163
-0.90701246 -2.4600813 -0.61741138
-0.92722505 -2.4681337 -0.62086469
-0.94269967 -2.4633067 -0.62109488
-0.94436431 -2.4230225 -0.61234653
-0.97967893 -2.4687381 -0.62546909
-0.98897511 -2.4482441 -0.62178558
-1.0032384 -2.4403298 -0.62132514
-1.0042951 -2.4009125 -0.61280698
-1.0235814 -2.4054496 -0.61556965
-0.85584104 -1.9776064 -0.50690597
-0.857373 -1.9482701 -0.50069004
-0.86692601 -1.9376433 -0.49930874
-0.86751533 -1.9074856 -0.49286258
-0.88206196 -1.9083098 -0.49447414
-0.89996183 -1.9160731 -0.49792743
-0.91170168 -1.9105151 -0.49792743
-0.92340726 -1.9048849 -0.49792743
-0.9423874 -1.9140241 -0.50184113
-0.95063144 -1.9012431 -0.4999994
-0.97109228 -1.9127274 -0.5046038
-0.98994565 -1.9205718 -0.50828731
-1.0220182 -1.9532598 -0.51864719
-1.02394 -1.9280453 -0.51358235
-1.0773135 -1.9988186 -0.53430212
-1.0904919 -1.9938782 -0.53476256
-1.1126236 -2.0050175 -0.53959715
-1.1583298 -2.0575082 -0.55571252
-1.1767249 -2.0605021 -0.5584752
-1.2498411 -2.1576526 -0.58702242
-1.3665913 -2.326134 -0.63536853
-1.3878127 -2.3294086 -0.63859159
-1.4020796 -2.3208492 -0.63859159
-1.4188355 -2.3163514 -0.63974267
-1.4386699 -2.3166952 -0.64227509
-1.4487095 -2.3012362 -0.64043337
-1.4706559 -2.3046081 -0.64388663
-1.4805402 -2.2890046 -0.6420449
-1.4940239 -2.2790632 -0.64181465
-1.516597 -2.2828212 -0.64549816
-1.5381852 -2.2847733 -0.64872122
-1.5450451 -2.2648423 -0.64572841
-1.5672139 -2.2673264 -0.64918166
-1.5816548 -2.2584646 -0.64941192
-1.5802766 -2.2272897 -0.64319599
-1.5888009 -2.2104402 -0.64112401
-1.6103544 -2.2116628 -0.64434707
-1.630827 -2.2111375 -0.64710969
-1.6408684 -2.1964118 -0.64572841
-1.6543145 -2.1863024 -0.64572841
-1.65941 -2.1652977 -0.64250535
-1.6863899 -2.172755 -0.64780039
-1.7081105 -2.1730769 -0.65102345
-1.7238365 -2.1656005 -0.65194434
-1.7383136 -2.1564977 -0.65240479
-1.7508974 -2.1450372 -0.65217453
-1.7689866 -2.1402538 -0.65401632
-1.7839594 -2.1315978 -0.65470695
-1.7932298 -2.1161573 -0.65332562
-1.8055469 -2.1043761 -0.65309542
-1.8114042 -2.0851772 -0.650563
-1.8293066 -2.0798686 -0.65240479
-1.8459172 -2.0729651 -0.65378606
-1.8533887 -2.0558181 -0.65194434
-1.8692485 -2.0480008 -0.65309542
-1.8797982 -2.0343487 -0.65240479
-1.904213 -2.035567 -0.65654874
-1.9106441 -2.0174861 -0.65447676
-1.9196196 -2.0022128 -0.65332562
-1.9447477 -2.0036631 -0.65769982
-1.9617801 -1.996551 -0.65931135
-1.9829164 -1.9934444 -0.66230422
-1.9930389 -1.9791831 -0.66161352
-1.9988923 -1.9607842 -0.65954155
-2.0129828 -1.9505136 -0.66023225
-2.0192883 -1.932743 -0.65839046
-2.0346456 -1.9236588 -0.65954155
-2.0613475 -1.9250852 -0.6643762
-2.0716901 -1.9110813 -0.66391575
-2.0848157 -1.8996443 -0.6643762
-2.0899222 -1.880958 -0.66230422
-2.0890591 -1.857109 -0.65839046
-2.1040711 -1.8474659 -0.65954155
-2.1161027 -1.8351582 -0.6597718
-2.125845 -1.8208735 -0.65931135
-2.1518378 -1.8203639 -0.66391575
-2.1779039 -1.8196037 -0.66852015
-2.1920304 -1.808683 -0.66944098
-2.2076137 -1.7988869 -0.67082232
-2.2133026 -1.7810373 -0.66921079
-2.2165697 -1.7613698 -0.66690862
-2.2334607 -1.7525412 -0.66875035
-2.2457106 -1.739996 -0.66921079
-2.2633014 -1.7315047 -0.67128277
-2.2645643 -1.7105471 -0.66852015
-2.2695563 -1.692548 -0.66690862
-2.284601 -1.6820518 -0.6682899
-2.2807088 -1.6577047 -0.66414595
-2.3129776 -1.6595618 -0.67059213
-2.3064392 -1.6335287 -0.66575748
-2.3148234 -1.6182308 -0.66529703
-2.3375256 -1.6128381 -0.6689806
-2.3699014 -1.6137995 -0.67542672
-2.3636036 -1.5883734 -0.67082232
-2.3862824 -1.5824445 -0.67450583
-2.3845463 -1.5603143 -0.67128277
-2.403069 -1.551459 -0.67381519
-2.428139 -1.5466164 -0.67818934
-2.4227507 -1.5223705 -0.67404538
-2.4386637 -1.5115769 -0.67588717
-2.4744625 -1.5128258 -0.68325418
-2.4711974 -1.4900781 -0.67980087
-2.503715 -1.4888115 -0.68624705
-2.4859388 -1.4576719 -0.67888004
-2.4796708 -1.4336251 -0.67473608
-2.5137854 -1.4328376 -0.68164265
-2.5182877 -1.4150033 -0.68049157
-2.5235171 -1.397639 -0.67957067
-2.5337539 -1.3830612 -0.68003112
-2.5421925 -1.3674883 -0.68003112
-2.5866499 -1.3710015 -0.68970031
-2.5622327 -1.3379902 -0.68095201
-2.6266451 -1.3511729 -0.69591624
-2.6175241 -1.3262358 -0.6913119
-2.6047134 -1.299724 -0.6857866
-2.6222472 -1.288437 -0.68831903
-2.636236 -1.2752888 -0.68993056
-2.6422541 -1.2582525 -0.68947011
-2.6657863 -1.2494488 -0.69361407
-2.6804724 -1.2363282 -0.69545585
-2.6693976 -1.2114145 -0.6906212
-2.680335 -1.196599 -0.69154209
-2.6929734 -1.1824772 -0.69292343
-2.6966043 -1.1643884 -0.69200253
-2.7207181 -1.1550443 -0.69637668
-2.7214673 -1.1357056 -0.69476515
-2.7418904 -1.1245234 -0.69821846
-2.7397125 -1.1040418 -0.69591624
-2.7826293 -1.1015346 -0.70512503
-2.7811728 -1.081267 -0.70305306
-2.8059382 -1.0711212 -0.70765746
-2.7896755 -1.0453495 -0.70190197
-2.8243515 -1.038622 -0.70903879
-2.8251789 -1.0192916 -0.70765746
-2.8423891 -1.0058321 -0.71042007
-2.8531041 -0.98996711 -0.71157122
-2.846226 -0.96805638 -0.7083481
-2.862268 -0.9539578 -0.71088052
-2.8791687 -0.94000059 -0.71364319
-2.8969326 -0.92616808 -0.716636
-2.8858435 -0.90314513 -0.71249205
-2.9108715 -0.89140308 -0.7173267
-2.9666274 -0.88859957 -0.72975856
-2.9299965 -0.85807592 -0.71939868
-2.9464338 -0.84329391 -0.72216129
-2.9478037 -0.82415128 -0.7212404
-2.9809694 -0.81373394 -0.72814703
-2.9859064 -0.79542768 -0.72814703
-3.0199292 -0.78467554 -0.73528379
-3.0435543 -0.77090812 -0.73988819
-3.054841 -0.75385022 -0.74149972
-3.0773876 -0.73940998 -0.74587393
-3.0837617 -0.72095644 -0.74633437
-3.0900252 -0.70245254 -0.74679476
-3.0781231 -0.67991251 -0.74288106
-3.1250553 -0.67019171 -0.75324094
-3.089093 -0.64268243 -0.7435717
-3.1015639 -0.62544656 -0.74564368
-3.0738244 -0.60025179 -0.73804647
-3.0793622 -0.58174098 -0.73850691
-3.101063 -0.5661546 -0.74288106
-3.115979 -0.549142 -0.74564368
-3.1183305 -0.52984947 -0.74541348
-3.1512947 -0.5155741 -0.7525503
-3.1524763 -0.49592608 -0.75208986
-3.1737423 -0.47933322 -0.756464
-3.1583245 -0.457203 -0.75208986
-3.1591425 -0.43754849 -0.75162941
-3.1714151 -0.41943121 -0.75393158
-3.1662052 -0.39899114 -0.75208986
-3.1656947 -0.37920916 -0.75139916
-3.1689291 -0.35988745 -0.75162941
-3.1768832 -0.34105927 -0.75301069
-3.2244217 -0.32615906 -0.76383102
-3.2108617 -0.30489764 -0.76014751
-3.2436907 -0.28794137 -0.76751453
-3.2453964 -0.26803303 -0.76751453
-3.2605643 -0.24915153 -0.77073765
-3.2523243 -0.2284593 -0.76843542
-3.3080492 -0.21197966 -0.78132772
-3.2879145 -0.19044161 -0.77626288
-3.2520909 -0.168355 -0.76751453
-3.2384808 -0.14773338 -0.76406127
-3.2684979 -0.12900868 -0.77096784
-3.2361596 -0.10785178 -0.76314038
-3.3136103 -0.090075903 -0.78132772
-3.291723 -0.069273174 -0.77603269
-3.3096008 -0.049333896 -0.78017664
-3.3147068 -0.029067913 -0.78132772
-3.3002257 -0.0086914469 -0.77787441
-3.3157868 0.011614314 -0.78155792
-3.3205187 0.032006674 -0.78270906
-3.326098 0.05247296 -0.78409034
-3.3519819 0.073458292 -0.79030627
-3.3504953 0.093996912 -0.79007608
-3.3848677 0.1157535 -0.79836398
-3.3325596 0.13443741 -0.78616232
-3.3579183 0.15610534 -0.79237825
-3.3238564 0.17496429 -0.78455079
-3.3489497 0.19690005 -0.79076672
-3.3253434 0.21599257 -0.78547168
-3.3307502 0.23687622 -0.78708321
-3.3515496 0.25903535 -0.79237825
-3.3818994 0.28226879 -0.79997551
-3.3742881 0.30249262 -0.79859418
-3.3830242 0.32421321 -0.8011266
-3.3906522 0.34595346 -0.80342883
-3.3739536 0.36517975 -0.79997551
-3.4151559 0.39085776 -0.8103354
-3.3421667 0.40328944 -0.79352939
-3.3782446 0.42869231 -0.80273813
-3.3736215 0.44915575 -0.80227768
-3.3630915 0.46877208 -0.80043596
-3.387115 0.49332809 -0.80688208
-3.4196215 0.51951253 -0.81540024
-3.4327092 0.54307151 -0.81931394
-3.4216306 0.56285971 -0.81747222
-3.4430528 0.5881058 -0.8234579
-3.4393795 0.60922092 -0.8234579
-3.4097335 0.6255697 -0.81724197
-3.4622378 0.65719116 -0.83082491
-3.4390419 0.67467439 -0.82622057
-3.468219 0.70252764 -0.83427823
-3.467653 0.72459149 -0.83519912
-3.4736061 0.74810952 -0.83773154
-3.4585001 0.76709038 -0.83519912
-3.4157794 0.77963221 -0.82599032
-3.4696686 0.81436729 -0.84026396
-3.3908188 0.81783849 -0.82230681
-3.392349 0.84026706 -0.82391834
-3.4173093 0.86874104 -0.83128536
-3.3808405 0.88158756 -0.82368815
-3.4242532 0.91538769 -0.83565956
-3.3922927 0.92918098 -0.82921338
-3.4174469 0.95865417 -0.83681065
-3.3441572 0.96026224 -0.82023484
-3.3960888 0.99777538 -0.83450842
-3.3889709 1.0183146 -0.83427823
-3.4105651 1.0476644 -0.84118479
-3.4077866 1.0697377 -0.84210569
-3.4187648 1.0962744 -0.84647989
-3.4212215 1.1202599 -0.84878206
-8.7700052 2.9318337 -2.1847463
-8.7113256 2.9717643 -2.1746166
-3.4312699 1.1939191 -0.85660952
-3.4238799 1.2149503 -0.85660952
-3.3779275 1.222029 -0.84694028
-3.3721917 1.2434059 -0.84740072
-3.4082239 1.2805057 -0.85845131
-6.2094727 2.376781 -1.57006
-6.0506115 2.3586338 -1.5334551
-3.3379478 1.324712 -0.84671009
-5.8588042 2.3670824 -1.4920156
-3.3322403 1.3700154 -0.8494727
-5.7224865 2.3941014 -1.4646194
-3.3590517 1.429479 -0.86075348
-3.3698645 1.4585683 -0.86581832
-5.6516204 2.4876575 -1.4579431
-3.3623707 1.5045825 -0.86858094
-3.4230518 1.557021 -0.88676828
-3.377219 1.5612502 -0.87732929
-3.3446758 1.5711837 -0.87134355
-3.2989657 1.5744886 -0.86190456
-5.3758488 2.6065247 -1.4105178
-5.3091202 2.6145232 -1.3971651
-3.3094616 1.6549696 -0.8724947
-3.2957737 1.6734823 -0.87157381
-3.3139863 1.70839 -0.87917107
-3.3172364 1.7359122 -0.88285458
-3.3984742 1.831906 -0.91048092
-3.926729 2.1479023 -1.0559797
-3.3893518 1.881029 -0.91416442
-3.6923306 2.0789411 -0.99957591
-3.4826221 1.989091 -0.94593471
-3.5882335 2.0787237 -0.97816545
-3.6668627 2.1544409 -1.0032594
-3.6452148 2.1719182 -1.0009573
-3.5818458 2.1640472 -0.98714405
-3.6282449 2.2225876 -1.0037198
-3.3739831 2.0953903 -0.93672591
-3.3487103 2.1082754 -0.93327266
-3.3365316 2.1293066 -0.93350285
-3.518681 2.2760725 -0.98852533
-3.332123 2.1844976 -0.93971878
-3.3129828 2.2011321 -0.93810725
-3.2760062 2.2056558 -0.93143088
-3.2543724 2.2202308 -0.92912871
-3.2767088 2.2650607 -0.93948859
-3.2468078 2.2739575 -0.93488419
-3.232794 2.2938366 -0.93488419
-3.1475461 2.2625053 -0.91416442
-3.1194446 2.2714639 -0.91002047
-3.0756903 2.2686088 -0.90127212
-3.036767 2.2687984 -0.8939051
-2.9312253 2.2180912 -0.86673921
-2.9407303 2.2537956 -0.87364578
-2.9122407 2.2604592 -0.86927158
-2.903671 2.282496 -0.87088317
-2.8827596 2.2948143 -0.86881119
-2.8769579 2.3191783 -0.87134355
-2.861166 2.3355565 -0.87088317
-2.8190303 2.3301268 -0.86236501
-2.8121421 2.3536263 -0.86466724
-2.790966 2.3651741 -0.86259526
-2.7631085 2.3708472 -0.85845131
-2.7499783 2.3890333 -0.85891175
-2.7579181 2.4257874 -0.86604851
-2.749522 2.448489 -0.86812049
