# .PCD v0.7 - Point Cloud Data file format
VERSION 0.7
FIELDS x y z
SIZE 4 4 4
TYPE F F F
COUNT 1 1 1
WIDTH 1470
HEIGHT 1
VIEWPOINT 0 0 0 1 0 0 0
POINTS 1470
DATA ascii
-1.1958855 5.2228479 -0.17827468
-1.1416609 5.1305804 -0.17487507
-1.1076242 5.1257668 -0.1744751
-1.0927751 5.2116966 -0.17717481
-3.6878169 18.133505 -0.61669242
-3.5907793 18.228357 -0.61915886
-3.5002031 18.361965 -0.62295842
-3.4396424 18.66617 -0.63255733
-3.3413305 18.778433 -0.63565701
-3.2485325 18.929592 -0.64008981
-3.1310174 18.94128 -0.6398232
-3.0588477 19.237494 -0.64918882
-2.9659543 19.420895 -0.65475488
-2.8574533 19.511906 -0.65722126
-2.7600205 19.688421 -0.66258734
-2.6448693 19.747581 -0.66402048
-2.2926841 17.955145 -0.60322726
-2.4360883 20.056353 -0.67335278
-2.3106899 20.051065 -0.67268622
-2.1949837 20.132429 -0.67495263
-2.0694692 20.126629 -0.67431933
-1.9538203 20.22052 -0.67705238
-1.8434904 20.384422 -0.68215179
-1.7288721 20.519838 -0.68631804
-1.6257358 20.822008 -0.69608361
-1.5094895 20.992088 -0.70144963
-1.3874124 21.103676 -0.70488262
-1.2677695 21.277405 -0.7104153
-1.1391106 21.320711 -0.7116152
-1.8694574 39.531811 -1.3193808
-1.622133 39.4277 -1.3155478
-1.3736737 39.251125 -1.3093485
-1.1326632 39.253819 -1.3091819
-0.88590235 39.001244 -1.3005495
-0.64538473 38.933998 -1.2981498
-0.40598691 38.890251 -1.2965833
-0.16617455 38.619164 -1.2874843
0.070522644 38.471539 -1.2825515
0.30645904 38.455391 -1.2820516
0.54273492 38.475769 -1.2828182
0.77953517 38.507687 -1.284018
1.0186706 38.611084 -1.2876509
1.2605653 38.757938 -1.2927837
1.4982014 38.74548 -1.2926503
1.7455722 38.951221 -1.2998496
1.9889638 39.026619 -1.3027493
2.2363658 39.153374 -1.3074154
2.4992166 39.497002 -1.3193808
2.74318 39.504852 -1.3201807
2.9992361 39.668655 -1.3262466
3.2458398 39.689346 -1.3275799
3.4919348 39.698551 -1.3285797
3.9914052 39.778015 -1.3327793
4.1952991 37.207405 -1.2482554
4.6185527 36.889324 -1.2393897
4.5383911 34.528645 -1.1609651
4.7464895 34.473415 -1.1600652
4.9694571 34.523773 -1.1627649
5.1635327 34.375019 -1.1587987
5.2913871 33.812439 -1.1409006
5.6095448 34.459995 -1.1638981
5.6887584 33.643459 -1.1374677
6.3343992 33.678413 -1.1424005
6.6221848 34.05685 -1.1565989
6.8420477 34.07045 -1.1584654
7.5433969 34.281345 -1.170164
7.9639668 34.188145 -1.1702307
8.0342331 32.669891 -1.1215361
8.421175 33.359364 -1.1469666
8.7393751 32.912521 -1.1352013
8.975008 32.982685 -1.1395009
9.1138935 32.699783 -1.131635
9.2225027 32.321281 -1.1204696
9.1819973 31.446686 -1.0920727
9.3290186 31.236528 -1.08674
9.5826731 31.382301 -1.0938392
9.8083954 31.42977 -1.0975721
10.04447 31.505163 -1.1023383
10.279363 31.571236 -1.1068377
10.476985 31.519897 -1.1072711
10.658311 31.419998 -1.1060379
10.836192 31.311506 -1.1045381
11.891964 33.692013 -1.191095
11.583071 32.186169 -1.140334
11.819922 32.222397 -1.1441669
12.484915 33.400009 -1.1886953
13.539299 35.554146 -1.2683197
13.739131 35.423809 -1.2666533
13.942279 35.303516 -1.2653867
1.0679127 2.65465 -0.095017299
1.0682851 2.6091969 -0.093617454
1.0796649 2.5915208 -0.0932175
1.0978847 2.5903692 -0.093417481
1.1157354 2.5881734 -0.093584128
1.1315951 2.5812786 -0.093584128
1.1518856 2.5843294 -0.093950756
1.1677212 2.5772128 -0.093950756
1.1784985 2.5591044 -0.093550801
1.1933318 2.5500145 -0.093484141
1.2055243 2.5354226 -0.0932175
1.2114999 2.5081766 -0.092484251
1.1960667 2.4378793 -0.090151176
1.2038748 2.4161799 -0.089617901
1.2037951 2.3793144 -0.088518023
1.2183717 2.3718834 -0.088518023
1.2324405 2.3634768 -0.088484697
1.2455173 2.3532197 -0.08838471
1.2637148 2.3525777 -0.088651344
1.28482 2.3570666 -0.089117959
1.3079616 2.3648834 -0.089717895
1.3165812 2.3463528 -0.08931794
18.392529 31.872353 -1.2267578
4.5742793 7.8146143 -0.30156094
4.6190825 7.7812428 -0.30136096
4.6615863 7.7441912 -0.30102766
4.6845474 7.6753445 -0.29946116
4.7215629 7.6303077 -0.29882792
4.7289953 7.5385385 -0.29636151
4.783741 7.5228748 -0.29689479
4.8606706 7.5412664 -0.29879457
16.439995 25.168772 -1.0021161
16.638803 25.13493 -1.0048158
16.959188 25.280533 -1.0147814
17.011732 25.025562 -1.0087154
17.113943 24.84663 -1.0057157
20.944309 30.012056 -1.2200584
17.619501 24.920374 -1.0173811
7.0679412 9.8669586 -0.40434948
17.419991 23.700338 -0.9804852
6.4396634 8.6489143 -0.35918784
19.420246 25.753502 -1.0752413
19.602772 25.666424 -1.0766078
22.344618 28.887344 -1.2174921
22.515898 28.742617 -1.2171922
21.03216 26.511761 -1.1281354
21.160639 26.340136 -1.1263356
21.371685 26.271049 -1.1289686
21.63415 26.262852 -1.1343014
21.783367 26.115797 -1.1337014
22.039284 26.095415 -1.1386676
9.3524885 10.936305 -0.47947443
20.708773 23.623758 -1.0472444
9.5959902 10.81164 -0.48167416
9.6674929 10.758504 -0.48194081
24.800007 27.26195 -1.2286242
19.32019 20.977877 -0.95065522
21.89736 23.485456 -1.0704085
19.606352 20.771191 -0.95212168
20.68421 21.645504 -0.9980166
20.843737 21.546196 -0.99931645
20.67975 21.115847 -0.98521799
19.397394 19.564783 -0.9183588
19.515661 19.443983 -0.91829216
20.866899 20.536726 -0.97595239
1.6063449 1.5608047 -0.074286282
1.577686 1.5142282 -0.072519809
1.5847721 1.5024556 -0.072419822
1.583751 1.4831361 -0.071953207
1.5876871 1.4686383 -0.0717199
1.59003 1.4527993 -0.071419932
1.5981724 1.4423459 -0.071386606
1.6107217 1.4358388 -0.071553253
1.6172518 1.4239466 -0.071453266
1.6342521 1.4212133 -0.071819887
1.6459736 1.4137647 -0.071953207
1.6675705 1.4146338 -0.072519809
1.693835 1.419143 -0.073286392
1.8102878 1.4979552 -0.077952541
1.8148026 1.4830235 -0.07775256
1.8285336 1.4756273 -0.077952541
1.7070538 1.3603232 -0.072386496
1.6855291 1.3263284 -0.071119964
1.6865343 1.3104402 -0.070820004
1.6786877 1.287895 -0.070153408
1.6801866 1.2727406 -0.069886774
1.6887646 1.2630061 -0.0699201
1.7005016 1.2555898 -0.070086747
1.7243232 1.2569114 -0.070753343
1.7425468 1.2538995 -0.071186624
1.747764 1.2414469 -0.071086638
1.7970753 1.2599734 -0.07278645
1.7998425 1.2455093 -0.072586469
1.8297302 1.2496681 -0.073486373
1.8431637 1.2423294 -0.07371968
1.8449277 1.2271204 -0.073486373
1.8549286 1.217423 -0.07358636
1.8036513 1.1679734 -0.071253285
26.95826 17.233955 -1.0666089
27.077024 17.076748 -1.0671422
27.215239 16.931404 -1.0684754
27.334801 16.774029 -1.0691086
28.074203 16.991537 -1.0939392
28.253454 16.864038 -1.0968722
28.442528 16.741058 -1.1002052
28.576698 16.584785 -1.1014384
28.703945 16.424021 -1.1024382
28.810274 16.251026 -1.1026716
28.920803 16.080257 -1.1031048
29.036453 15.912107 -1.1037714
29.610168 15.991058 -1.1218361
29.111307 15.491669 -1.0993053
10.003371 5.2443352 -0.37625259
9.7858391 5.0539708 -0.36688697
9.7970686 4.98386 -0.36615372
9.8337193 4.9267869 -0.36638704
4.6707573 2.3039689 -0.17327523
4.6605339 2.2634742 -0.17237534
4.6346631 2.2158616 -0.17090884
4.6653528 2.1954701 -0.17154209
4.6587853 2.1575599 -0.17080885
4.6628423 2.124788 -0.17047556
4.6803517 2.0981822 -0.1706422
4.702282 2.0734582 -0.17097549
4.7039132 2.0397937 -0.17057554
4.7356462 2.0191269 -0.17127547
4.7700672 1.9993063 -0.17207538
4.8229036 1.9867551 -0.17354187
10.535936 4.2655888 -0.37865233
10.662207 4.2407594 -0.38225192
10.730849 4.1919885 -0.3837851
10.757301 4.1264243 -0.38381842
10.743135 4.0455461 -0.38241857
10.782756 3.9850953 -0.38295186
10.877471 3.944416 -0.38545159
10.920301 3.8842986 -0.38611817
10.921282 3.8093188 -0.38531825
11.009701 3.7645509 -0.38761801
10.970049 3.6759639 -0.38541824
11.134832 3.6553512 -0.3904177
11.287402 3.6288755 -0.39498383
11.54016 3.6321752 -0.40304962
11.646282 3.5871918 -0.40598261
11.710178 3.5283532 -0.40744913
11.771873 3.4682996 -0.40884897
11.840952 3.4098344 -0.41051546
11.890514 3.3452375 -0.41151533
11.933946 3.2785714 -0.41231525
12.034925 3.2270315 -0.41511494
12.087375 3.1617267 -0.41624814
12.179179 3.1060276 -0.41874787
12.300821 3.0567942 -0.42228079
12.359173 2.9909003 -0.42364731
12.35589 2.9099681 -0.42291406
12.398842 2.8399019 -0.42378062
12.416034 2.7637706 -0.42378062
12.459134 2.693238 -0.42468053
12.539004 2.6300788 -0.42684695
12.517689 2.5455215 -0.42558044
12.59387 2.4806447 -0.42764688
12.576455 2.3971465 -0.42654699
12.59879 2.321383 -0.42681363
12.616733 2.244735 -0.42694694
12.642089 2.169307 -0.42734689
12.729115 2.1039231 -0.42984661
12.785216 2.032686 -0.43131313
12.816219 1.9570665 -0.4319464
12.759753 1.8683962 -0.42964664
12.709611 1.7814639 -0.42758021
12.685632 1.6988009 -0.42641369
12.702758 1.6218177 -0.42664698
12.680719 1.5399873 -0.42558044
12.623408 1.4544827 -0.42334735
12.631102 1.3768911 -0.42331401
12.659197 1.3014075 -0.42398059
12.549556 1.2123611 -0.4200477
12.629422 1.1419094 -0.42248076
12.696941 1.0695156 -0.42451388
12.688318 0.99042106 -0.42401394
12.673222 0.91104233 -0.42331401
12.600785 0.82814735 -0.42071432
12.431037 0.74040675 -0.41488162
12.368478 0.66054285 -0.41264853
12.325377 0.58241916 -0.41108206
12.258818 0.50390404 -0.40874898
12.269668 0.42895564 -0.40901563
12.30304 0.35455641 -0.41004884
12.327965 0.27958211 -0.41081542
12.329449 0.20393389 -0.41081542
12.285495 0.12780775 -0.40931559
12.251067 0.05227185 -0.40814903
10.461873 -0.0062164795 -0.52387428
10.420691 -0.070132717 -0.52182144
10.426056 -0.13414878 -0.52212185
10.44301 -0.19846129 -0.52302313
10.246902 -0.25763515 -0.51325947
9.8338461 -0.30762845 -0.4926306
9.8178015 -0.36743876 -0.49192962
9.7904167 -0.42658523 -0.49067789
9.7187862 -0.48322624 -0.48722306
9.7066641 -0.5423488 -0.48677242
9.7031527 -0.6018976 -0.48677242
9.7062531 -0.66189951 -0.48712292
9.6761131 -0.71951723 -0.4858211
9.6874437 -0.7801584 -0.48662221
9.7163048 -0.84251899 -0.48832458
9.7189083 -0.90286052 -0.48872516
9.6783991 -0.95902985 -0.48697269
9.6276369 -1.0136902 -0.48471954
9.5716066 -1.0672104 -0.48221606
9.4964371 -1.1178626 -0.47876123
9.4329023 -1.1691071 -0.47590724
9.3760328 -1.2205169 -0.47340372
9.4415951 -1.2880157 -0.4771089
9.4898729 -1.3539662 -0.47996292
9.4991665 -1.4148183 -0.48086417
9.5031376 -1.4750693 -0.48151508
9.5254593 -1.5384482 -0.48311731
9.4626513 -1.5879395 -0.48041353
9.4350185 -1.6428869 -0.47951227
9.4630928 -1.7076662 -0.48146501
9.4691257 -1.7688166 -0.4823162
3.8087678 -0.73554444 -0.1938629
9.3517017 -1.8659257 -0.4774594
9.393878 -1.9343514 -0.48021325
9.2831593 -1.971002 -0.47515619
9.2796717 -2.0298462 -0.4756068
9.2563248 -2.0843334 -0.47505605
9.2307119 -2.1381595 -0.47440514
9.1921577 -2.1887424 -0.47310331
9.1940775 -2.2489004 -0.47390443
9.2178831 -2.3147597 -0.47585717
9.2257509 -2.3770077 -0.47700876
9.2399607 -2.4412253 -0.47851086
9.1515417 -2.4780343 -0.47470555
9.0572472 -2.5122485 -0.4705998
9.0301332 -2.564501 -0.46999896
9.0276546 -2.6237633 -0.47069994
9.0544653 -2.6919153 -0.47295311
9.0922441 -2.7639811 -0.4758071
9.1123104 -2.8312762 -0.47775981
9.0395555 -2.8696065 -0.47485575
9.0502787 -2.9342599 -0.47635785
9.0434818 -2.9935024 -0.47695869
9.1063175 -3.0764287 -0.48126471
9.1004877 -3.1368029 -0.48196569
9.1027403 -3.2002025 -0.48311731
9.1515646 -3.2806003 -0.48677242
9.196928 -3.360688 -0.49027732
9.212636 -3.4306498 -0.49223006
9.2707844 -3.5172281 -0.49648601
9.308651 -3.5970871 -0.49969047
9.3152151 -3.6654737 -0.50124264
9.5141287 -3.811332 -0.5132094
9.8725128 -4.025382 -0.53388828
9.8992872 -4.1073184 -0.5366922
9.9125443 -4.1842957 -0.53879517
9.9738665 -4.282475 -0.5435518
9.9776058 -4.3567824 -0.5452041
9.9945002 -4.4373765 -0.54760748
10.103632 -4.5602512 -0.55511796
10.606506 -4.8657932 -0.58440894
10.654298 -4.9670763 -0.58871496
10.688606 -5.0631418 -0.59231997
11.160411 -5.3707366 -0.62030911
11.438601 -5.5913153 -0.63768339
11.356667 -5.6378574 -0.63502973
13.519321 -6.8152423 -0.75840217
13.474582 -6.8967013 -0.75825197
13.435556 -6.981092 -0.75845224
13.365083 -7.0489559 -0.75690007
13.338309 -7.1397853 -0.75785142
13.290739 -7.2195864 -0.75765115
13.219076 -7.2860551 -0.75609899
13.170633 -7.3650789 -0.75589871
13.161679 -7.4664521 -0.75800163
13.171885 -7.5794482 -0.76125616
13.171711 -7.6873131 -0.76395994
13.185316 -7.8041077 -0.76751494
13.16373 -7.9007983 -0.76906711
13.227621 -8.0499592 -0.77567637
4.4318461 -2.7343216 -0.260456
4.5064321 -2.8186669 -0.26586357
4.4367576 -2.8131042 -0.26275921
13.290734 -8.5422602 -0.79144841
13.245602 -8.6285553 -0.79189903
13.200743 -8.7151699 -0.7923997
13.145358 -8.7948933 -0.79229957
13.03824 -8.8395166 -0.7890951
12.633894 -8.6790009 -0.76781535
12.401704 -8.6319733 -0.75690007
12.326468 -8.6923656 -0.75554818
12.107931 -8.6499767 -0.74538398
11.819995 -8.5542936 -0.73086369
11.719761 -8.5918179 -0.72790956
11.581827 -8.6004505 -0.72260213
11.505692 -8.6539421 -0.7211501
11.435692 -8.711668 -0.72009861
11.28318 -8.7054081 -0.71383989
11.197287 -8.7492647 -0.71178705
11.123029 -8.8016911 -0.71048522
11.004125 -8.8179369 -0.70632941
10.892423 -8.8387203 -0.7026242
10.829496 -8.8984137 -0.70207345
10.790048 -8.9774704 -0.70307481
10.745453 -9.0525179 -0.70377582
10.650953 -9.0852232 -0.70122224
10.473313 -9.0453005 -0.69316095
10.372506 -9.0699472 -0.69015676
10.301702 -9.1201801 -0.6891554
10.22993 -9.169219 -0.68810391
10.175695 -9.2338295 -0.68825412
10.118846 -9.296093 -0.68825412
10.046989 -9.3444023 -0.6872527
9.9640141 -9.3819103 -0.68550026
9.8628855 -9.4015236 -0.68249607
9.7856092 -9.4431391 -0.68114418
9.7174816 -9.4932327 -0.68044323
9.6370363 -9.5309076 -0.678891
9.5586119 -9.5700741 -0.67748904
9.4660425 -9.5944176 -0.67508572
9.3818998 -9.6265707 -0.67328316
9.2956419 -9.6558933 -0.67133045
9.2327785 -9.7091303 -0.67108011
9.1846552 -9.7779741 -0.67193133
9.130599 -9.8407354 -0.67238194
9.0450783 -9.8693314 -0.67052937
8.9763079 -9.91576 -0.66992849
8.9199562 -9.9758625 -0.67027897
8.8711395 -10.04463 -0.67123032
8.8264093 -10.118442 -0.67253214
8.7648087 -10.173166 -0.67258221
8.7009287 -10.225233 -0.67248207
8.6322403 -10.271546 -0.67203146
8.584362 -10.342765 -0.67323309
8.5340338 -10.411464 -0.67428458
8.478158 -10.473723 -0.67493552
8.40625 -10.516186 -0.67433465
8.3267145 -10.548753 -0.67313296
8.2385006 -10.569712 -0.67123032
8.1546078 -10.595528 -0.66967815
8.0731268 -10.623893 -0.66832626
8.0083866 -10.674027 -0.66837633
7.9492807 -10.731793 -0.66892707
7.8885875 -10.787623 -0.66937774
7.8117256 -10.821247 -0.66847646
7.7382255 -10.859215 -0.66787565
7.6559353 -10.884435 -0.66652375
7.5605273 -10.890184 -0.66402024
7.456871 -10.882816 -0.66076571
7.3703742 -10.899408 -0.65901321
7.2856183 -10.917843 -0.65741098
7.2168427 -10.959838 -0.65726078
7.1407523 -10.990513 -0.65645969
7.0613241 -11.015623 -0.65535814
6.9839921 -11.043549 -0.65445685
6.9012976 -11.062468 -0.65305489
6.8133998 -11.072281 -0.65115225
6.741188 -11.107049 -0.65075171
6.6729097 -11.148203 -0.65075171
6.5947337 -11.172595 -0.64980036
6.5155067 -11.194722 -0.64874887
6.4213433 -11.19031 -0.64619529
6.3358407 -11.199944 -0.64449292
6.2499762 -11.208079 -0.64274049
6.1830115 -11.249719 -0.64294076
6.1281376 -11.31379 -0.64444286
6.0538998 -11.342368 -0.64394218
5.9711747 -11.354549 -0.64254022
5.8853121 -11.359936 -0.64078778
5.8023334 -11.370034 -0.63933575
5.7234888 -11.387576 -0.63833433
5.6446481 -11.404578 -0.63733292
5.560564 -11.410268 -0.63573068
5.4770555 -11.416257 -0.63417852
5.3983746 -11.431586 -0.6331771
5.3150816 -11.436418 -0.63162494
5.2352557 -11.447925 -0.63047332
5.1575384 -11.463437 -0.62957209
5.0818491 -11.482995 -0.62892115
4.9913669 -11.468171 -0.62641764
4.9036169 -11.458181 -0.62421459
4.8215995 -11.460435 -0.62271249
4.7317257 -11.442734 -0.62015891
4.6535296 -11.452121 -0.61910743
4.5679922 -11.442429 -0.61705458
4.4739985 -11.409802 -0.61380005
4.4035463 -11.436108 -0.61374998
4.333293 -11.462913 -0.61374998
4.2538438 -11.464939 -0.61244816
4.1820493 -11.48707 -0.61224782
4.099731 -11.479595 -0.61049539
4.0173326 -11.4706 -0.60869288
3.9384425 -11.470474 -0.60739106
3.8577943 -11.464133 -0.60578883
3.7811248 -11.468617 -0.60478741
3.7155938 -11.506809 -0.60558856
3.644016 -11.526534 -0.60543835
3.5687943 -11.534365 -0.60468727
3.4918776 -11.535971 -0.60363579
3.4128082 -11.529407 -0.60218376
3.3397799 -11.542455 -0.60178322
3.268079 -11.559847 -0.60163301
3.1941638 -11.569092 -0.60108227
3.1197388 -11.575936 -0.60043132
3.0440803 -11.577475 -0.59953004
2.9655442 -11.566911 -0.59802794
2.8867688 -11.553883 -0.59642571
2.7990561 -11.502478 -0.59287077
2.7245128 -11.502913 -0.59201956
2.6476033 -11.492164 -0.5906176
2.5720196 -11.485777 -0.58946598
2.494704 -11.470112 -0.58786374
2.4218028 -11.473476 -0.58726293
2.3411446 -11.438219 -0.58470935
2.2660608 -11.427876 -0.58345759
2.1855457 -11.38762 -0.58070374
2.1101654 -11.371356 -0.57920164
2.0368285 -11.364427 -0.57820022
1.9551495 -11.30782 -0.57469535
1.8921292 -11.358027 -0.57664806
1.8072292 -11.274752 -0.57184136
1.6499085 -11.168624 -0.5653823
1.578131 -11.155792 -0.56423074
1.4968057 -11.070251 -0.55942398
1.4266803 -11.062387 -0.55857283
1.3524504 -11.019385 -0.55596918
1.273024 -10.926289 -0.55086201
1.1912882 -10.800867 -0.54415262
1.1030767 -10.597378 -0.53353781
1.0342376 -10.565181 -0.5315851
0.95936155 -10.461925 -0.52607739
0.8862173 -10.363128 -0.52082002
0.81700689 -10.297681 -0.51726508
0.75460756 -10.313457 -0.51781583
0.69004303 -10.298959 -0.51686448
0.62435102 -10.262126 -0.51481164
0.56159008 -10.269753 -0.51501191
0.49812996 -10.264027 -0.5145613
0.43611392 -10.289841 -0.51571286
0.37177563 -10.259386 -0.51406056
0.30845794 -10.249496 -0.51345974
0.2456819 -10.256187 -0.51371008
0.18247998 -10.242523 -0.51295906
0.11950155 -10.232464 -0.51240826
0.056967665 -10.278947 -0.5147115
-0.0060909083 -10.258129 -0.51366001
-0.069107667 -10.268885 -0.51421076
-0.13199921 -10.259279 -0.51376015
-0.19308455 -10.160417 -0.50885332
-0.25519794 -10.150054 -0.50840265
-0.31719145 -10.139313 -0.50795203
-0.37853947 -10.114222 -0.50680041
-0.44185352 -10.140643 -0.50825244
-0.50734198 -10.203577 -0.5115571
-0.5675993 -10.158391 -0.50945413
-0.63301224 -10.204557 -0.51195765
-0.68942875 -10.109807 -0.50740129
-0.76211679 -10.248809 -0.51461136
-0.8242662 -10.234981 -0.51416069
-0.88264984 -10.178985 -0.51160717
-0.95294487 -10.257907 -0.51586312
-1.0223697 -10.317462 -0.51916772
-1.0831468 -10.287157 -0.51796603
-1.1482397 -10.298183 -0.51886731
-1.2123408 -10.29888 -0.51926786
-1.2793196 -10.321973 -0.52082002
-1.3444353 -10.327794 -0.52152103
-1.4102105 -10.337162 -0.52242225
-1.4729061 -10.323372 -0.52217191
-1.5331311 -10.293394 -0.52112043
-1.5841576 -10.205828 -0.51716489
-1.6357601 -10.127884 -0.51371008
-1.6907644 -10.075302 -0.5115571
-1.7564945 -10.087368 -0.51270866
-1.8128573 -10.045933 -0.5111565
-1.8823507 -10.076835 -0.51330954
-1.9437668 -10.063134 -0.5132094
-2.01349 -10.091175 -0.51526225
-2.0657003 -10.031676 -0.51285887
-2.1299117 -10.031513 -0.51350981
-2.1905699 -10.014352 -0.51330954
-2.2515368 -9.9987745 -0.5132094
-2.3132963 -9.9867163 -0.51330954
-2.3749931 -9.9742775 -0.51340967
-2.4382854 -9.9682484 -0.51386029
-2.5028093 -9.9666615 -0.5145613
-2.5681529 -9.9675579 -0.51541245
-2.6427867 -10.002789 -0.51806617
-2.7252591 -10.064471 -0.52212185
-2.8027134 -10.104342 -0.52507597
-2.8731186 -10.116737 -0.52662814
-2.9435029 -10.127689 -0.52813023
-3.0081513 -10.118054 -0.5285809
-3.063206 -10.076472 -0.52737921
-3.1205306 -10.043181 -0.52662814
-3.1760514 -10.004807 -0.52562672
-3.2256742 -9.949028 -0.52372408
-3.2703381 -9.8797455 -0.52112043
-3.3257825 -9.8443537 -0.52031934
-3.3903551 -9.8360357 -0.52097023
-3.4380558 -9.7792444 -0.51906759
-3.4747391 -9.6930943 -0.51561272
-3.5170088 -9.6246872 -0.51310927
-3.5686789 -9.583272 -0.51205778
-3.6111162 -9.518239 -0.50975454
-3.6521699 -9.4511862 -0.50735122
-3.6991208 -9.4007177 -0.50584906
-3.7548757 -9.373208 -0.50559872
-3.783658 -9.279706 -0.50179344
-3.840909 -9.2572374 -0.50184351
-3.8937535 -9.2242947 -0.50134277
-3.9341228 -9.1626034 -0.49928993
-3.9818759 -9.1190701 -0.49823844
-4.0373497 -9.0935535 -0.49818838
-4.0897837 -9.061327 -0.49778783
-4.1403079 -9.0251684 -0.49718699
-4.1850567 -8.976964 -0.49593523
-4.2199636 -8.9086952 -0.49358195
-4.2676172 -8.8682346 -0.49278083
-4.3149333 -8.8275251 -0.49197969
-4.3534727 -8.7695742 -0.49022725
-4.4013553 -8.731102 -0.48957634
-4.4475641 -8.6897068 -0.48877522
-4.496655 -8.6542768 -0.48832458
-4.5375576 -8.6035557 -0.48702276
-4.5794215 -8.5552988 -0.48587117
-4.6237249 -8.5121202 -0.48501998
-4.6604395 -8.4555998 -0.48341772
-4.6980977 -8.4015646 -0.48196569
-4.7357616 -8.3482561 -0.48056373
-4.7764354 -8.3008623 -0.47951227
-4.8338237 -8.2826128 -0.48016319
-4.8815012 -8.2476397 -0.47986275
-4.9001489 -8.1644392 -0.47675842
-4.9626141 -8.1546946 -0.47796011
-4.989481 -8.0866928 -0.47575703
-5.0066967 -8.0042753 -0.47270274
-5.0562506 -7.9742475 -0.47275281
-5.0996842 -7.9346709 -0.47225213
-5.1379166 -7.887331 -0.47130078
-5.1851149 -7.8539896 -0.47120064
-5.2548685 -7.8543997 -0.47315338
-5.2951169 -7.8104353 -0.4724524
-5.3265409 -7.7539248 -0.47100037
-5.3586121 -7.6989636 -0.46964848
-5.4005713 -7.6585932 -0.46919784
-5.4352694 -7.6082458 -0.46814638
-5.4818501 -7.5747523 -0.46814638
-5.5359015 -7.551445 -0.4687973
-5.5743918 -7.5069113 -0.46814638
-5.6179466 -7.4693737 -0.46794611
-5.6697249 -7.4427066 -0.46844679
-5.7189455 -7.4125218 -0.46874723
-5.7643209 -7.3772917 -0.46874723
-5.8094783 -7.3417835 -0.46874723
-5.8544173 -7.3059988 -0.46874723
-5.8991356 -7.2699394 -0.46874723
-5.9398279 -7.2289762 -0.46844679
-5.9738512 -7.18011 -0.46764567
-6.0139346 -7.1387372 -0.46734527
-6.0718837 -7.1184187 -0.46844679
-6.0965152 -7.0591083 -0.46699476
-6.1252503 -7.0050278 -0.46589324
-6.1581864 -6.9560952 -0.46514219
-6.2094183 -6.9278464 -0.4657931
-6.2518101 -6.889616 -0.4657931
-6.2811279 -6.837152 -0.46484175
-6.3311243 -6.8072586 -0.4654426
-6.3857827 -6.7820988 -0.46639392
-6.410737 -6.7254386 -0.46519226
-6.4366255 -6.670166 -0.4640907
-6.4920878 -6.6455483 -0.46514219
-6.5306354 -6.6034584 -0.46499196
-6.5823369 -6.5745554 -0.4657931
-6.6218429 -6.5333419 -0.46574301
-6.6439242 -6.4751611 -0.46449128
-6.6770544 -6.4280396 -0.46404064
-6.7192655 -6.3897018 -0.46424091
-6.7714491 -6.3606606 -0.46514219
-6.8198676 -6.3278227 -0.4657931
-6.8578296 -6.285183 -0.46574301
-6.9007082 -6.2470074 -0.46604344
-6.9322085 -6.1985564 -0.4655928
-6.9349275 -6.1248317 -0.46323952
-6.9595828 -6.0710034 -0.46238834
-7.0019999 -6.0327492 -0.46273881
-7.02215 -5.9754333 -0.46163729
-7.0686221 -5.9405866 -0.4622882
-7.116468 -5.9066706 -0.46303925
-7.1618457 -5.870491 -0.46364009
-7.1992841 -5.827693 -0.46374023
-7.2388072 -5.7865272 -0.46399057
-7.3172941 -5.7760358 -0.46674442
-7.3644133 -5.7402382 -0.46749547
-7.3955388 -5.6918974 -0.46724513
-7.4207816 -5.6391611 -0.46664429
-7.4504499 -5.5899258 -0.46634385
-7.4773855 -5.5387554 -0.46589324
-7.4975252 -5.4827485 -0.46504202
-7.5399332 -5.4430718 -0.4655928
-7.5699358 -5.3943868 -0.46539253
-7.5963573 -5.3432403 -0.46499196
-7.6289997 -5.2965293 -0.46499196
-7.681129 -5.2631674 -0.46619365
-7.7041774 -5.209784 -0.46564287
-7.729353 -5.157979 -0.46524233
-7.7641926 -5.1126523 -0.4654426
-7.810492 -5.0747104 -0.46634385
-7.8515735 -5.0331578 -0.46694469
-7.8688021 -4.9763465 -0.46614358
-7.8822408 -4.917398 -0.46514219
-7.9335303 -4.8820262 -0.46639392
-7.9889503 -4.8488002 -0.46789601
-8.0082684 -4.7935348 -0.4672952
-8.0194683 -4.7336454 -0.46624371
-8.063036 -4.6928906 -0.4670949
-8.1046734 -4.650784 -0.46784595
-8.1539211 -4.6127691 -0.46904764
-8.2099848 -4.5782156 -0.47064987
-8.2501755 -4.5344887 -0.47135085
-8.2813559 -4.4856839 -0.47155115
-8.2946262 -4.4272618 -0.47075003
-8.3198671 -4.3753538 -0.47064987
-8.3403492 -4.3210058 -0.47029939
-8.3738222 -4.2733808 -0.47069994
-8.4391508 -4.2416534 -0.47290304
-8.4856052 -4.1999812 -0.47405463
-8.540844 -4.1622729 -0.47570696
-8.5860338 -4.1192932 -0.47680849
-8.6129541 -4.0673857 -0.47690862
-8.6359377 -4.0136194 -0.47680849
-8.6931 -3.975507 -0.47861102
-8.7792645 -3.9499562 -0.48201576
-8.8115559 -3.8996511 -0.4824664
-8.8371487 -3.846308 -0.48256654
-8.845892 -3.7857251 -0.48176542
-8.8606691 -3.7278907 -0.48131478
-8.9470596 -3.6997855 -0.48476961
-8.9955006 -3.6553445 -0.48617157
-9.0418777 -3.6097078 -0.4874734
-9.0378208 -3.5439515 -0.48607144
-9.0771046 -3.4952483 -0.48702276
-9.1086569 -3.4433711 -0.48757353
-9.1539593 -3.3964491 -0.48887536
-9.1868277 -3.3446589 -0.48952627
-9.2043552 -3.2872188 -0.48937607
-9.2582865 -3.2425642 -0.49117857
-9.307291 -3.1957493 -0.49273074
-9.3456564 -3.1449511 -0.49373215
-9.3790054 -3.0922384 -0.4944832
-9.4120598 -3.0392351 -0.49523425
-9.4229116 -2.979018 -0.49483368
-9.4572334 -2.9261625 -0.49568489
-9.512291 -2.8793628 -0.4976376
-9.5336103 -2.8220761 -0.4978379
-9.5526657 -2.764081 -0.49793804
-9.5809784 -2.7086754 -0.49853888
-9.6157103 -2.6548862 -0.4994902
-9.6665354 -2.6051908 -0.50129271
-9.6919975 -2.5483685 -0.50179344
-9.7277689 -2.4940598 -0.50284487
-9.7923059 -2.4466705 -0.50539845
-9.8294544 -2.3919709 -0.50655007
-9.8526926 -2.3336852 -0.50700068
-9.8872652 -2.2778945 -0.50805217
-9.8971577 -2.2163115 -0.5078519
-9.9427757 -2.1625459 -0.5095042
-9.9675846 -2.1039724 -0.51010501
-9.9940052 -2.0455766 -0.51080602
-10.023023 -1.987518 -0.51165724
-10.048761 -1.9286158 -0.51235819
-10.085938 -1.8716587 -0.51366001
-10.143436 -1.8180175 -0.51601332
-10.174084 -1.7591472 -0.51701468
-10.199464 -1.6991487 -0.51776576
-10.228436 -1.6395369 -0.51871711
-10.299502 -1.5861692 -0.52182144
-10.315958 -1.5239644 -0.52217191
-10.313248 -1.4589597 -0.5215711
-8.8126488 -1.1916034 -0.44521433
-8.799983 -1.134953 -0.44421291
-8.7740688 -1.0769217 -0.44256061
-8.7626543 -1.0209846 -0.44165936
-8.7449284 -0.96457148 -0.44045767
-8.7288284 -0.90862113 -0.43935612
-8.7143593 -0.85309929 -0.43835473
-8.7104788 -0.7987923 -0.43790409
-8.7002888 -0.74405468 -0.43715304
-8.7255983 -0.69231498 -0.43820453
-10.726831 -0.7848438 -0.5385949
-10.749383 -0.72021186 -0.53949612
-10.810423 -0.6576972 -0.54235011
-10.802288 -0.5906992 -0.5417493
-10.409673 -0.50519508 -0.52187151
-10.370667 -0.43953773 -0.51976854
-10.358197 -0.37535405 -0.51901752
-10.357311 -0.31170022 -0.51886731
-10.344051 -0.24778467 -0.51811624
-10.899593 -0.19417144 -0.54590511
-11.030408 -0.12880242 -0.55241418
-11.063949 -0.061300609 -0.55406648
-11.086089 0.0066011958 -0.55516803
-11.095827 0.074691474 -0.55566877
-11.13211 0.14324902 -0.55752134
-11.175957 0.21240662 -0.55977446
-11.203398 0.28170565 -0.56122655
-11.219426 0.35100564 -0.56212777
-11.272953 0.42193323 -0.56493169
-11.310062 0.49283478 -0.56693453
-11.359694 0.56485265 -0.56958818
-11.383937 0.63610452 -0.57099015
-11.434644 0.70934528 -0.573744
-11.440041 0.7801733 -0.57424474
-11.443007 0.85094607 -0.57464528
-11.463453 0.92322814 -0.57594711
-11.516277 0.99864101 -0.57890123
-11.549712 1.072981 -0.58090401
-11.564775 1.1459957 -0.58200556
-11.572426 1.2185034 -0.58275664
-11.568702 1.2899303 -0.58295691
-11.588343 1.3641602 -0.58435887
-11.622374 1.4405226 -0.58651185
-11.639066 1.5151616 -0.58781368
-11.682986 1.5938401 -0.59051746
-11.712537 1.6711392 -0.5925203
-11.724782 1.7463591 -0.59367186
-11.72569 1.8201069 -0.59427273
-11.730077 1.8945683 -0.59507382
-11.736945 1.969648 -0.59602517
-7.9286118 1.3805441 -0.4028551
-7.9052491 1.4265063 -0.40210405
-7.8560948 1.467465 -0.40005118
-7.8165436 1.5097691 -0.39849901
-7.7934208 1.5549657 -0.39779803
-7.7553649 1.5969138 -0.396346
-7.7278352 1.6407356 -0.39544472
-7.7673812 1.6990075 -0.3979983
-7.6613245 1.7251315 -0.39309144
-7.5241079 1.7428057 -0.38658234
-7.574482 1.8035161 -0.38973674
-7.5361094 1.8433133 -0.38833478
-7.5944014 1.907035 -0.39193982
-7.5593452 1.9476163 -0.39073816
-7.4922128 1.9794198 -0.38788417
-7.4606457 2.0201328 -0.38688275
-7.4991174 2.0800219 -0.38953647
-7.5092711 2.1325452 -0.39073816
-7.4528875 2.1660371 -0.38848501
-7.3705292 2.191232 -0.38487998
-7.3636341 2.2384491 -0.38523045
-7.4079404 2.3016677 -0.38828471
-7.3755913 2.3413365 -0.38733339
-7.3762875 2.3914773 -0.38813451
-7.344408 2.4310424 -0.38723326
-7.2915053 2.4632738 -0.38523045
-7.2658668 2.5043869 -0.38467968
-7.255075 2.5505786 -0.38493004
-7.2402282 2.5953841 -0.38498011
-7.2194767 2.6380463 -0.38472974
-7.1956663 2.6795061 -0.3843292
-7.1790895 2.7236075 -0.3843292
-7.1771488 2.7733665 -0.38513032
-7.1841602 2.8268611 -0.38643214
-7.1453557 2.8623464 -0.38528052
-7.1276584 2.9061358 -0.38528052
-7.0857077 2.9398634 -0.38397869
-7.0730567 2.9856157 -0.38427913
-7.061028 3.0317173 -0.38462961
-7.0377164 3.0729876 -0.38437927
-7.0096006 3.1120594 -0.38387856
-6.9858217 3.1529565 -0.38362822
-6.4480066 2.9579587 -0.35503823
-6.378139 2.9734118 -0.35218424
-6.6350651 3.1429017 -0.3674556
-6.9180398 3.329078 -0.38427913
-6.8920984 3.3688316 -0.38397869
-6.6798606 3.3160164 -0.37326372
-3.4416761 1.7347946 -0.19261114
-3.2398207 1.6580415 -0.1818461
-3.1063986 1.613879 -0.17488636
-3.0487339 1.6077486 -0.17218259
-2.9736528 1.5915451 -0.1684774
-2.9260938 1.5892613 -0.16632439
-2.8865483 1.5907935 -0.16462201
-2.8392498 1.5875137 -0.162469
-2.8033948 1.5901207 -0.1609669
-2.7650187 1.5908535 -0.15931459
-2.7474422 1.6032585 -0.15886396
-2.7323961 1.617034 -0.15856354
-2.7035835 1.6224616 -0.157462
-2.6756608 1.628116 -0.15641053
-2.6741202 1.6497474 -0.15691124
-2.6766481 1.6740694 -0.15766229
-2.6688564 1.692066 -0.15781249
-2.6559031 1.7067899 -0.15766229
-2.6411965 1.7203282 -0.15741193
-2.6139214 1.7254963 -0.15641053
-2.6016245 1.7403919 -0.15631039
-2.6024702 1.7641689 -0.15701137
-2.5899498 1.7789731 -0.15691124
-2.6158731 1.8205068 -0.15916438
-2.6013887 1.834221 -0.1589641
-2.56408 1.8315696 -0.15736187
-2.549557 1.8449256 -0.15716158
-2.5349669 1.8581727 -0.15696131
-2.5275269 1.8766692 -0.15721165
-2.5231478 1.8975456 -0.15766229
-2.5090737 1.911176 -0.15751207
-2.493346 1.9234847 -0.15726173
-2.477562 1.9356729 -0.15701137
-2.4656382 1.9508383 -0.15701137
-2.4536216 1.9659306 -0.15701137
-2.4446146 1.9834659 -0.15721165
-2.4370284 2.002233 -0.15751207
-2.4262326 2.0184262 -0.15761222
-2.4122744 2.0319884 -0.15751207
-2.3982413 2.0454552 -0.15741193
-2.4121003 2.0829806 -0.15916438
-2.4150627 2.1115482 -0.16021585
-2.3968265 2.1216924 -0.15986536
-2.3770695 2.1303596 -0.15941474
-2.3713491 2.1516168 -0.15991543
-2.3514831 2.1600454 -0.15946481
-2.3337972 2.170352 -0.15916438
-2.3233447 2.1873696 -0.15936466
-2.3171086 2.2084754 -0.15986536
-2.3387291 2.2566352 -0.1623188
-2.311265 2.2576818 -0.16136746
-2.2966585 2.2711186 -0.16131739
-2.2685642 2.2710347 -0.16031599
-2.246871 2.277091 -0.15976523
-2.2370389 2.2951262 -0.16006564
-2.2430015 2.3296754 -0.16151768
-2.2231588 2.3376043 -0.16111711
-2.2272356 2.3708568 -0.162469
-2.216722 2.3888712 -0.16276942
-2.2020223 2.4024277 -0.16276942
-2.2080181 2.4388473 -0.16432159
-2.1916804 2.4508603 -0.16422145
-2.1832123 2.4717481 -0.16472216
-2.1804788 2.4993978 -0.16567348
-2.1950884 2.5475364 -0.16797671
-2.3237486 2.7305815 -0.17914231
-2.3050227 2.7424946 -0.17899211
-2.2881517 2.7565863 -0.17899211
-2.2363729 2.7280905 -0.17623825
-2.1699502 2.6804335 -0.17228273
-2.1278951 2.6617117 -0.17022985
-2.1090479 2.6715822 -0.17002958
-2.0932298 2.6852605 -0.17007965
-2.0846324 2.7083433 -0.17073055
-2.0963755 2.7584581 -0.17308384
-2.0866029 2.7808564 -0.17368469
-2.0861454 2.8160789 -0.17508665
-2.0759013 2.8385007 -0.17568748
-2.0578609 2.8503749 -0.17563741
-2.0455489 2.8702686 -0.17608805
-2.0313463 2.8876672 -0.17638846
-2.0227025 2.9132037 -0.17718959
-2.0126927 2.9370947 -0.17789057
-2.0035841 2.9626267 -0.17869169
-1.994238 2.9881568 -0.1794928
-1.9852027 3.0145175 -0.180344
-1.9688451 3.0299919 -0.18054427
-1.9583009 3.0546279 -0.18129532
-1.9443257 3.0741835 -0.18174596
-1.9312409 3.095377 -0.18229672
-1.9200628 3.1199276 -0.18304777
-1.9081377 3.1436033 -0.18374875
-1.8929164 3.1621082 -0.18414931
-1.8841392 3.1917255 -0.18520078
-1.8750696 3.2213533 -0.18625225
-1.8731629 3.2639835 -0.18805477
-1.8604764 3.288455 -0.18880582
-1.8480463 3.3137658 -0.18960695
-1.8392236 3.3460491 -0.19080862
-1.8305495 3.3792264 -0.19206038
-1.814483 3.3992059 -0.19256108
-1.7963809 3.4155793 -0.1928615
-1.7763083 3.4283111 -0.19296163
-1.768858 3.4658339 -0.19446373
-1.7596682 3.5007167 -0.19581562
-1.7505594 3.5365109 -0.19721758
-1.7402022 3.570529 -0.19851941
-1.729925 3.6054525 -0.1998713
-1.7116081 3.6241274 -0.20032193
-1.696915 3.6508644 -0.20122318
-1.6898495 3.6948142 -0.20307578
-1.6823081 3.7388134 -0.20492837
-1.6726732 3.7792048 -0.20658068
-1.6594169 3.8122914 -0.20783243
-1.6450313 3.8435204 -0.20898403
-1.6283882 3.8701124 -0.2098853
-1.6042295 3.8791082 -0.20983523
-1.5894204 3.9110851 -0.21103691
-1.5805742 3.9587946 -0.21308978
-1.5708369 4.0056109 -0.21509258
-1.5541245 4.0356789 -0.21619412
-1.5459305 4.0890479 -0.2185474
-1.5277596 4.1171842 -0.21954881
-1.5089597 4.1443119 -0.22050014
-1.4895482 4.170423 -0.22140139
-1.4817568 4.2303858 -0.22410518
-1.4606366 4.2535672 -0.22485623
-1.4539393 4.3201914 -0.2279105
-1.4464787 4.3868918 -0.23096476
-1.4259784 4.4156437 -0.23201624
-1.4054805 4.4452605 -0.23311777
-1.3882151 4.4862409 -0.23482016
-1.3739711 4.5386467 -0.23712339
-1.3622539 4.6015792 -0.23997737
-1.3381571 4.6242423 -0.24072842
-1.321169 4.6727314 -0.24283136
-1.3046988 4.7250357 -0.24513458
-1.2865967 4.7734547 -0.24723752
-1.2722661 4.8382483 -0.25019166
-1.2445394 4.8537035 -0.2505922
-1.2251437 4.902914 -0.25274521
-1.2073156 4.9608016 -0.25534886
-1.1858305 5.0060186 -0.2573016
-1.1645083 5.0540776 -0.25940454
-1.1452594 5.1137567 -0.26210833
-1.1333866 5.2104735 -0.26671475
-1.1125319 5.2700992 -0.26941854
-1.0861818 5.3061805 -0.27092063
-1.0654519 5.3725052 -0.2739749
-3.2586281 16.979437 -0.86615282
-3.1461835 16.954922 -0.86389971
-3.0331059 16.923769 -0.86134613
-2.9286959 16.93911 -0.86119592
-2.8289711 16.982376 -0.86249775
-2.7253482 17.003359 -0.86269802
-2.6205101 17.016798 -0.86254781
-2.5154641 17.028606 -0.86234754
-2.4081335 17.023941 -0.86134613
-2.298413 16.999798 -0.85939342
-2.1930392 17.005657 -0.85899282
-2.0910861 17.038618 -0.85999423
-1.9915844 17.094778 -0.86219734
-1.8849038 17.090792 -0.86139619
-1.7890985 17.189455 -0.86580235
-1.7019786 17.387974 -0.8752656
-1.5996325 17.445829 -0.87766892
-1.5056586 17.608564 -0.88537973
-1.423172 17.940052 -0.90160239
-1.3159087 17.987293 -0.90355515
-1.2308124 18.372707 -0.92253166
-1.1386704 18.718861 -0.93955547
-1.0543185 19.283958 -0.96759468
-0.93524867 19.275101 -0.96684361
-0.81797582 19.304424 -0.96804529
-0.70825797 19.550619 -0.98016226
-0.60185379 20.005827 -1.0027939
-0.49925649 20.851843 -1.045053
-0.39937636 22.432283 -1.1241636
-0.26129621 22.39736 -1.122311
-0.12341166 22.316647 -1.1182052
0.013481157 22.249067 -1.1148005
0.14983676 22.224596 -1.1135988
0.28577673 22.190304 -1.1119465
0.42132053 22.156178 -1.1103443
0.55552667 22.084284 -1.1068894
0.69055408 22.065485 -1.1061383
0.82626873 22.069817 -1.106589
0.96175802 22.066324 -1.1066891
1.0973347 22.063997 -1.1068894
1.2329192 22.060841 -1.1070898
1.3659081 22.014978 -1.1051871
1.498109 21.964334 -1.1030841
1.6309992 21.929829 -1.1018324
1.7541397 21.778044 -1.0947224
1.8834189 21.717119 -1.0922189
2.4296947 26.1504 -1.3160318
2.5876422 26.110149 -1.3147801
2.7453966 26.070938 -1.3136284
2.8971217 25.98015 -1.3099233
3.04807 25.890467 -1.3063183
3.2009757 25.823702 -1.3039149
3.3303535 25.580738 -1.2926491
3.4822555 25.523207 -1.2907965
3.6294851 25.436104 -1.2874919
3.7801924 25.37779 -1.2856894
3.9206684 25.256416 -1.2807325
4.0403671 25.013985 -1.269667
4.1927824 24.982813 -1.2693666
4.3422251 24.934967 -1.268265
4.495141 24.907856 -1.268265
4.6467876 24.873915 -1.2679646
4.7936411 24.815516 -1.2664626
4.9557838 24.835587 -1.2690161
5.0808821 24.672651 -1.2622566
5.2313452 24.637104 -1.2620564
5.372385 24.558683 -1.259703
5.5148549 24.489208 -1.2578505
5.6668167 24.462692 -1.2582511
5.8184304 24.434261 -1.2586015
5.9874697 24.476683 -1.2626572
6.1414356 24.454981 -1.2634584
6.2951112 24.431345 -1.2642094
6.4515338 24.417364 -1.2655112
6.6046286 24.389851 -1.2661622
6.758162 24.363302 -1.2669132
6.9138012 24.343473 -1.2680647
7.0627613 24.299633 -1.2680147
7.2037578 24.229036 -1.2666128
7.3458982 24.163355 -1.2655112
7.4543095 23.990025 -1.2588018
7.6140623 23.983814 -1.2609048
7.733973 23.853039 -1.2564986
7.9062381 23.883831 -1.2606544
8.0190706 23.735519 -1.2553971
8.1697655 23.700974 -1.2561982
8.3094072 23.634382 -1.255347
8.4070816 23.45133 -1.2483371
1.059831 2.6460779 -0.14229079
1.0722761 2.6302769 -0.14179009
1.0864812 2.6190355 -0.14153974
1.0970929 2.5994382 -0.14083876
1.1145983 2.5963285 -0.14103904
1.1337055 2.5967627 -0.1414396
1.1504283 2.5915833 -0.14153974
1.1679518 2.5881169 -0.14174002
1.1817279 2.5763628 -0.14148967
1.1987801 2.571779 -0.14163989
1.205986 2.5463231 -0.14063849
11.577136 24.056717 -1.3378123
11.671454 23.876657 -1.3317538
1.2277807 2.4735975 -0.13783456
1.2069676 2.3946712 -0.13382895
1.220273 2.3845532 -0.13367875
1.2353419 2.3779073 -0.13372882
1.251773 2.3738163 -0.1339291
1.2696143 2.3722544 -0.13427959
1.290344 2.3758285 -0.13493051
1.3063438 2.3704906 -0.13508071
1.3233017 2.3667886 -0.13533106
13.185474 22.913933 -1.324744
4.5549183 7.8047438 -0.45242441
4.5996695 7.7714911 -0.45212397
4.6395583 7.7302766 -0.45137292
4.6702876 7.6743622 -0.44977069
4.7057505 7.626862 -0.44866914
4.7079682 7.5267191 -0.44446325
4.7722468 7.5263677 -0.44616565
4.8491187 7.5448337 -0.44901964
14.2235 21.834064 -1.3057675
14.35005 21.735544 -1.3051165
14.467041 21.623013 -1.3036646
14.59272 21.523918 -1.3030638
14.697368 21.394459 -1.3006604
14.780437 21.23502 -1.2964544
14.882827 21.10475 -1.2940511
7.0504608 9.8690596 -0.60744113
15.084479 20.842854 -1.2892444
15.190826 20.720907 -1.2874418
6.4586296 8.6976337 -0.54250032
15.500393 20.60796 -1.2921485
15.628366 20.514847 -1.2922987
15.743575 20.405125 -1.2914475
15.867868 20.307352 -1.2913973
15.961185 20.170448 -1.2888939
15.953491 19.908463 -1.2783792
16.016819 19.738075 -1.2737226
16.148407 19.652546 -1.2745739
16.261662 19.544645 -1.2740231
16.370985 19.432276 -1.273222
16.679825 19.554096 -1.2878925
9.4121857 10.898106 -0.7213003
16.94088 19.373499 -1.2895949
16.889288 19.077005 -1.2767268
9.6531868 10.769865 -0.72445476
17.140272 18.656988 -1.2695168
17.244904 18.541227 -1.2688159
17.352184 18.42852 -1.2683651
17.45804 18.314474 -1.2678645
17.568008 18.204853 -1.2677143
17.673098 18.090284 -1.2672637
17.780254 17.977955 -1.2670133
19.410244 19.386662 -1.3747139
17.986734 17.745785 -1.2661121
18.141775 17.680393 -1.2693666
1.5626603 1.5046283 -0.10814305
1.575482 1.4984528 -0.1083934
1.5831908 1.4873902 -0.10829326
1.5878944 1.473572 -0.10799284
1.5924884 1.4597523 -0.10769242
1.5977131 1.4466022 -0.10744207
1.6058146 1.4361058 -0.107392
1.6145962 1.4262258 -0.107392
1.6323487 1.4241701 -0.10799284
1.6508932 1.4226019 -0.10864375
1.6907775 1.438982 -0.11069662
1.672814 1.4060912 -0.10894417
1.8051438 1.4984943 -0.11700544
1.7772276 1.4570001 -0.11460208
1.7480954 1.4152776 -0.11214865
1.7169592 1.3727216 -0.10959508
1.7026151 1.3442156 -0.10814305
1.6982272 1.3239195 -0.10734193
1.6936549 1.3037285 -0.10654081
1.6968511 1.2896863 -0.10624038
1.7015371 1.2768528 -0.10604011
1.7069319 1.264605 -0.10588989
1.7203027 1.2582343 -0.10624038
1.7296103 1.2488242 -0.10634053
1.7461874 1.2445635 -0.1068913
1.7456219 1.2280798 -0.1063906
1.7719942 1.2304456 -0.10754221
21.070379 14.437093 -1.2798812
21.16684 14.31313 -1.280382
21.230173 14.166907 -1.2789299
21.315865 14.035826 -1.2788799
21.398235 13.902593 -1.2786796
21.457073 13.754326 -1.2771274
21.557945 13.633085 -1.2781289
21.608143 13.479936 -1.2761761
21.661526 13.3293 -1.2744738
21.775351 13.215828 -1.2763764
21.814039 13.056835 -1.2739229
21.890305 12.920709 -1.2737226
9.210228 5.3605466 -0.53363794
9.2230215 5.2925 -0.53248632
9.1944714 5.2013869 -0.52898145
9.2297029 5.1468186 -0.52918172
9.2654858 5.0924945 -0.52943206
9.3510075 5.0650377 -0.53253639
9.3942451 5.0141492 -0.5332374
9.4195299 4.9536238 -0.53293699
9.4293518 4.8851666 -0.53178537
9.4635963 4.8294873 -0.53203571
9.5341015 4.7919598 -0.53433895
4.7171688 2.3348944 -0.26325992
4.689209 2.2853432 -0.26090664
4.6815319 2.2461598 -0.25970495
4.6925163 2.2161129 -0.25955474
4.69244 2.1809647 -0.2588037
4.6675863 2.1346867 -0.25670075
4.6906152 2.1105142 -0.25725153
4.7089567 2.0841186 -0.25755194
4.7051721 2.0480115 -0.25665069
4.7543783 2.0348198 -0.25865349
4.8063598 2.0222628 -0.2608065
4.7863741 1.9793763 -0.25905403
10.158578 4.1279316 -0.54910958
10.17073 4.0603385 -0.54840857
10.245663 4.0175428 -0.55111235
10.237499 3.9420407 -0.54935992
10.237205 3.8699684 -0.54805809
10.307576 3.8244517 -0.55056161
10.358065 3.7710414 -0.55201364
10.346208 3.6949866 -0.55016106
10.381882 3.6360555 -0.55086201
10.513573 3.6099062 -0.55667013
10.58664 3.5625281 -0.55937392
10.650036 3.5112615 -0.56157702
10.695141 3.4535201 -0.56282878
10.758031 3.4010766 -0.56503183
10.877926 3.3657026 -0.57023913
10.997788 3.328984 -0.57544643
11.022796 3.2628574 -0.57569677
11.029178 3.1912751 -0.57499576
11.139853 3.1493518 -0.57975245
11.287974 3.1165545 -0.58646178
11.417784 3.0771196 -0.59221983
11.525314 3.0303669 -0.59682631
11.716867 3.0039873 -0.60578883
11.821317 2.9535825 -0.61024505
12.009043 2.9223151 -0.61900729
12.040354 2.8517964 -0.6197083
12.023561 2.7700174 -0.6179558
12.043255 2.6968448 -0.61810607
12.014683 2.6131349 -0.61580282
12.002151 2.5333836 -0.6143508
11.956805 2.4472768 -0.61124647
12.030376 2.3855195 -0.61425066
12.071271 2.31674 -0.61560255
12.216845 2.2670438 -0.62231195
12.167606 2.1807647 -0.61910743
12.225045 2.1137209 -0.6213606
12.304777 2.0498285 -0.62476534
12.240203 1.9619612 -0.62085992
12.223383 1.8824118 -0.61940789
12.240632 1.8082508 -0.6197083
12.269297 1.7356272 -0.62060952
12.219342 1.6521497 -0.61755526
12.206467 1.5742044 -0.61640364
12.206975 1.4981825 -0.61595303
12.230818 1.4249871 -0.61670411
12.208556 1.3465197 -0.61515194
12.158973 1.2655882 -0.61224782
12.151599 1.1894991 -0.61149681
12.1348 1.1127275 -0.61029512
12.084678 1.0333995 -0.60744113
12.047978 0.95583415 -0.60528815
11.977914 0.87635398 -0.60148281
11.968118 0.8018412 -0.60073173
11.965835 0.72796673 -0.60038126
11.924202 0.65202451 -0.59807801
11.939949 0.57942736 -0.59867889
11.429386 0.48438558 -0.57289284
10.991985 0.39830673 -0.55081195
10.969266 0.33010313 -0.54956019
10.642591 0.2549293 -0.53308719
10.590032 0.1886633 -0.53038341
10.580005 0.12355249 -0.5298326
10.528629 0.058345828 -0.52722901
9.7353344 -0.021724988 -0.67820793
9.6582069 -0.080821827 -0.67285007
9.6605215 -0.14012516 -0.67305887
9.677433 -0.19976777 -0.67431134
9.6730328 -0.25906369 -0.6741026
9.6493273 -0.3176907 -0.67257178
9.6093168 -0.37541461 -0.66992766
9.573946 -0.43288442 -0.66763145
9.4744711 -0.48666364 -0.66088194
9.444416 -0.54324383 -0.6590032
9.4528522 -0.60194337 -0.6598382
9.4061899 -0.65694797 -0.65684617
9.1821499 -0.69795644 -0.64146847
9.1220179 -0.74971199 -0.63757181
9.0625916 -0.80084372 -0.63374484
9.0724049 -0.85784328 -0.63478857
9.1017094 -0.91699183 -0.6372239
9.0909529 -0.97229153 -0.63687599
9.0867968 -1.0282785 -0.63701516
9.0654593 -1.0822419 -0.63597143
9.035882 -1.1349882 -0.63437104
9.0129232 -1.1883247 -0.63325775
8.9965687 -1.242377 -0.63263148
9.1793346 -1.3250495 -0.64606088
9.1986523 -1.3855063 -0.64800918
9.1998339 -1.4434676 -0.64870501
9.1947412 -1.500532 -0.64898336
9.1833944 -1.5565884 -0.64884418
9.0852442 -1.5973665 -0.64258176
8.940815 -1.6286004 -0.63304901
8.8228168 -1.6631105 -0.62539494
3.7432675 -0.72980028 -0.26516703
8.7684927 -1.7645657 -0.62302911
8.791687 -1.8254306 -0.6254645
8.8232431 -1.8885248 -0.62852615
8.8202562 -1.9445601 -0.62915236
8.8373451 -2.0052638 -0.63123983
8.8481903 -2.0648904 -0.63290983
8.8140116 -2.1140258 -0.63137901
8.7350073 -2.1518466 -0.62664741
8.7080994 -2.2019804 -0.62567323
6.9572477 -1.8048729 -0.5004946
6.9026585 -1.8359926 -0.49736339
6.8595009 -1.8696579 -0.49506715
6.8767257 -1.9197561 -0.49715462
6.8216529 -1.9495832 -0.49402344
6.8239245 -1.9956021 -0.49506715
6.8411803 -2.0462947 -0.49722421
6.915309 -2.1147728 -0.50355619
8.5332947 -2.6667745 -0.62275082
8.4996643 -2.7136235 -0.62149829
8.5236378 -2.7790194 -0.62449038
8.5802565 -2.8558347 -0.6299178
8.5399008 -2.9007299 -0.6282478
8.556819 -2.965158 -0.63082236
8.6456909 -3.0554926 -0.63875473
8.7863302 -3.1659622 -0.65058374
8.8388443 -3.2462914 -0.65594161
8.8757524 -3.32179 -0.66018611
8.9213858 -3.4014163 -0.66512644
8.9617243 -3.4799213 -0.66971886
9.0042152 -3.5601485 -0.67452008
9.0479088 -3.6417725 -0.67946041
9.0493946 -3.707051 -0.68126959
9.0623903 -3.7774737 -0.68398327
9.0858812 -3.8528676 -0.68753195
9.1774902 -3.9583175 -0.69629937
9.2864141 -4.0730481 -0.70645839
9.3040695 -4.1490445 -0.70972878
9.2738934 -4.2039957 -0.70938087
9.1971836 -4.2374468 -0.70548421
9.146616 -4.2823806 -0.70360547
9.1057539 -4.3315673 -0.70249218
9.0574474 -4.3769417 -0.70082223
9.141468 -4.4869318 -0.70945042
9.0628729 -4.5175748 -0.70548421
9.010951 -4.5609365 -0.70360547
9.224143 -4.7401462 -0.72253191
9.2727194 -4.8372531 -0.72865516
9.2604971 -4.9033933 -0.73004681
9.1696014 -4.9275432 -0.72524559
9.1094151 -4.9674778 -0.72287983
8.9914732 -4.974988 -0.71592158
8.9077129 -5.0002813 -0.71167707
8.8317842 -5.0291781 -0.70805877
8.7653408 -5.0628195 -0.70520592
8.7220602 -5.1094484 -0.70423174
8.6159277 -5.1185474 -0.69817805
8.5869217 -5.1728621 -0.69838685
8.4707346 -5.1739783 -0.69149816
4.4982934 -2.7859819 -0.36821851
4.4802694 -2.8130002 -0.36814892
4.4646077 -2.8415086 -0.3682881
8.5189381 -5.494926 -0.70624965
8.4808855 -5.5443645 -0.70590174
8.4467068 -5.5962982 -0.70590174
8.4221487 -5.6546931 -0.70673668
8.4062643 -5.7191691 -0.70833713
8.3964758 -5.7881913 -0.71049416
8.3845205 -5.8561668 -0.71251202
8.3663464 -5.9201784 -0.71404284
8.333107 -5.9737272 -0.7143212
8.2962952 -6.0247455 -0.7143212
8.2623863 -6.0779014 -0.71459949
8.2593365 -6.1541119 -0.71759158
8.2397346 -6.2184944 -0.71919197
8.2038021 -6.2707524 -0.7194007
8.1683264 -6.3234143 -0.719679
8.2102385 -6.4368057 -0.72684604
8.1909027 -6.5031881 -0.72865516
8.162508 -6.5626993 -0.7296989
8.1739206 -6.6548562 -0.73436093
8.14217 -6.7124996 -0.73519588
8.1031275 -6.7642503 -0.73540467
8.0660419 -6.8177061 -0.73582214
8.0157194 -6.8599358 -0.73505676
7.969707 -6.905724 -0.73470885
7.8671899 -6.9018679 -0.72914225
7.8097744 -6.9367623 -0.7277506
7.76929 -6.9865522 -0.72795933
7.6443901 -6.9595523 -0.72023571
7.5773354 -6.9840169 -0.7179395
7.5285039 -7.0249352 -0.71738279
7.4780059 -7.064147 -0.71668696
7.4309158 -7.1064506 -0.71633905
7.3864546 -7.1512184 -0.71626949
7.3374491 -7.1915183 -0.7157824
7.2981415 -7.241323 -0.71626949
7.2669458 -7.2993989 -0.71759158
7.2234201 -7.345273 -0.7177307
7.1907268 -7.4023356 -0.71898323
7.1576047 -7.4592738 -0.72023571
7.0959158 -7.4864001 -0.71863532
7.0252995 -7.5035844 -0.71613032
6.972353 -7.5392261 -0.71543449
6.9084673 -7.562717 -0.71362537
6.8418837 -7.5827456 -0.7115379
6.7607117 -7.5858603 -0.7079196
6.693604 -7.6039896 -0.70576257
6.6376562 -7.634378 -0.70478839
6.5932875 -7.6779895 -0.70506674
6.5544405 -7.7281904 -0.7059713
6.5543041 -7.8248501 -0.71112037
6.5354199 -7.9002762 -0.7143212
6.4678864 -7.9170527 -0.71223372
6.4066577 -7.9410629 -0.71084207
6.3584332 -7.9810038 -0.71091163
6.3031745 -8.0120277 -0.71021581
6.2349219 -8.0261326 -0.70805877
6.1813068 -8.0586977 -0.70757169
6.1166849 -8.0765934 -0.70583212
6.0610385 -8.1059837 -0.7051363
6.0141501 -8.1470327 -0.70548421
5.9569964 -8.1741076 -0.70464921
5.9043984 -8.2072668 -0.70437092
5.8677917 -8.2628603 -0.70604086
5.8244257 -8.3093281 -0.70694548
5.7631135 -8.330143 -0.70569295
5.7034535 -8.3529911 -0.70464921
5.6370411 -8.3654938 -0.70277053
5.5800805 -8.3916187 -0.70207471
5.520823 -8.4140224 -0.70110053
5.4669232 -8.4443903 -0.70082223
5.4042654 -8.4609613 -0.69943058
5.351716 -8.4931183 -0.69936097
5.3031893 -8.5317268 -0.69984806
5.2450037 -8.5547514 -0.69908267
5.1800241 -8.5662861 -0.69741267
5.1253209 -8.5944824 -0.69713432
5.0704665 -8.6223288 -0.69685602
5.0139623 -8.6472378 -0.69636893
4.9543724 -8.6665821 -0.69546437
4.8824892 -8.6637945 -0.69282025
4.8117957 -8.6621971 -0.69031525
