# .PCD v0.7 - Point Cloud Data file format
VERSION 0.7
FIELDS x y z
SIZE 4 4 4
TYPE F F F
COUNT 1 1 1
WIDTH 1479
HEIGHT 1
VIEWPOINT 0 0 0 1 0 0 0
POINTS 1479
DATA ascii
30.818932 0.73218536 1.1999705
30.955721 0.54541427 1.2051457
31.913696 0.36645138 1.2423446
31.976301 0.17095284 1.2447182
30.254683 0.013254723 0.66517502
30.338171 -0.17286386 0.66702211
30.907362 -0.36577153 0.67957807
31.01749 -0.55743945 0.68206286
31.064457 -0.74897796 0.68318433
31.768782 -0.96103996 0.69879675
32.143944 -1.1698439 0.70719671
32.22805 -1.3709632 0.70921975
32.422745 -1.5786047 0.7137056
32.626076 -1.789234 0.71841133
33.155342 -2.0223849 0.73032951
33.557274 -2.2536552 0.7394771
34.026402 -2.4949782 0.75014198
34.668217 -2.7560077 0.76465493
36.191635 -3.1007085 0.7986725
36.21772 -3.3269248 0.79968405
39.934792 -3.9156406 0.88229811
39.968678 -4.1667185 0.88359547
41.099045 -4.5396523 0.90919113
41.034664 -4.7875752 0.90839952
40.921165 -5.0290251 0.90655237
40.494911 -5.2290578 0.89780062
40.488811 -5.4810529 0.89839435
40.373253 -5.7178879 0.89659119
40.631138 -6.0089478 0.90312207
41.908646 -6.4609003 0.93238991
54.594303 -8.7599459 1.2158769
54.785076 -9.1357126 1.2213523
38.345562 -6.6363454 0.85566896
38.304119 -6.8715043 0.85566896
56.862511 -10.561399 1.2717959
57.113766 -10.97102 1.2788985
57.814186 -11.47384 1.2961382
58.603607 -12.004723 1.3154669
59.095207 -12.483726 1.3281987
60.334332 -13.132729 1.3578403
59.601917 -13.35686 1.3431734
59.475975 -13.712437 1.3422059
59.058437 -14.381656 1.3366646
62.336895 -16.401167 1.4174756
62.731236 -16.91715 1.4287781
61.667416 -17.036842 1.4068986
46.806469 -13.240808 1.0696256
45.955128 -13.305049 1.0520121
45.877419 -13.588194 1.0521221
45.828579 -13.880159 1.0529357
45.999458 -14.240631 1.0588508
46.976898 -14.859712 1.0834349
47.462296 -15.334249 1.0967824
47.959763 -15.820617 1.1105039
48.553452 -16.347477 1.1265562
48.726433 -16.739288 1.132933
49.731426 -17.42643 1.1587706
49.684761 -17.753115 1.1601999
50.617603 -18.437452 1.1846081
50.585064 -18.777958 1.1865212
52.169857 -19.731325 1.2265198
52.261448 -20.133366 1.2315553
41.885273 -16.43182 0.98934239
54.48288 -21.760691 1.2901131
56.091347 -22.803186 1.3314971
57.544888 -23.806593 1.3694507
58.448193 -24.601387 1.3945186
59.648083 -25.538395 1.426865
59.493008 -25.905106 1.426931
61.261822 -27.123682 1.4733286
62.833691 -28.282017 1.5152843
1.7723875 -0.97426724 0.04421705
1.7881411 -1.0117007 0.044920709
1.7671599 -1.0141921 0.044546891
1.8101506 -1.0536896 0.045800284
1.8079556 -1.0673183 0.045910232
1.7910798 -1.0722283 0.045646358
1.7776303 -1.0790471 0.045470443
1.7650163 -1.0862654 0.045316517
1.7574698 -1.0965457 0.045294531
1.7574674 -1.1115845 0.045470443
1.7522969 -1.1234267 0.045514423
1.7445325 -1.1336125 0.045492433
1.7467278 -1.1503451 0.045734316
1.7388049 -1.1604861 0.045712326
1.7291675 -1.1694529 0.045646358
1.729381 -1.185128 0.045844264
1.6966209 -1.178038 0.045162592
1.6501143 -1.1608109 0.044107102
1.6454028 -1.172655 0.044173069
1.6397976 -1.1838994 0.04421705
1.6284679 -1.1909873 0.044107102
1.6259491 -1.2045283 0.04423904
1.6193273 -1.2150825 0.044261027
1.605474 -1.2201555 0.044085115
1.6035023 -1.2342527 0.04423904
1.599841 -1.2471421 0.044348985
1.5929431 -1.2575547 0.044370975
1.5937859 -1.2741731 0.044612858
1.5898225 -1.2870742 0.044722807
1.5818954 -1.296805 0.044722807
1.5985228 -1.3269234 0.045426466
20.587154 -17.307133 0.59129071
20.185949 -17.182339 0.58278084
19.749954 -17.021303 0.57319349
19.549475 -17.058685 0.57040083
19.281851 -17.034679 0.56562912
19.065935 -17.053358 0.56235272
18.276197 -16.549948 0.54203451
17.985653 -16.488821 0.53640527
17.709007 -16.436319 0.5311498
17.567751 -16.507017 0.52994037
17.458166 -16.60692 0.52969849
17.344419 -16.702633 0.52934664
17.124205 -16.694286 0.52574039
16.989428 -16.767441 0.52475089
16.796406 -16.781628 0.52195823
0.91672629 -0.92693543 0.028406689
0.90333778 -0.92467505 0.028164806
0.89764714 -0.9302004 0.028164806
0.88226706 -0.92555791 0.027856955
0.87588608 -0.93022603 0.027834965
0.86675805 -0.9319219 0.027725019
0.85967112 -0.93575001 0.02768104
0.85189813 -0.93878573 0.027615072
0.84745616 -0.94548446 0.027659049
0.8416388 -0.95066655 0.027659049
0.84171146 -0.96258736 0.027856955
0.84362936 -0.97681475 0.028120827
0.83632255 -0.98045135 0.028076848
0.83093488 -0.98632914 0.028098838
0.82167071 -0.98756593 0.02798889
0.81051904 -0.98640853 0.027812976
0.80004263 -0.98592824 0.027659049
0.78522736 -0.97989476 0.027351199
0.77857977 -0.98391032 0.02732921
0.76698917 -0.98157799 0.027131304
0.76095188 -0.98626566 0.027131304
0.75306886 -0.9885301 0.027065337
0.73977941 -0.98354316 0.026801465
0.73492235 -0.98966938 0.026845444
0.7223354 -0.98528975 0.026603561
0.71393216 -0.98646331 0.026515603
0.71077102 -0.99489331 0.026625549
0.70234895 -0.99596727 0.026537592
0.69622463 -1.000258 0.026537592
0.68950808 -1.003687 0.026515603
0.68333662 -1.0078988 0.026515603
0.67436045 -1.0079176 0.026405655
0.6681633 -1.0120364 0.026405655
0.66194093 -1.0161172 0.026405655
0.65623415 -1.0210007 0.026427645
0.65049225 -1.0258526 0.026449634
0.64365548 -1.0289769 0.026427645
0.6373297 -1.0329069 0.026427645
0.63149947 -1.0376523 0.026449634
0.62563497 -1.0423647 0.026471624
0.62228191 -1.0513465 0.026603561
0.60675102 -1.0396012 0.026207751
0.60235459 -1.046771 0.026295708
0.60134512 -1.0600137 0.026537592
0.59482968 -1.0636835 0.026537592
0.58877432 -1.0681889 0.026559582
0.5855484 -1.0779316 0.026713507
0.57514995 -1.0744522 0.026537592
0.56854641 -1.077961 0.026537592
0.55362689 -1.0654591 0.026141783
0.55527538 -1.0848567 0.026537592
0.54320973 -1.0775297 0.02627372
0.53081071 -1.0692002 0.025987858
0.51809561 -1.0598613 0.025680006
0.50161505 -1.0422986 0.025174251
13.632927 -28.791786 0.70040202
9.2238293 -19.793011 0.48002449
12.711841 -27.720989 0.67049646
12.587145 -27.899622 0.67293727
12.446945 -28.046694 0.67463046
8.7928953 -20.145359 0.48319095
16.799435 -39.142975 0.93661189
13.425661 -31.819218 0.75933355
13.235914 -31.91485 0.75966334
14.747568 -36.185741 0.8591873
12.431139 -31.045586 0.73527718
12.237485 -31.113834 0.73510122
14.098459 -36.501427 0.86037469
13.877769 -36.596592 0.86059463
11.16471 -29.995832 0.70370042
10.992453 -30.096642 0.70447004
6.6095996 -18.446882 0.43072429
6.4343095 -18.310709 0.42661229
6.3465843 -18.421682 0.42828348
6.2430267 -18.488693 0.42894316
6.1244407 -18.511465 0.42859134
6.1885638 -19.097464 0.4412792
6.0761051 -19.150324 0.44163102
6.2629824 -20.167807 0.46421412
5.8598247 -19.286581 0.44308233
5.7610221 -19.388298 0.4445996
5.6553345 -19.469366 0.44565508
5.5480499 -19.54698 0.4466446
5.437088 -19.613411 0.44739226
5.3357034 -19.71685 0.44899747
5.2947621 -20.052742 0.45590213
5.2000399 -20.195225 0.45840892
5.09306 -20.29463 0.45994818
5.0581698 -20.6926 0.46826017
4.943604 -20.775768 0.46944758
4.8340693 -20.883629 0.47120675
4.7163734 -20.959717 0.47226223
4.6047564 -21.066397 0.47402138
4.5090208 -21.252689 0.47758365
4.3892102 -21.331856 0.4787491
4.2957673 -21.546637 0.48297107
4.1960635 -21.74143 0.48675323
4.0944963 -21.937775 0.4905794
3.9571509 -21.947723 0.49024954
3.8467386 -22.111458 0.49337202
4.3363156 -25.864676 0.57655782
3.678617 -22.798544 0.5076651
3.963443 -25.56028 0.56864166
3.7997658 -25.53863 0.56763017
3.3563771 -23.550276 0.52294773
3.2172112 -23.61005 0.52382731
3.1079857 -23.903969 0.52991837
2.9427114 -23.772768 0.52659798
2.7977226 -23.798321 0.52677387
2.6533055 -23.829943 0.52710372
2.5089192 -23.863672 0.52749956
2.3698289 -23.953234 0.52914876
2.3629453 -25.478474 0.56252861
2.248636 -25.978559 0.57325941
2.0970416 -26.089527 0.57541442
1.942246 -26.173687 0.57699764
1.7936214 -26.361662 0.58088976
0.63134408 -10.201012 0.22452992
1.4951248 -26.83288 0.59082896
1.3355503 -26.944397 0.59309387
1.1735359 -27.028996 0.59478706
1.0104593 -27.110615 0.59643626
0.84931713 -27.284184 0.60013044
0.69080138 -27.645681 0.60798067
0.52185446 -27.686386 0.60879427
0.35610414 -28.014963 0.6159628
0.18624263 -28.327536 0.62280148
0.012495268 -28.492107 0.62640774
-0.16312777 -28.631613 0.62948626
-0.34304291 -28.987961 0.63735849
-0.52349114 -29.129251 0.64052492
-0.70409513 -29.203449 0.64224011
-0.88133574 -29.134624 0.64083278
-1.1464231 -31.500525 0.69303554
-1.4028363 -32.977192 0.72571176
-1.3694175 -28.126873 0.61910731
-1.5437272 -28.149887 0.61981094
-1.7174573 -28.156847 0.62018478
-1.9901528 -29.634064 0.6529929
-2.1380203 -29.158651 0.64278984
-2.352391 -29.591467 0.65264106
-3.1327138 -36.565174 0.80691856
-3.4063101 -37.081871 0.81877083
-3.650167 -37.227432 0.822465
-3.8897178 -37.311726 0.82483989
-3.5869813 -32.474602 0.71834534
-3.8040171 -32.604904 0.72173172
-4.04425 -32.908405 0.72898817
-4.294239 -33.255787 0.73725617
-4.5271821 -33.442806 0.74200588
-4.795527 -33.860836 0.75192308
-5.0371375 -34.060219 0.75702465
-5.3176293 -34.493073 0.76735967
-5.5732083 -34.734215 0.77347273
-5.847568 -35.067196 0.78167474
-6.1424184 -35.491688 0.79196578
-6.4020915 -35.687534 0.79719925
-6.7164307 -36.161659 0.80869967
-7.0096674 -36.491875 0.81703365
-7.329977 -36.934566 0.8279404
-7.6092324 -37.146484 0.8337236
-12.238651 -57.935097 1.3021193
-6.9766488 -32.052574 0.72122592
-12.495726 -54.19873 1.2230895
-8.4928551 -35.831348 0.80966723
-13.071181 -53.677044 1.2148434
-13.522756 -54.085629 1.2259481
-14.796984 -57.675728 1.3093758
-16.999741 -64.6119 1.4692166
-17.355001 -64.354828 1.4657642
-10.720197 -38.803669 0.88517874
-18.176085 -64.252449 1.468403
-18.753771 -64.774483 1.4829379
-19.259611 -65.025337 1.4913598
-21.226936 -70.085274 1.6103883
-21.624046 -69.848656 1.6079695
-22.017548 -69.605042 1.6054407
-22.433464 -69.435341 1.6046711
-22.887278 -69.381836 1.6066501
-23.79109 -70.661331 1.6396343
-15.266859 -44.440399 1.0332552
-15.542559 -44.35532 1.033475
-22.04225 -61.688393 1.4405644
-22.400158 -61.496559 1.439267
-22.765591 -61.32703 1.4385414
-19.990923 -52.856228 1.24266
-20.655943 -53.617916 1.2635279
-21.327398 -54.364086 1.284176
-22.120392 -55.383469 1.3114427
-21.62883 -53.20269 1.2629123
-23.753468 -57.416477 1.3663942
-19.726837 -46.867302 1.1181562
-20.008923 -46.733433 1.1178703
-24.819466 -56.999775 1.3671199
-27.584692 -62.303055 1.4983745
-28.359163 -63.005085 1.5194182
-29.132458 -63.676289 1.5398904
-27.567245 -59.29081 1.4378817
-27.984337 -59.234444 1.4406524
-29.128977 -60.690304 1.4803871
-34.738155 -70.156746 1.7216105
-37.874992 -70.93309 1.76836
-39.081131 -72.123344 1.8039827
-38.57497 -70.158089 1.7607077
-10.141779 -18.18054 0.45761731
-10.211287 -18.044012 0.4557482
-10.335748 -18.005293 0.45636392
-10.465147 -17.974367 0.45719951
-58.840603 -95.584862 2.4685018
-57.66053 -91.143204 2.3718803
-12.479877 -19.461752 0.50823683
-17.339334 -25.974762 0.68663663
-17.543201 -25.93413 0.6883958
-13.016726 -18.99061 0.50612587
-19.731819 -28.411909 0.76056492
-19.615894 -27.517984 0.74301744
-19.995081 -27.68889 0.75093359
-38.706875 -52.237572 1.4297236
-39.025471 -51.99749 1.4296796
-42.497765 -55.906109 1.5443102
-44.286667 -57.523342 1.596469
-44.614197 -57.218987 1.5955895
-51.32061 -64.993721 1.8211784
-51.899803 -53.235691 1.6349944
-47.820782 -48.453312 1.4970771
-31.680239 -31.707863 0.98558223
-40.525841 -40.06636 1.253171
-40.770203 -39.816246 1.2531489
-32.158497 -31.022879 0.98252571
-32.298302 -30.777386 0.98100841
-32.437038 -30.532032 0.97951317
-98.752838 -90.692947 2.9487717
-99.324486 -90.100746 2.9492774
-99.860573 -89.476265 2.9488375
-24.709703 -21.868561 0.72549188
-22.281912 -19.477453 0.65066206
-22.393435 -19.333834 0.65044212
-27.070753 -23.083639 0.78222448
-27.104057 -22.826296 0.77912396
-27.250526 -22.665312 0.77932185
-59.225105 -48.647793 1.685482
-54.438427 -44.159412 1.5414956
-54.748158 -43.85643 1.5426171
-54.978588 -43.489902 1.5415616
-50.334263 -39.316433 1.4045238
-13.286163 -10.247477 0.36878023
-13.260504 -10.098529 0.36633942
-13.314226 -10.010965 0.3661195
-13.390654 -9.9404039 0.3665373
-20.093695 -14.725828 0.54766381
-20.180431 -14.599914 0.54757583
-20.29567 -14.494407 0.54827952
-31.42132 -22.149918 0.84529001
-47.396156 -32.977505 1.269707
-47.648712 -32.721157 1.2710702
-47.885002 -32.452854 1.2720379
-48.148045 -32.201778 1.2737529
-48.510777 -32.015324 1.2781289
-48.760765 -31.752527 1.2795582
-49.044674 -31.510565 1.281911
-49.249763 -31.217064 1.2822409
-7.6977301 -4.8134866 0.19941807
-7.7084002 -4.7546177 0.1989343
-7.7528033 -4.7165828 0.19933011
-7.7387323 -4.6432061 0.19823064
-11.429108 -6.7622705 0.29181743
-11.472976 -6.6935267 0.29188338
-51.393169 -29.561586 1.3037685
-51.679688 -29.305853 1.3064512
-51.959763 -29.044788 1.3090019
-6.6145592 -3.644578 0.16584028
-6.6403117 -3.6058314 0.16592824
-6.6455626 -3.5560577 0.16551045
-6.6769857 -3.5203431 0.16575232
-53.405613 -27.738173 1.323361
-5.7281814 -2.9308732 0.14125617
-5.6826673 -2.8637288 0.13969491
-56.392307 -27.983662 1.3843815
-56.516239 -27.614296 1.3832381
-11.98877 -5.7671499 0.29234517
-57.037899 -27.007238 1.3877898
-56.788406 -26.463766 1.3777407
-56.588936 -25.949385 1.3690109
-58.317276 -26.310061 1.4068986
-58.551636 -25.984585 1.4086798
-58.786018 -25.658024 1.4105049
-58.973583 -25.310242 1.4112525
-13.758742 -5.805438 0.32818785
-13.830121 -5.7358437 0.32904544
-13.865056 -5.6508756 0.32904544
-13.910605 -5.5701542 0.32930931
-18.010302 -7.0837898 0.42540288
-104.25476 -40.267349 2.4578807
-80.513084 -29.967278 1.8892796
-102.33102 -37.374668 2.3958929
-102.49911 -36.724827 2.3945074
-22.938976 -7.902813 0.53337073
-22.969986 -7.756156 0.5329749
-8.2491112 -2.7293115 0.19084221
-8.2837725 -2.6845 0.19126001
-8.3172417 -2.6390634 0.19165581
-8.3246851 -2.5853117 0.19145791
-8.3327389 -2.5318587 0.19128199
-7.0936384 -2.1079421 0.16249789
-7.0488343 -2.0476446 0.16117854
-7.0516481 -2.0016255 0.16095865
-7.0657239 -1.9588541 0.16100262
-7.0737495 -1.9144181 0.16091466
-7.0950298 -1.8735306 0.16113456
-7.1199465 -1.833451 0.16144241
-7.1436682 -1.7928927 0.16172828
-45.381599 -11.092965 1.027274
-45.15995 -10.745568 1.0207433
-44.9114 -10.395675 1.0136627
-44.480804 -10.008858 1.0025361
-44.238602 -9.6695614 0.99571931
-16.595493 -3.5209882 0.37287027
-16.496338 -3.3943121 0.37016556
-16.41979 -3.2736776 0.36798862
-16.468033 -3.17836 0.3686263
-16.52359 -3.0840406 0.3694399
-16.531378 -2.9806445 0.36919802
-16.594666 -2.8870354 0.37020954
-11.813212 -1.9806523 0.26318726
-11.784676 -1.9016017 0.26228568
-11.800075 -1.8298692 0.26237366
-11.81998 -1.758755 0.26257154
-11.857273 -1.6900041 0.26316527
-16.773886 -2.2857485 0.37207863
-16.862942 -2.1925788 0.37374982
-17.112219 -2.1182971 0.37898329
-17.271847 -2.0305328 0.38223773
-17.224363 -1.9178792 0.38091835
-17.383955 -1.8277305 0.38419479
-17.466475 -1.7281166 0.38577801
-17.5763 -1.6301434 0.38797694
-17.781195 -1.5391629 0.39228687
-17.884974 -1.4376394 0.39437586
-17.971226 -1.3336424 0.39609104
-15.519553 -0.96039623 0.34173331
-14.831397 -0.82650161 0.32645068
-14.82221 -0.73478949 0.32614282
-14.838426 -0.64434856 0.32640672
-14.872071 -0.55440646 0.32706639
-14.823231 -0.46152565 0.32592294
-14.896744 -0.37233588 0.32748419
-14.913743 -0.28120664 0.32781401
-14.916187 -0.18970507 0.32783601
-14.966057 -0.098499179 0.32891348
-14.972379 -0.006669912 0.32904544
-6.0404429 0.034242727 0.13259235
-5.9741402 0.070524246 0.13114105
-5.808661 0.10421424 0.1275128
-5.6779814 0.13671994 0.12465419
-5.6500545 0.17074043 0.12406047
-5.6538963 0.20558713 0.12417042
-5.6005874 0.23806505 0.12302697
-5.5650702 0.27077186 0.12227933
-5.5183825 0.30244955 0.12128981
-5.4834914 0.33429512 0.12056416
-5.4753523 0.36753291 0.12043223
-5.422143 0.39739314 0.11931077
-5.3548226 0.4255051 0.11788145
-5.3680491 0.45971924 0.11823329
-5.3472066 0.49100208 0.11783748
-5.3251886 0.52194893 0.11741968
-5.3189025 0.55430287 0.11735372
-5.3074517 0.58605045 0.1171778
-5.2531114 0.61269635 0.11605634
-5.2105541 0.6401611 0.11519875
-5.2095027 0.67250454 0.11526472
-5.1706028 0.69976258 0.11449509
-5.1335459 0.72684902 0.11376944
-5.1082201 0.75526255 0.11330767
-5.0945973 0.7852208 0.11310976
-5.0896831 0.81646585 0.11310976
-5.0766888 0.84636462 0.11293385
-5.0625339 0.87596422 0.11273594
-5.0167174 0.89977282 0.11183438
-4.9845624 0.9256084 0.11124066
-4.9748626 0.95542127 0.11115271
-4.9414482 0.98047912 0.11053701
-4.9255452 1.0087745 0.11031711
-4.9163284 1.0383581 0.11025114
-4.931356 1.0731827 0.11073491
-4.9412627 1.1071373 0.11110873
-4.9314537 1.1367617 0.11104276
-4.9331412 1.1690744 0.11124066
-4.9210181 1.1981388 0.11113072
-4.9378214 1.2343736 0.11168046
-4.9379015 1.2666359 0.11185637
-4.9232688 1.2951298 0.11170244
-4.9132986 1.3247933 0.11165846
-4.9185691 1.3586432 0.11196631
-4.9264936 1.3934237 0.11234014
-4.9236131 1.425294 0.11247207
-4.9128575 1.4549102 0.11242809
-4.9143634 1.4882153 0.11266997
-4.8994093 1.5165672 0.11253804
-9.1775303 2.9028478 0.21144626
-9.14147 2.9532657 0.21102846
-9.1127338 3.0058558 0.21078657
-9.099803 3.063628 0.2109185
-9.1073084 3.1285009 0.2115342
-9.1002064 3.1886215 0.21182007
-40.620369 14.514228 0.94848615
-40.470425 14.741298 0.94707882
-40.322979 14.968467 0.94575948
-40.22757 15.214541 0.94569349
-40.136257 15.462165 0.94575948
-40.700493 15.967018 0.9613499
-22.19076 8.8629427 0.52530062
-22.146149 9.0030775 0.5255425
-22.500666 9.3084879 0.5353058
-22.441284 9.4455986 0.53526181
-42.056328 18.006397 1.0059663
-41.898304 18.243755 1.0048449
-41.761806 18.489971 1.0042732
-44.491955 20.026163 1.07288
-44.283691 20.260101 1.070835
-44.141319 20.523432 1.0704172
-44.005516 20.789619 1.0701973
-43.852791 21.047562 1.0696036
-44.734695 21.809566 1.0943637
-45.338287 22.449194 1.1124829
-47.666565 24.334913 1.1768678
-48.689789 25.235111 1.2059377
-49.957649 26.282354 1.2413187
-96.805809 52.455784 2.4214444
-96.500511 53.058899 2.4219062
-96.167023 53.646606 2.4217522
-101.26801 57.309746 2.559032
-102.90954 59.075321 2.6096296
-106.10041 61.775677 2.7001159
-107.22246 63.313091 2.7385092
-78.674286 53.926517 2.0976288
-79.560509 55.254551 2.1302612
-30.767735 21.648991 0.82719272
-30.727125 21.903526 0.82969952
-31.707602 23.494516 0.86771917
-31.878689 23.925682 0.87640494
-35.360611 26.879734 0.97667652
-35.199768 27.099854 0.97680843
-16.971682 13.232789 0.47307584
-31.21209 24.645676 0.87444788
-31.786053 25.738411 0.89931792
-29.318766 24.647711 0.84218949
-28.711349 25.680763 0.84698319
-28.392572 26.02981 0.84693921
-6.4100986 6.726613 0.2041018
-6.3652778 6.7621784 0.20399185
-6.3161778 6.7930536 0.20374997
-46.34613 58.589367 1.6428226
-41.414959 53.696831 1.4912499
-46.441738 62.56271 1.7134745
-29.725748 42.168331 1.1344943
-29.492714 42.387684 1.1355058
-29.011276 42.806828 1.1371109
-26.957861 40.307285 1.0662832
-26.251862 39.777699 1.0479881
-26.087492 40.061184 1.0512205
-25.790936 40.142273 1.0491755
-25.705244 40.55394 1.0557942
-25.498329 40.778713 1.0575534
-25.370972 41.134369 1.0627209
-25.161224 41.360161 1.0645461
-22.682415 37.805946 0.96944201
-22.480051 37.995178 0.97073936
-22.225838 38.096992 0.96983784
-34.114594 60.159782 1.5208696
-19.588135 35.04211 0.88271594
-19.533407 35.453232 0.89003837
-33.193729 61.131603 1.5297313
-18.884512 35.820038 0.89036822
-18.49387 35.606964 0.88223213
-17.010513 33.248135 0.82116765
-18.078918 35.877655 0.88337559
-16.410566 33.586151 0.82191527
-16.201143 33.679905 0.82176137
-16.059214 33.916023 0.82510376
-14.010911 31.055483 0.7490865
-13.703705 30.878603 0.7427755
-13.506781 30.945612 0.74237972
-13.36002 31.128965 0.74479854
-13.149332 31.164299 0.74369907
-21.915974 52.844852 1.2580305
-21.510942 52.781136 1.2533468
-20.833261 52.029488 1.232435
-20.418116 51.913506 1.2266957
-11.186883 28.963123 0.68263459
-19.25985 50.789734 1.1944593
-18.830673 50.592136 1.1870708
-10.602139 29.027964 0.6794461
-10.379314 28.968235 0.67654353
-10.209991 29.055901 0.67711526
-16.886539 49.016216 1.1400136
-9.8667336 29.220682 0.67808276
-8.6682749 26.200638 0.60672724
-8.5696011 26.445448 0.6111691
-8.3854055 26.428921 0.60958588
-7.9906335 25.731325 0.59234619
-7.778542 25.601948 0.58825618
-13.87189 46.685913 1.070945
-7.5178809 25.881729 0.59252214
-7.3807697 26.004313 0.59428126
-7.2250776 26.063562 0.59461111
-7.0503941 26.05336 0.59337974
-6.9496126 26.320389 0.59848124
-6.8385873 26.559076 0.60294509
-11.089912 44.191719 1.0018543
-10.80478 44.202606 1.000579
-10.446109 43.901398 0.99228895
-10.072156 43.513702 0.98210788
-9.7525177 43.341572 0.97685242
-9.3973742 42.993313 0.96768284
-9.0844297 42.819359 0.96249336
-8.7959366 42.749931 0.9597007
-8.4437437 42.353062 0.94960761
-8.1240358 42.094852 0.94268095
-7.8094668 41.843178 0.93595219
-7.489603 41.541023 0.92814595
-7.1915636 41.338974 0.92262661
-6.8976097 41.142723 0.91728324
-6.6080885 40.955288 0.91218168
-6.3130088 40.713497 0.90591472
-6.0192347 40.456783 0.89936185
-0.49276567 3.4562056 0.076519445
-0.46965986 3.4452956 0.076211594
-0.43935958 3.377722 0.074650347
-4.8889818 39.496944 0.87508559
-4.6442065 39.50634 0.87464583
-4.3779287 39.320465 0.86991811
-4.1351171 39.332668 0.86961025
-4.0029473 40.461639 0.89401847
-3.7685437 40.635757 0.89733887
-3.5418084 40.920074 0.90312207
-3.303556 41.101479 0.90666234
-3.0652075 41.308414 0.91079634
-1.6252673 23.886982 0.52633411
-1.4775575 23.878546 0.52593827
-1.3310138 23.887161 0.52593827
-2.1211414 42.796104 0.94217521
-1.8653601 42.966129 0.9456495
-1.6096196 43.189564 0.95033324
-1.3510205 43.405479 0.95488507
-0.49372026 19.756052 0.43439654
-0.83662885 44.393379 0.97632468
-0.56710321 44.624607 0.98131627
-0.13350464 20.296652 0.44616085
-0.01976501 45.364025 0.99750048
0.25986141 45.587234 1.002426
0.29082623 24.578337 0.54036331
0.43880907 24.419151 0.53691101
0.57675028 23.923262 0.52607024
0.7242555 23.943256 0.52659798
0.85569859 23.513746 0.5172525
0.97144431 22.83782 0.50249761
1.1017826 22.630716 0.49807775
1.2260026 22.356997 0.4922066
1.3501319 22.1355 0.48750088
1.466297 21.834528 0.48105797
1.5777966 21.519018 0.47430724
1.6525984 20.789377 0.45843092
1.772874 20.694176 0.4565618
1.888294 20.557467 0.45379117
1.987664 20.272867 0.44776607
2.0875528 20.025618 0.44257659
2.2068758 19.980635 0.44187292
2.3283904 19.957777 0.44167501
2.4326341 19.795265 0.4383986
2.4285707 18.808271 0.41684902
2.533469 18.71574 0.41513383
2.6377439 18.625601 0.41348463
2.7499311 18.595219 0.41317677
2.8575795 18.536497 0.41225323
2.9636605 18.471231 0.41119772
3.0713508 18.41917 0.4104501
3.1706712 18.321169 0.40869096
3.2772024 18.268894 0.4079653
3.3859501 18.230749 0.4075695
3.4983141 18.212578 0.40763545
3.6012406 18.146639 0.40664592
3.7125187 18.124201 0.40664592
3.8244832 18.104994 0.4067339
3.9476218 18.136868 0.4079873
4.0640802 18.135719 0.40851504
4.1779776 18.122131 0.40877891
4.276412 18.04265 0.4075695
4.3877487 18.018986 0.40763545
4.506474 18.0247 0.4083831
4.6192226 18.005424 0.40858099
4.7214746 17.945803 0.40787736
4.8395686 17.946419 0.40855902
4.9474649 17.908676 0.4083831
5.0509982 17.855856 0.40787736
5.1679716 17.850456 0.40847105
5.2728601 17.803072 0.40811923
5.3921413 17.803873 0.40888885
5.5066042 17.787643 0.40928465
5.6373529 17.822151 0.4108679
5.7588964 17.825279 0.41174749
5.8703542 17.796253 0.41190138
5.9788013 17.758003 0.41185743
6.0973949 17.74935 0.4125171
6.2071795 17.714432 0.41258305
6.3510785 17.774866 0.41489196
6.4607077 17.73744 0.41493592
6.6007352 17.781818 0.41691497
6.6938028 17.698902 0.41592544
6.8216834 17.707876 0.41711289
6.9459085 17.705704 0.41805843
7.0926127 17.758381 0.42032334
7.2108555 17.737682 0.42087308
7.3547177 17.778093 0.42289609
7.4508648 17.702223 0.42217043
4.4605246 10.418565 0.24900411
7.7665224 17.836781 0.42762381
8.1611691 18.433275 0.44312632
8.4969406 18.877886 0.45506653
8.6966324 19.009039 0.45950839
8.9180613 19.181051 0.46498376
9.1637039 19.397156 0.47158056
9.8527193 20.5285 0.50056255
10.009601 20.531462 0.50212383
10.292436 20.786821 0.50990802
10.741804 21.363703 0.5256744
10.890417 21.332117 0.52653199
11.125073 21.465496 0.53150159
11.346877 21.568478 0.53576756
25.50202 47.760876 1.1905892
34.560085 62.856079 1.5774262
16.881662 30.262411 0.76190627
25.258173 44.632187 1.1276995
32.973171 57.439648 1.4564627
34.443764 59.157742 1.505367
50.680172 84.637863 2.1695342
51.198544 84.325302 2.1695342
30.212626 47.114521 1.2307638
15.858752 23.136868 0.61668843
67.070366 96.573914 2.5858591
68.04557 95.456207 2.5780969
67.382126 93.308876 2.5312154
67.684227 92.525719 2.5211883
68.386383 92.291824 2.5262017
75.591797 100.71808 2.7695143
41.582973 54.702702 1.5110623
78.823906 99.824402 2.7973089
36.526024 42.910683 1.2391636
57.395973 66.596214 1.9334342
63.985004 69.792542 2.0822804
31.960075 34.43449 1.0330573
59.263969 63.071423 1.9032868
64.654236 67.137619 2.0498021
64.030067 64.876892 2.0046139
63.667309 63.722511 1.9809753
59.21833 58.546776 1.8313156
27.362713 26.72257 0.84095812
58.64653 56.575291 1.7920206
59.094616 56.311623 1.7951211
57.710773 54.321224 1.7429183
60.035999 55.819099 1.8027734
60.397251 55.467937 1.8033671
60.774223 55.130558 1.8044885
61.237934 54.870033 1.8082267
55.88731 49.460968 1.6412175
54.710651 47.824203 1.5980083
55.084789 47.558163 1.6003832
45.336094 38.658577 1.3101894
54.111904 45.571281 1.5557448
56.329788 46.851353 1.6112239
19.643394 15.735671 0.55331504
55.694469 44.056187 1.5616379
55.821133 43.602234 1.5576578
46.257919 34.338387 1.2668483
46.325008 33.94931 1.2629561
46.662857 33.75877 1.2664965
47.056244 33.605453 1.271554
19.287624 13.596581 0.51876974
48.05925 33.438869 1.2874744
49.368702 33.902294 1.3169621
48.020897 32.116741 1.2703886
48.429005 31.961359 1.2759739
51.578243 33.587227 1.3535085
50.958023 32.299839 1.3267254
50.930611 31.846098 1.3208982
50.625568 31.22492 1.3079904
47.389446 28.829069 1.2197691
51.011791 30.605429 1.3081664
48.151806 28.489206 1.230302
48.354202 28.209841 1.2310276
52.284058 30.074024 1.3263736
49.168968 27.882118 1.2429678
49.471771 27.654047 1.2463102
49.811275 27.44405 1.2505982
50.117546 27.213272 1.2540724
50.455471 26.997217 1.2583604
50.767868 26.764984 1.2620326
50.056335 25.998615 1.2403511
51.54018 26.369013 1.2730933
51.983135 26.194437 1.2800419
52.261101 25.933641 1.2829446
52.549488 25.676125 1.2861331
44.910175 21.603191 1.0958589
44.659668 21.146244 1.0865574
43.731956 20.379431 1.0609179
43.729858 20.05279 1.0578613
43.717201 19.723242 1.0546069
43.785313 19.431511 1.0533534
43.91288 19.166483 1.0535734
36.311474 15.584225 0.86884063
44.172409 18.637819 1.0542331
44.492798 18.452223 1.0591587
44.959774 18.323383 1.0675806
45.368359 18.166092 1.0746171
45.496643 17.894327 1.075035
45.748276 17.669941 1.0783994
46.04747 17.461569 1.0829072
47.046669 17.511047 1.1038631
47.596478 17.383932 1.1142421
48.045776 17.214642 1.1222682
59.322971 20.845335 1.3827323
59.956406 20.655485 1.3945186
61.531261 20.776554 1.4281623
61.815147 20.450743 1.4318126
61.983215 20.085243 1.4328241
32.399124 10.279588 0.74734932
32.318371 10.036123 0.74405092
32.277946 9.8068256 0.74172002
32.049046 9.5228777 0.73510122
32.007988 9.2973251 0.73283631
32.007687 9.0846472 0.73153895
32.07439 8.8912859 0.73180282
64.816467 17.539881 1.476627
66.691811 17.6089 1.5168675
67.047424 17.26342 1.5225188
67.447838 16.925919 1.5292256
68.096222 16.645157 1.5415835
50.788414 12.084804 1.1479957
49.06749 11.357667 1.1074913
48.45837 10.903851 1.0922087
48.450134 10.590085 1.0905375
31.237982 6.627419 0.70209521
30.94022 6.3661118 0.69450885
30.876732 6.1558185 0.69222194
30.75391 5.9353666 0.68863767
30.70425 5.7305946 0.6867246
27.888487 5.028204 0.62302136
30.357592 5.2812386 0.67746711
30.042351 5.0366836 0.66972685
29.970043 4.8356915 0.66743994
30.042622 4.6584477 0.66840744
30.000429 4.4635763 0.66684622
30.08169 4.2871709 0.66805565
29.878599 4.0713329 0.66297609
29.91888 3.889987 0.66332793
29.837013 3.6933174 0.66099703
29.756844 3.4981494 0.65873212
29.720118 3.3090827 0.65745676
29.622538 3.1143272 0.65486199
29.581394 2.9266031 0.65354264
29.465401 2.7326696 0.65059608
29.33918 2.5394943 0.64745158
29.115038 2.3402026 0.64217412
29.003223 2.1521909 0.63940346
29.0877 1.9790757 0.64098668
29.140211 1.8030908 0.64188826
29.408262 1.6386038 0.64756155
29.472683 1.460849 0.64877093
29.739786 1.2912103 0.65446621
29.849051 1.1125034 0.65670913
29.895287 0.93057609 0.65758866
29.973392 0.74894702 0.65919393
30.181341 0.56886154 0.66367972
30.244244 0.38442361 0.66499913
30.20904 0.19859827 0.66418552
25.202856 -0.037630357 0.070345998
25.159153 -0.19194454 0.070225917
24.814533 -0.34160227 0.069268085
24.761982 -0.49286127 0.069128454
24.701509 -0.6433062 0.068969287
24.671112 -0.79402405 0.068896681
24.643791 -0.94454622 0.068835244
24.578588 -1.0931201 0.068670481
24.536467 -1.2421422 0.068572745
23.775597 -1.3499502 0.066467181
24.495422 -1.5416421 0.068505727
24.437616 -1.6886066 0.068371683
24.464687 -1.8413721 0.068477802
24.411066 -1.9880419 0.068360515
24.315725 -2.1305456 0.068128735
24.688499 -2.3159313 0.069212236
24.721586 -2.4721484 0.069346271
24.831247 -2.6370938 0.069698133
24.899067 -2.7988987 0.069935493
24.945971 -2.9592791 0.070117012
24.975965 -3.1183584 0.070253842
24.985117 -3.2753181 0.070334829
25.025972 -3.4369962 0.070507966
25.142 -3.6102414 0.070896126
25.19058 -3.775111 0.071097188
25.245985 -3.941946 0.071320586
25.330885 -4.114572 0.07163056
25.470823 -4.2978706 0.072099701
25.507998 -4.465282 0.072281219
25.55982 -4.6361661 0.072507411
25.615414 -4.8087764 0.072747566
25.820049 -5.0113907 0.073414981
25.850584 -5.1821065 0.073590912
25.870201 -5.3513598 0.07373891
25.990425 -5.5427375 0.07417734
26.162012 -5.7473755 0.074766561
26.201359 -5.9247756 0.074981585
26.320353 -6.1216745 0.075428389
26.365938 -6.3030519 0.075668544
26.376295 -6.4768724 0.075810969
26.542599 -6.6906495 0.076405771
26.864103 -6.9472661 0.077452973
27.148647 -7.1988506 0.078399636
27.680073 -7.5218353 0.08006677
27.990812 -7.7910094 0.081102796
28.724356 -8.1853991 0.083373114
29.141119 -8.4978189 0.084733076
29.739103 -8.870532 0.086629197
30.196802 -9.2091856 0.088125989
30.774605 -9.5921669 0.089983024
31.004837 -9.8730507 0.09083195
31.249889 -10.162684 0.091731139
30.802574 -10.226634 0.09060017
30.769552 -10.425711 0.090689532
31.29287 -10.817517 0.092426479
31.705002 -11.178227 0.093845077
31.784502 -11.426003 0.0942863
28.331142 -10.777546 0.084612995
27.512917 -10.660003 0.082362227
27.892569 -11.0044 0.083699845
28.513992 -11.452237 0.08577469
27.575413 -11.470246 0.083367534
27.013653 -11.431522 0.081879117
27.956141 -12.033118 0.084959269
26.948288 -11.795842 0.082113691
26.909206 -11.976015 0.082217015
27.505785 -12.444264 0.08427231
28.831717 -13.257827 0.088583969
28.245197 -13.19869 0.087028533
28.063408 -13.324145 0.086718559
28.476515 -13.735017 0.088254452
28.375536 -13.901568 0.088204183
28.313879 -14.087442 0.088279583
29.093582 -14.69875 0.090991125
30.119514 -15.449756 0.094495736
30.032133 -15.638431 0.094520874
30.53327 -16.138287 0.096408613
30.11643 -16.155163 0.095403306
1.7668285 -0.96247566 0.0055845911
1.7547621 -0.96991438 0.0055650435
1.7531396 -0.98310721 0.0055790064
1.7740246 -1.009165 0.0056655742
1.7981199 -1.0375137 0.0057633128
1.8003523 -1.0535754 0.005791238
1.7886931 -1.0615417 0.0057744826
1.783003 -1.0730124 0.0057772752
1.7712628 -1.0808088 0.0057605202
1.7688504 -1.0942858 0.0057744826
1.7671869 -1.108305 0.005791238
1.7603532 -1.1191273 0.005791238
1.7475679 -1.1261178 0.0057716905
1.7431376 -1.1384591 0.0057800678
1.7361193 -1.1491333 0.0057800678
1.7506326 -1.1742408 0.0058526737
1.6945887 -1.1518099 0.0056879148
1.7319722 -1.1928006 0.0058387108
1.6639215 -1.1610787 0.0056320643
1.6543157 -1.1695355 0.0056236866
1.6462951 -1.179082 0.005620894
1.6349815 -1.1862266 0.0056069316
1.6252543 -1.1944604 0.0055985539
1.6251155 -1.2097822 0.0056236866
1.6120713 -1.2155184 0.0056041391
1.6077625 -1.2278137 0.0056153089
1.5930777 -1.2321517 0.0055901762
1.5839124 -1.2406707 0.0055845911
1.5794046 -1.2528509 0.0055957614
1.5818251 -1.2706565 0.0056320643
1.5871899 -1.2910616 0.0056795371
1.5792383 -1.3007761 0.0056795371
1.608867 -1.3418138 0.0058163707
18.609823 -15.706334 0.067969561
18.467485 -15.781249 0.067802012
18.286364 -15.82164 0.067492038
18.08814 -15.845252 0.06711784
17.671112 -15.672621 0.065925434
17.30228 -15.536233 0.064903371
17.16223 -15.601748 0.064735815
16.930784 -15.582159 0.064221993
16.725109 -15.583501 0.063803114
16.440037 -15.507432 0.063077062
16.236813 -15.505116 0.06266097
16.011234 -15.478651 0.062155526
15.889514 -15.550723 0.062052201
15.638931 -15.4945 0.061443433
15.479311 -15.525726 0.061189312
15.290429 -15.525656 0.060817908
15.100041 -15.521706 0.060438126
14.681621 -15.278071 0.059136808
14.606877 -15.388176 0.059214998
0.90787858 -0.96916497 0.0036745053
0.89851713 -0.97104907 0.0036605427
0.89051694 -0.9743306 0.0036521652
0.88251036 -0.97755057 0.0036437877
0.87582982 -0.98220116 0.0036409951
0.86978656 -0.98755664 0.0036409951
0.86633748 -0.99589157 0.0036521652
0.86021048 -1.0011885 0.0036521652
0.85599333 -1.0087343 0.0036605427
0.84336066 -1.0063064 0.0036326174
0.83398026 -1.0076121 0.003618655
0.82271588 -1.0065188 0.0035963147
0.81401056 -1.0084368 0.0035851446
0.81279731 -1.0196657 0.0036074847
0.80157423 -1.01835 0.0035851446
0.80943429 -1.0414017 0.0036493726
0.79510927 -1.0360398 0.0036130699
0.79538506 -1.0496629 0.0036437877
0.77454287 -1.0353136 0.0035767672
0.75390732 -1.0207489 0.0035097464
0.74821955 -1.0261632 0.003512539
0.73664755 -1.0234331 0.0034874063
0.71818209 -1.0108212 0.0034287632
0.70736939 -1.0086615 0.0034064231
0.69148427 -0.99900991 0.0033589501
0.68590605 -1.0040593 0.0033617427
0.68029171 -1.009078 0.0033645353
0.67353302 -1.0124009 0.0033617427
0.67170221 -1.0231999 0.003384083
0.66704357 -1.0298191 0.0033924605
0.66394579 -1.0389467 0.0034092157
0.65649092 -1.0413098 0.0034036306
0.64956063 -1.0444695 0.003400838
0.64156967 -1.0458791 0.0033924605
0.63565832 -1.0506513 0.0033952531
0.63227671 -1.0596827 0.0034120083
0.6257627 -1.0635424 0.0034120083
0.6192252 -1.067362 0.0034120083
0.61862773 -1.0815547 0.0034455184
0.61787921 -1.0957798 0.0034790288
0.62086934 -1.1170264 0.0035348793
0.61833179 -1.128706 0.003560012
0.63374335 -1.173825 0.0036912605
0.6486237 -1.219174 0.0038225092
0.63230193 -1.2063069 0.0037694511
0.59733427 -1.1568654 0.0036018998
0.55392259 -1.0892198 0.0033784979
0.54588395 -1.0899165 0.0033701204
0.53962886 -1.0941421 0.0033729128
7.9520617 -16.355186 0.050750863
7.7220273 -16.133078 0.049913105
7.572597 -16.07341 0.049583588
7.4565821 -16.082376 0.049469095
7.3282905 -16.063232 0.049270824
7.1796308 -15.996594 0.048930138
7.0639753 -16.001011 0.048810057
6.8887944 -15.867022 0.048271101
6.7716742 -15.863008 0.048131473
6.6645384 -15.881207 0.048061661
6.5723062 -15.934743 0.048100758
6.4796677 -15.987744 0.048139852
6.3869963 -16.041138 0.048181739
6.2960982 -16.099583 0.048240382
6.2047238 -16.157516 0.048299026
6.1234589 -16.243004 0.048441444
6.0653234 -16.392813 0.048776548
5.9765697 -16.462618 0.048874285
5.8996005 -16.566807 0.049075346
5.8077292 -16.631016 0.049159124
5.7169113 -16.699451 0.049256861
5.6506023 -16.842293 0.04957521
5.5624557 -16.923197 0.049712043
5.4747539 -17.007458 0.049860045
5.4069691 -17.157087 0.050200734
5.3231101 -17.259697 0.05040459
5.2347279 -17.350433 0.050574932
5.1510916 -17.459915 0.050801128
5.0604897 -17.548843 0.050968677
4.9624801 -17.614214 0.051069211
4.8718176 -17.707966 0.051253516
4.7812281 -17.80513 0.051448993
4.6772103 -17.854446 0.051507637
4.5821719 -17.939972 0.051672395
4.4985795 -18.074493 0.051979572
4.3989005 -18.148405 0.052113615
4.2945795 -18.205225 0.05220018
4.2004623 -18.308231 0.052420791
4.1122074 -18.441999 0.052730761
4.0226793 -18.576345 0.053043522
3.9230187 -18.669182 0.053238999
3.8243663 -18.77129 0.053462401
3.7323539 -18.91213 0.053797506
3.6460736 -19.090851 0.054241516
3.5315897 -19.127615 0.054283403
3.4287298 -19.230635 0.054515183
3.324399 -19.331139 0.054741379
3.2295887 -19.495207 0.055149086
3.1210837 -19.58477 0.055347353
3.0141735 -19.690538 0.055593096
2.9213367 -19.899614 0.056132056
2.8105946 -19.998367 0.056361042
2.6992831 -20.100471 0.056601197
2.5883479 -20.21386 0.056874864
2.4827754 -20.381239 0.057302121
2.3703065 -20.50536 0.057609297
2.2584739 -20.647751 0.057969533
2.1536059 -20.873093 0.058564343
2.0343738 -20.977484 0.058821253
1.9150265 -21.093147 0.059111677
1.8037819 -21.319731 0.059714861
1.675279 -21.360304 0.059798636
1.5451927 -21.384144 0.059837732
0.67286819 -10.185741 0.028472111
0.6107161 -10.195667 0.028488867
1.1792582 -21.928211 0.061289843
1.0504946 -22.056894 0.061630532
0.92135704 -22.212797 0.062049411
0.78748304 -22.286987 0.062242094
0.65620899 -22.479319 0.062767088
0.51941985 -22.532909 0.062906712
0.38370866 -22.686651 0.063328385
0.24620587 -22.846567 0.063769609
0.10651222 -22.953644 0.064065613
-0.034552254 -23.104866 0.064487286
-0.17819834 -23.351212 0.065177038
-0.32489622 -23.598654 0.065872379
-0.4774394 -23.986139 0.06696146
-0.62640113 -24.051731 0.067154147
-0.77669996 -24.132393 0.067391507
-0.93249011 -24.329023 0.067955598
-1.0992033 -24.715454 0.069053061
-1.2617489 -24.923969 0.069656245
-1.4297839 -25.182329 0.070401847
-1.6035479 -25.479473 0.071259156
-1.7669543 -25.571909 0.071546786
-1.9324554 -25.675261 0.07186792
-2.1094341 -25.902128 0.07253813
-2.2753949 -25.969387 0.072764322
-2.4633617 -26.260595 0.073621631
-0.74354088 -7.4308462 0.020820597
-2.8418138 -26.759403 0.075112835
-3.0202482 -26.86866 0.075470276
-3.2136736 -27.090929 0.07614886
-3.3947039 -27.189777 0.076483965
-3.5911026 -27.394501 0.077120662
-3.7770808 -27.502722 0.077489272
-3.9984863 -27.846262 0.078525297
-4.208096 -28.080311 0.079256937
-4.4231944 -28.328634 0.080033258
-4.6198559 -28.44211 0.080432594
-4.8719769 -28.87372 0.081736699
-5.1649079 -29.505217 0.083613276
-5.3824329 -29.674681 0.084185742
-5.5891328 -29.772793 0.08455994
-5.7909513 -29.83709 0.084841989
-6.0611777 -30.236334 0.086081862
-6.2682619 -30.303356 0.086380668
-6.5235276 -30.59 0.087310575
-6.8256674 -31.070959 0.088801786
-7.0314031 -31.095795 0.088994466
-7.2968202 -31.373487 0.089915998
-7.5705571 -31.668533 0.09089338
-7.7990651 -31.76133 0.091295503
-2.7122712 -10.758311 0.03094908
-2.7819872 -10.755989 0.030990968
-3.0316873 -11.431767 0.032993205
-3.3062975 -12.165655 0.035171375
-3.4181519 -12.279049 0.035559535
-3.48932 -12.243419 0.035517648
-3.6004891 -12.34562 0.035877883
-3.6913204 -12.374084 0.036025885
-3.7170069 -12.186683 0.035545573
-3.790225 -12.158873 0.03553161
-3.8850873 -12.199228 0.035718709
-3.9230673 -12.061994 0.035386398
-3.9752643 -11.97221 0.035193715
-4.2087741 -12.420202 0.036587182
-4.3698444 -12.639876 0.037313242
-4.4978576 -12.756177 0.037737705
-4.6724501 -12.996536 0.038533572
-4.7552037 -12.976072 0.038558707
-4.8375325 -12.954145 0.038581047
-4.9887443 -13.113021 0.039145134
-5.3187423 -13.726493 0.041074768
-4.9188242 -12.466632 0.037391432
-5.2613168 -13.098777 0.039385293
-5.6386065 -13.792885 0.041577425
-6.1144657 -14.698884 0.044423003
-6.4570642 -15.257857 0.046232559
-6.5655856 -15.252854 0.046338674
-6.661057 -15.216863 0.046352636
-6.6620064 -14.968316 0.045718733
-6.9210696 -15.297062 0.046852499
-7.0239911 -15.274296 0.046913937
-7.1340895 -15.266242 0.047022842
-7.441638 -15.672956 0.048416313
-7.6332364 -15.825156 0.049030669
-7.7403131 -15.798676 0.049094897
-7.8460145 -15.768791 0.049150746
-7.9367599 -15.70875 0.049114443
-8.0695095 -15.730937 0.049337845
-8.3344517 -16.004868 0.050357115
-53.121956 -100.50874 0.31743124
-38.016052 -70.871338 0.22455192
-9.8811789 -18.15167 0.057679113
-10.023796 -18.147596 0.057860628
-10.100251 -18.023811 0.057662357
-10.209664 -17.959761 0.057656772
-10.331161 -17.916702 0.057721
-10.467656 -17.898726 0.057869002
-57.711956 -95.965729 0.31268117
-57.35688 -94.063591 0.30762389
-12.388631 -19.499212 0.064478904
-12.506961 -19.421148 0.064473324
-67.153748 -102.89097 0.34307498
-17.271433 -26.11043 0.087388769
-17.427422 -25.998148 0.087369218
-17.595043 -25.903133 0.087411106
-13.058262 -18.972343 0.064283431
-19.701895 -28.252682 0.096151702
-19.299604 -27.316977 0.093367562
-19.644365 -27.44606 0.094219275
-20.183378 -27.836672 0.095984153
-38.811703 -52.170273 0.18154706
-39.129875 -51.929546 0.18154147
-42.518764 -55.712486 0.19567724
-44.421078 -57.470497 0.20280655
-57.417397 -73.350395 0.26009238
-51.435047 -64.883652 0.23118137
-76.282005 -93.838844 0.33767423
-81.163803 -87.113693 0.33245781
-99.177658 -102.59521 0.39844793
-52.068989 -53.20557 0.20785542
-35.097305 -35.425636 0.13922358
-31.817921 -31.723766 0.1254369
-35.427505 -34.891926 0.13882425
-35.621578 -34.65506 0.13874885
-32.27821 -31.019091 0.12497892
-31.106632 -29.528185 0.11973736
-31.102673 -29.16371 0.11903085
-30.962627 -28.677404 0.11781889
-31.123251 -28.473381 0.11776304
-31.243954 -28.233603 0.11756198
-24.645613 -21.997623 0.092217036
-24.741867 -21.812258 0.092074618
-22.338285 -19.450901 0.082680576
-22.461761 -19.317383 0.082697324
-26.954611 -22.895241 0.098726414
-27.04019 -22.683786 0.098528139
-27.121885 -22.470232 0.098321497
-53.924488 -44.121593 0.19453509
-14.416368 -11.502579 0.05146854
-14.104939 -11.113118 0.050111376
-14.172073 -11.025748 0.050108582
-13.283896 -10.204475 0.04674359
-13.285709 -10.076845 0.046531361
-13.341686 -9.9909391 0.04651181
-13.442943 -9.9386148 0.046651438
-20.092972 -14.66568 0.06943284
-20.183392 -14.542699 0.069435634
-20.313805 -14.448144 0.069578052
-31.564579 -22.160276 0.10766528
-47.396469 -32.843323 0.1609941
-47.649921 -32.588017 0.16117282
-47.899544 -32.329151 0.16134316
-30.129738 -20.067383 0.10105817
-10.629184 -6.9851055 0.035484139
-10.565289 -6.8506541 0.035129488
-10.615548 -6.7910872 0.035157412
-7.6972971 -4.8576798 0.02538358
-7.7184696 -4.8050728 0.025355656
-7.7469559 -4.7570996 0.025352864
-7.7777095 -4.7105122 0.025358448
-10.904716 -6.513546 0.035436664
-10.911736 -6.4272256 0.035330549
-10.928485 -6.3470931 0.035257943
-10.877843 -6.2287312 0.034970313
-10.879283 -6.1412206 0.034853026
-10.906275 -6.0685158 0.034819517
-6.6348414 -3.6383588 0.021097058
-6.6570411 -3.5975797 0.021097058
-6.6225033 -3.5265787 0.020918336
-6.6484447 -3.4882009 0.020932298
-10.9576 -5.6640644 0.034411807
-5.7532997 -2.9289806 0.017994564
-11.061142 -5.5466547 0.034520715
-11.16042 -5.5110054 0.034724571
-11.198523 -5.4446087 0.034738533
-11.234425 -5.377089 0.034746911
-11.318769 -5.3323493 0.034906086
-11.385749 -5.2787838 0.0350122
-11.406097 -5.2034264 0.034975898
-11.4296 -5.1296563 0.034950767
-11.461774 -5.059833 0.034953557
-11.49077 -4.9886136 0.034947973
-11.512886 -4.9144793 0.034922842
-11.542824 -4.8437452 0.034922842
-11.552915 -4.7648206 0.034864198
-11.571739 -4.6897116 0.03483348
-11.635601 -4.6326785 0.034939595
-11.813746 -4.6198401 0.035389192
-21.755814 -8.3547945 0.065045789
-21.795439 -8.2169132 0.065012276
-21.832317 -8.0781651 0.064973183
-21.911551 -7.9549737 0.065062545
-21.987268 -7.8301067 0.065143526
-22.117977 -7.7240634 0.065389268
-22.157387 -7.5856133 0.065366931
-8.1979771 -2.7500737 0.024112983
-8.2070961 -2.6972218 0.024090642
-8.2177801 -2.6449742 0.024073888
-8.2395773 -2.5963049 0.024090642
-8.2524862 -2.5448148 0.024082266
-8.325387 -2.5114632 0.024249816
-7.0899534 -2.0913007 0.020608366
-7.0719051 -2.0388911 0.020519005
-7.0823574 -1.9949178 0.020513421
-7.0857873 -1.949036 0.020488288
-7.087955 -1.9029279 0.020460362
-7.1265836 -1.8664976 0.020538554
-7.1630926 -1.8291698 0.02061116
-7.1072254 -1.7685162 0.020418474
-16.097115 -3.7972021 0.046151575
-16.065529 -3.6858361 0.045995194
-16.022448 -3.5726068 0.045808095
-15.946335 -3.4530599 0.045528844
-15.998538 -3.3617318 0.045618203
-16.013966 -3.2625051 0.04560424
-16.016022 -3.1606979 0.045553975
-16.017433 -3.0589888 0.045503709
-16.059504 -2.9650085 0.045570731
-16.063612 -2.8639553 0.045531634
-16.096649 -2.7680492 0.045576315
-11.822846 -1.9583197 0.033431634
-11.780325 -1.8770818 0.033278044
-11.786679 -1.8040069 0.033264082
-11.801483 -1.7322323 0.03327525
-11.830707 -1.6624321 0.03332831
-16.7139 -2.2443907 0.047059145
-14.773735 -1.7995067 0.041527156
-14.653371 -1.6936612 0.041158546
-14.504436 -1.5863158 0.040711742
-14.511909 -1.4970829 0.040706154
-8.4334221 -0.81747156 0.023627084
-8.4283209 -0.76480514 0.023599159
-8.3969831 -0.71003956 0.023498628
-8.3802462 -0.65686059 0.023439985
-8.3701553 -0.60441864 0.02340089
-8.3577414 -0.55199325 0.023356209
-8.3350172 -0.49914446 0.023283603
-8.3249426 -0.44729385 0.0232473
-6.059113 -0.28810033 0.016905481
-5.933877 -0.24564992 0.01655083
-5.8982954 -0.20792809 0.016447507
-5.8624763 -0.17065223 0.016344184
-5.8114271 -0.13347766 0.016198972
-5.7831411 -0.097325653 0.016117988
-5.7676306 -0.061666261 0.016073309
-5.7488999 -0.026186878 0.016020251
-5.5379539 0.0087786335 0.015431028
-5.5187964 0.042614259 0.01537797
-5.5224304 0.076531105 0.015389141
-5.50986 0.11017618 0.01535563
-5.4870872 0.14340979 0.015294194
-5.4201384 0.17495392 0.015109888
-5.3799915 0.20671532 0.015000979
-5.3616385 0.23896757 0.014953507
-5.3091373 0.26928431 0.014811088
-5.2654524 0.29947576 0.014693802
-5.2365694 0.33008316 0.014618404
-5.2464166 0.36303481 0.014651914
-5.227138 0.39394391 0.014604441
-5.1827612 0.42260152 0.014487156
-5.0764675 0.44531953 0.014196733
-5.0865831 0.47767356 0.014233036
-5.076591 0.50817889 0.014213488
-5.052495 0.53710151 0.014154845
-5.0242605 0.56530094 0.014085032
-5.012753 0.5951764 0.014062691
-4.9832072 0.62270236 0.013990087
-4.9307079 0.64689934 0.013853253
-4.9286275 0.67741346 0.013858838
-4.9006219 0.70423162 0.013791817
-4.8714848 0.73058349 0.013722004
-4.864934 0.76015204 0.013716419
-4.8512945 0.78854567 0.013691287
-4.8039646 0.81114435 0.013571207
-4.7703314 0.83560586 0.013490224
-4.7414999 0.86057758 0.013423203
-4.7164731 0.88596511 0.013367353
-4.7080035 0.91431659 0.013358976
-4.709168 0.94456285 0.013378523
-4.7395167 0.98093396 0.013481847
-4.7373204 1.0108309 0.013493017
-4.739819 1.0418103 0.01351815
-4.7791805 1.0812386 0.013649398
-4.8075199 1.1186973 0.013749929
-4.809319 1.150267 0.013775062
-4.8099394 1.1816623 0.013797402
-4.8093863 1.212864 0.01381695
-4.8367071 1.2513636 0.013917481
-4.8666353 1.2910125 0.014026389
-4.8644118 1.3224227 0.014043144
-4.8533163 1.3514409 0.014034767
-4.843009 1.3806468 0.014029182
-4.8574867 1.4170552 0.014096202
-4.8362432 1.4431179 0.014059899
-4.8253837 1.472182 0.014054314
-4.8210335 1.50325 0.014068277
-4.8212476 1.5358371 0.014096202
-4.8288507 1.5709573 0.014146468
-4.8381019 1.6068584 0.014202318
-9.0617418 3.0708957 0.026684897
-9.0569067 3.13134 0.026726784
-9.0582705 3.1941679 0.02678822
-40.51646 14.564805 0.12019812
-40.399097 14.803158 0.12011714
-40.248489 15.028728 0.11994121
-40.154583 15.275048 0.11993842
-40.102058 15.537402 0.12006408
-40.772476 16.08556 0.12236512
-22.159346 8.9001408 0.066651486
-22.059887 9.0177794 0.06651745
-22.401165 9.3181028 0.06771823
-22.339884 9.4538193 0.067707062
-42.011505 18.082588 0.12769046
-41.889687 18.335615 0.12765974
-41.760864 18.585388 0.12761228
-44.445843 20.107904 0.13619369
-44.29528 20.368126 0.1361127
-44.13504 20.623446 0.13600659
-43.977859 20.879711 0.13591444
-43.739029 21.096163 0.13557376
-44.65406 21.876226 0.13882425
-46.152039 22.962278 0.14391781
-46.389614 23.43667 0.14510463
-47.734421 24.484863 0.14977932
-49.349224 25.696817 0.15533924
-94.550743 50.717659 0.29958981
-96.744453 52.661316 0.30755967
-96.348602 53.214779 0.30733347
-97.980499 54.903355 0.31360829
-101.11313 57.476749 0.32475883
-107.51665 62.87484 0.34778038
-107.11937 63.527748 0.34774968
-30.654976 21.657824 0.1047806
-31.789139 23.954023 0.11111963
-35.250614 26.902933 0.12379768
-17.007376 13.146212 0.059994113
-16.901194 13.230595 0.059904754
-49.465698 40.717899 0.1788802
-29.435528 24.534857 0.10697553
-29.335634 24.758221 0.10716262
-38.314495 32.740437 0.14070362
-29.037924 25.123547 0.10719334
-31.825146 27.878237 0.1181149
-6.4283504 6.6900368 0.025875065
