# .PCD v0.7 - Point Cloud Data file format
VERSION 0.7
FIELDS x y z
SIZE 4 4 4
TYPE F F F
COUNT 1 1 1
WIDTH 1447
HEIGHT 1
VIEWPOINT 0 0 0 1 0 0 0
POINTS 1447
DATA ascii
5.9980154 3.0662882 -0.093893386
6.0765543 3.0595531 -0.094828859
6.2313809 3.0897217 -0.096951105
6.312222 3.0816951 -0.097914495
6.4148259 3.0831866 -0.099212982
6.5429912 3.095506 -0.1009024
6.6080918 3.0768244 -0.10161448
6.6959338 3.0678711 -0.1026756
6.9379702 3.127393 -0.10609633
7.1014543 3.1487973 -0.10830236
7.1838841 3.132741 -0.10926575
7.3022223 3.1311574 -0.11077367
7.3581529 3.1018283 -0.11133216
18.528181 7.5437741 -0.27917153
18.691095 7.4767365 -0.28093076
19.482027 7.5171165 -0.29141635
19.451109 7.3683906 -0.29027146
20.424738 7.5942278 -0.30410799
20.563946 7.5026889 -0.30549023
20.965454 7.5037303 -0.31076795
28.230566 9.9089165 -0.41760656
28.290834 9.7355108 -0.41760656
26.847357 9.0549345 -0.39546254
19.212189 6.3488283 -0.28236887
26.878443 8.6995468 -0.39431763
26.897001 8.5235853 -0.39381498
26.988907 8.3708296 -0.3944014
27.050285 8.2082644 -0.394555
27.078094 8.0355902 -0.39423385
27.164343 7.8801546 -0.39477837
27.295876 7.737052 -0.39599308
17.963531 4.9729919 -0.2600992
17.960888 4.8538079 -0.25962448
17.906216 4.7213326 -0.25840977
17.89127 4.6001687 -0.25778148
17.914309 4.4890881 -0.25771165
17.90946 4.3712597 -0.25725091
17.887302 4.2497315 -0.25655279
17.899403 4.136745 -0.25635731
17.882498 4.0174146 -0.25575694
17.903881 3.9069746 -0.25571507
17.925562 3.7966306 -0.25568715
17.944601 3.6857653 -0.2556313
17.9708 3.5763705 -0.25568715
18.099428 3.4866514 -0.257209
18.674891 3.4787998 -0.2650837
19.123968 3.4411714 -0.27115723
19.651098 3.4116716 -0.27833378
20.356085 3.405525 -0.28802356
30.350199 4.8861618 -0.42908347
30.36874 4.698163 -0.42892987
30.387104 4.5102673 -0.42879024
30.410246 4.3231678 -0.42873439
30.433231 4.1360888 -0.42869252
30.460018 3.9495332 -0.42872044
30.484671 3.7626822 -0.42873439
30.47739 3.5720692 -0.42831555
30.501717 3.3853271 -0.42835742
30.505011 3.196337 -0.42812008
30.521063 3.0088074 -0.42807817
30.558865 2.8233168 -0.42835742
30.5786 2.6360154 -0.42839932
5.0872226 0.40729785 -0.071093149
5.167407 0.3818194 -0.072182201
5.1287498 0.34733734 -0.07160975
5.1218023 0.31530878 -0.071484089
5.121644 0.28376552 -0.071456164
5.1252861 0.25243264 -0.071484089
5.1766877 0.22313052 -0.072182201
5.1799574 0.19143653 -0.072210126
5.1250668 0.1579271 -0.071428239
5.1289377 0.12655118 -0.071470127
5.1966 0.096316829 -0.072405592
5.2430854 0.064997479 -0.073047854
5.2633829 0.032949634 -0.073327094
17.424273 -0.03229586 -0.58066314
17.427746 -0.13924038 -0.58079642
17.435556 -0.2462991 -0.58109641
17.41573 -0.3529132 -0.58049649
17.404247 -0.45953041 -0.5801965
17.483009 -0.56897491 -0.58292955
17.521135 -0.67785913 -0.58432937
24.392923 -1.093395 -0.81387043
24.410709 -1.2443179 -0.8147037
24.571245 -1.4037049 -0.8203364
24.63299 -1.5589247 -0.82270283
24.909113 -1.729906 -0.83226842
24.993702 -1.8899449 -0.83546805
25.019487 -2.0463626 -0.83673459
25.062212 -2.2047441 -0.83860105
25.122845 -2.3655064 -0.84110075
25.153601 -2.5242023 -0.8426339
25.225094 -2.6878107 -0.84556693
25.291553 -2.8519435 -0.84836662
25.362898 -3.0177009 -0.85136628
25.343904 -3.1732678 -0.85136628
5.3766575 -0.70725232 -0.18044111
5.3969693 -0.7436372 -0.18127435
5.390327 -0.77645361 -0.18120769
5.3894148 -0.81010723 -0.18134101
5.3863173 -0.8434698 -0.18140766
5.380054 -0.87634319 -0.18137434
5.3637357 -0.90750539 -0.18100771
5.3826766 -0.94471592 -0.18184096
5.3689117 -0.97629607 -0.18157431
5.3500514 -1.0068194 -0.18114103
5.3467159 -1.0401999 -0.18124102
5.3441525 -1.0737742 -0.18137434
14.466393 -2.9979901 -0.492273
14.455544 -3.0883682 -0.49253961
14.464629 -3.1832359 -0.49350619
14.465296 -3.2765648 -0.4942061
14.447839 -3.3659408 -0.49430609
14.431773 -3.4556911 -0.49447274
14.502499 -3.5668499 -0.49763906
14.481309 -3.6560133 -0.49767238
14.484727 -3.751565 -0.49857229
21.552658 -5.7231827 -0.74324501
21.3204 -5.8017898 -0.73644578
20.907001 -5.8273206 -0.72338057
20.603666 -5.879262 -0.7141149
20.399313 -5.9565544 -0.70828223
20.307793 -6.0653086 -0.70638245
20.23196 -6.1781263 -0.70504928
17.369619 -5.4209008 -0.60639358
16.742794 -5.3382535 -0.58562922
16.570023 -5.3954024 -0.58072978
16.137316 -5.3642607 -0.56669801
15.786081 -5.3553052 -0.55549926
15.433687 -5.3415923 -0.54423386
15.141442 -5.3447165 -0.53506821
14.775458 -5.3177247 -0.52326953
14.666549 -5.3804069 -0.52056986
14.196997 -5.3072324 -0.50503826
14.067027 -5.3572545 -0.50157195
13.879209 -5.3834772 -0.49603924
13.725998 -5.4211812 -0.49173972
13.680422 -5.5004539 -0.49130642
13.649189 -5.5854273 -0.49140641
13.619273 -5.6709929 -0.49157307
13.598024 -5.7602992 -0.492073
13.582618 -5.8523264 -0.49280626
13.573916 -5.9475894 -0.49380615
13.594685 -6.056386 -0.49590591
13.590043 -6.1545291 -0.49710578
13.592879 -6.2566037 -0.49860561
13.565097 -6.3449712 -0.49900559
13.526813 -6.428514 -0.4990389
13.554618 -6.5439792 -0.50153863
13.559078 -6.6490254 -0.50320512
13.549339 -6.7476897 -0.50437164
13.61025 -6.8825626 -0.50820452
15.933729 -8.1805487 -0.59689468
15.782195 -8.2255058 -0.59309506
15.484058 -8.1913385 -0.58376276
15.281167 -8.2044096 -0.57799679
15.014634 -8.180398 -0.56979769
14.843449 -8.2056484 -0.56519818
14.568788 -8.1709337 -0.55663246
14.407183 -8.1969147 -0.55236632
14.050173 -8.1083298 -0.54056758
13.859556 -8.1121006 -0.53513485
13.653957 -8.1046591 -0.52910221
13.533753 -8.1460247 -0.52636921
13.451096 -8.2091303 -0.52510267
13.351176 -8.2610111 -0.52316952
13.259596 -8.3172865 -0.52156973
13.209156 -8.399025 -0.52160305
13.171654 -8.4891205 -0.52216965
13.146093 -8.5872698 -0.52323622
13.129825 -8.6920443 -0.52470273
13.097825 -8.7869196 -0.52556926
13.099869 -8.9053268 -0.52783567
13.109182 -9.0297585 -0.53043538
13.070742 -9.122036 -0.53113532
13.085524 -9.2522612 -0.53403503
13.076446 -9.3667145 -0.53600144
13.103665 -9.5084028 -0.53950107
13.107891 -9.6347942 -0.54210079
13.050932 -9.7168322 -0.54220074
14.25176 -11.024279 -0.60046095
14.105955 -11.050502 -0.59716129
14.006565 -11.112 -0.59582812
13.821245 -11.103846 -0.59082866
13.6226 -11.082484 -0.58522928
13.573629 -11.181748 -0.58606255
13.448735 -11.218093 -0.58362949
13.409428 -11.325551 -0.58492935
13.365509 -11.429701 -0.58606255
13.320817 -11.533737 -0.58719575
13.358023 -11.710123 -0.59199518
13.3218 -11.823709 -0.59359503
13.292863 -11.944639 -0.59556144
13.352399 -12.147033 -0.60156077
13.368777 -12.312688 -0.6056937
13.298094 -12.399256 -0.60592699
13.315522 -12.569116 -0.61022651
14.580724 -13.933475 -0.67215294
14.311778 -13.845482 -0.66365385
5.0458302 -4.9423127 -0.235135
5.0118613 -4.9696622 -0.23496836
4.9636378 -4.9826207 -0.23413512
4.9049287 -4.9844909 -0.23280193
4.888186 -5.0288253 -0.23346853
4.8960052 -5.099092 -0.23533498
4.7091732 -4.9651656 -0.22780249
4.6389832 -4.9516678 -0.22586937
4.5908618 -4.960968 -0.2250028
4.5279651 -4.9536376 -0.22340298
4.4860973 -4.9687176 -0.22283638
4.4362326 -4.9745202 -0.22186983
4.3957157 -4.9903979 -0.22136988
4.3282723 -4.9750538 -0.21950342
4.2514129 -4.9477019 -0.21713701
4.1879888 -4.9348354 -0.2154372
4.1505675 -4.9520144 -0.21507058
4.1016207 -4.9550633 -0.21410401
4.0489974 -4.9530568 -0.21293749
4.0034609 -4.9591451 -0.21213757
3.9399328 -4.9422007 -0.21037111
3.8903668 -4.9419398 -0.20933789
3.8452475 -4.9467812 -0.20853797
3.8014328 -4.9528408 -0.20780472
3.7419922 -4.9378409 -0.20620491
3.6906648 -4.9327025 -0.20503837
3.6484506 -4.939178 -0.20437177
3.6115971 -4.9525895 -0.20400515
3.5647886 -4.9519467 -0.20307192
3.5256519 -4.9615073 -0.20257197
3.48768 -4.9724102 -0.20213869
3.4468627 -4.9789267 -0.20153876
3.3998942 -4.9760528 -0.20057219
3.3514144 -4.9703054 -0.19950564
3.3086717 -4.9724712 -0.1987724
3.2654803 -4.973465 -0.19800581
3.2240322 -4.9766331 -0.19733922
3.1810536 -4.976954 -0.19657265
3.1461902 -4.9896164 -0.19630601
3.1086516 -4.9977951 -0.19587272
3.0564945 -4.9818501 -0.1945062
3.0206938 -4.9919605 -0.1941729
2.9710534 -4.9786487 -0.19293971
2.936393 -4.9898939 -0.19267307
2.8976934 -4.9939871 -0.1921398
2.8560758 -4.9925885 -0.19140655
2.8116391 -4.9856453 -0.19047332
2.7785664 -4.998436 -0.19030668
2.7464032 -5.0127616 -0.19020668
2.712744 -5.0242424 -0.1900067
2.6743524 -5.0266762 -0.18947344
2.6202533 -4.998734 -0.18780695
2.5771482 -4.9907417 -0.18690705
2.5342405 -4.98241 -0.18600716
2.4960096 -4.9826756 -0.18544056
2.4636204 -4.9943118 -0.18530723
2.4268153 -4.9967489 -0.18484062
2.3952477 -5.0097423 -0.18477395
2.3636122 -5.0225363 -0.1847073
2.3310692 -5.0333171 -0.18457398
2.3482289 -5.153018 -0.18844022
2.3198383 -5.1746249 -0.18870685
2.3231356 -5.2683177 -0.19160652
2.2784362 -5.2540493 -0.1905733
2.1555791 -5.0555687 -0.18287417
2.1125379 -5.0401268 -0.18184096
2.0762415 -5.0400572 -0.18137434
2.0347738 -5.0267634 -0.18044111
2.0168219 -5.0716572 -0.18160765
1.9751168 -5.0569401 -0.18064108
1.9436928 -5.0680308 -0.18060775
1.909389 -5.071444 -0.18030779
1.8785818 -5.084002 -0.18034112
1.8296318 -5.046576 -0.17860797
1.7962872 -5.051116 -0.17837468
1.7543964 -5.0309019 -0.17727479
1.7273754 -5.0529199 -0.17767476
1.7138069 -5.1155438 -0.17950788
1.6892456 -5.1468534 -0.18024112
1.6349928 -5.0867133 -0.17777474
1.6109532 -5.1195297 -0.17857465
1.5789214 -5.1274076 -0.17850798
1.5474306 -5.1369991 -0.17850798
1.5054286 -5.1109262 -0.17727479
1.4701674 -5.1066213 -0.17680818
1.4360991 -5.1059251 -0.17647488
1.4044778 -5.113677 -0.17644155
1.3733332 -5.1231637 -0.17647488
1.3428842 -5.1353612 -0.1766082
1.3098667 -5.1376939 -0.17640822
1.2763891 -5.1378751 -0.17614159
1.2486017 -5.1611524 -0.17667486
1.2175975 -5.1716352 -0.17677484
1.1829405 -5.1663442 -0.17634156
1.1625129 -5.2242341 -0.1780747
1.1378284 -5.2654591 -0.17924124
1.1132971 -5.3095112 -0.18050776
1.0906583 -5.3652115 -0.18217425
1.0646727 -5.4071045 -0.18337411
1.0601139 -5.5637445 -0.18847354
1.0411724 -5.6527071 -0.19127323
1.036764 -5.8292184 -0.19703926
1.3602681 -7.9286776 -0.26786467
1.3349065 -8.0778809 -0.27263081
1.2616128 -7.9368773 -0.26759806
1.2118329 -7.9375529 -0.26736474
1.1623819 -7.9398952 -0.26719809
1.1130866 -7.9429178 -0.26706478
1.0652578 -7.9565325 -0.26729807
1.0164173 -7.9629197 -0.26729807
0.96536887 -7.9511471 -0.26669815
0.91690677 -7.9598994 -0.26679814
0.87292451 -8.0100861 -0.26829797
0.82549751 -8.0321932 -0.26886457
0.77610117 -8.0361109 -0.26883125
0.73155057 -8.0934782 -0.27059773
0.69035423 -8.1984015 -0.27396402
0.6450178 -8.2662525 -0.27609709
0.76417357 -10.631636 -0.35505497
0.69774401 -10.618174 -0.35445502
0.6315679 -10.605295 -0.35388842
0.56221503 -10.529128 -0.35122207
0.49188441 -10.411583 -0.34718919
0.418661 -10.187723 -0.33962336
0.35320473 -10.106197 -0.33682367
0.28879359 -10.025255 -0.3340573
0.22616144 -9.9778786 -0.33242416
0.16465218 -9.9620905 -0.33185756
0.10207035 -9.8239975 -0.32722473
0.040826753 -9.6015654 -0.31979224
-0.017639751 -9.3547726 -0.31155983
-0.074912064 -9.3384981 -0.31102654
-0.13177411 -9.3068819 -0.30999333
-0.18740216 -9.232954 -0.30756027
-0.24175921 -9.1447096 -0.30466059
-0.29679394 -9.1100893 -0.3035607
-0.34956017 -9.0272026 -0.300861
-0.40293071 -8.9799576 -0.29936117
-0.45904019 -8.9972792 -0.30002776
-0.51480758 -9.0042715 -0.30036107
-0.55988818 -8.840354 -0.29499501
-0.61225218 -8.8098316 -0.2940951
-0.65996873 -8.7221937 -0.29129541
-0.70508558 -8.6153793 -0.28786245
-0.73849738 -8.3898678 -0.28046328
-0.78808945 -8.3652782 -0.27979669
-0.83950281 -8.3612795 -0.27983001
-0.88581496 -8.3092604 -0.27826354
-0.93387187 -8.2778473 -0.27739695
-0.98476422 -8.272954 -0.2774303
-1.0288038 -8.2132034 -0.2756305
-1.0703243 -8.1393538 -0.27336407
-1.1097509 -8.0563946 -0.2707977
-1.1494814 -7.9821649 -0.26853129
-1.1920544 -7.9324622 -0.2670981
-1.2369964 -7.9013004 -0.2662982
-1.2734126 -7.8195767 -0.26379848
-1.3112053 -7.7515035 -0.26176536
-1.3578796 -7.73839 -0.26159871
-1.3851438 -7.6187944 -0.25783247
-1.4311268 -7.6062231 -0.25769916
-1.4756725 -7.5865068 -0.25733253
-1.5231786 -7.5822091 -0.25749919
-1.5599403 -7.5257449 -0.25589937
-1.6000338 -7.4876866 -0.25493279
-1.6427257 -7.4630866 -0.25443286
-1.687163 -7.4470181 -0.25423288
-1.7350925 -7.4462595 -0.25456616
-1.7830762 -7.4451928 -0.25489947
-1.8244296 -7.4166427 -0.25429952
-1.867457 -7.3956175 -0.25396624
-1.909794 -7.3724098 -0.25356629
-1.9580721 -7.3721442 -0.25396624
-2.0163898 -7.4082103 -0.25563273
-2.0636859 -7.4024377 -0.25586602
-2.1112614 -7.3973246 -0.25613266
-2.1580112 -7.3890281 -0.25629932
-2.198447 -7.3593674 -0.25573272
-2.2386003 -7.3294892 -0.25516611
-2.2841265 -7.317524 -0.25523275
-2.3329291 -7.3157501 -0.25566605
-2.3777738 -7.3012977 -0.25566605
-2.4067676 -7.2391491 -0.25399956
-2.4440777 -7.2034221 -0.2532663
-2.4954219 -7.2090693 -0.25399956
-2.5379457 -7.1889091 -0.25383291
-2.590807 -7.1976519 -0.2546995
-2.6397405 -7.194756 -0.25516611
-2.6869864 -7.1868491 -0.25546607
-2.7239203 -7.1515465 -0.25479949
-2.7511263 -7.0918345 -0.2532663
-2.7989943 -7.0859752 -0.25366628
-2.8502491 -7.0881414 -0.25436619
-2.8982291 -7.0816193 -0.25476614
-2.9412425 -7.0627799 -0.25473282
-3.0172668 -7.1219049 -0.25753251
-3.0518141 -7.0821457 -0.25676593
-3.0591159 -6.9808969 -0.25376627
-3.0990455 -6.9556046 -0.25353295
-3.1391923 -6.9309955 -0.25333297
-3.2129998 -6.9796963 -0.2558327
-3.2544956 -6.9571338 -0.25573272
-3.2872565 -6.9162717 -0.25496614
-3.3205078 -6.87707 -0.2542662
-3.3560421 -6.8431053 -0.25376627
-3.4068775 -6.8402777 -0.25443286
-3.4465296 -6.814785 -0.2542662
-3.4695652 -6.7570548 -0.25289968
-3.5049558 -6.7241173 -0.25246641
-3.5424097 -6.6954165 -0.25219977
-3.5838978 -6.6744351 -0.25223309
-3.6305215 -6.6628513 -0.25263306
-3.6761708 -6.6491966 -0.25296634
-3.7173891 -6.6273866 -0.25299969
-3.7624319 -6.6122708 -0.25329965
-3.8099267 -6.6011796 -0.25376627
-3.8589408 -6.5923419 -0.25433287
-3.9013588 -6.5719776 -0.25446618
-3.9431562 -6.5504847 -0.25456616
-3.9978523 -6.5500541 -0.25549939
-4.0469065 -6.5398493 -0.25606599
-4.097579 -6.5318289 -0.25673258
-4.152595 -6.530179 -0.25766581
-4.1952925 -6.5087771 -0.25783247
-4.2761412 -6.54567 -0.2603322
-4.3156724 -6.5184755 -0.26029888
-4.3700638 -6.5134525 -0.26116544
-4.4571428 -6.5559468 -0.26396513
-4.5766535 -6.6437097 -0.26863128
-4.6098971 -6.6048474 -0.26819798
-4.6480289 -6.573173 -0.26806468
-4.6917658 -6.5494051 -0.26826465
-4.7347984 -6.5245385 -0.26843131
-4.7830296 -6.5066376 -0.26889792
-4.8443494 -6.5060277 -0.27009776
-4.9064426 -6.5057068 -0.27133098
-4.9565806 -6.4889817 -0.27189758
-5.0066986 -6.4718862 -0.27246419
-5.0814447 -6.4858909 -0.27436396
-5.1211457 -6.4545894 -0.27436396
-5.1925764 -6.4627829 -0.27606377
-5.2504239 -6.4532843 -0.27703032
-5.2981825 -6.4309754 -0.27746361
-5.3567476 -6.421371 -0.27846351
-5.4173279 -6.413579 -0.2795634
-5.4812613 -6.4090834 -0.28082991
-5.5342212 -6.3911982 -0.28152984
-5.5970497 -6.3841767 -0.28272969
-5.7137356 -6.4371734 -0.28662926
-5.7638135 -6.413888 -0.28716254
-5.8124752 -6.3887515 -0.28762916
-5.8657846 -6.3684053 -0.28832906
-5.8822589 -6.3081708 -0.28722921
-5.9098778 -6.2603302 -0.28669593
-6.1346064 -6.4190497 -0.29569492
-6.1870804 -6.3949361 -0.29632819
-6.1506796 -6.2797337 -0.29272857
-6.1665783 -6.2191634 -0.29166204
-6.2669263 -6.2432861 -0.29459503
-6.4831944 -6.3799839 -0.30292743
-6.5659313 -6.3825817 -0.30496055
-6.6575937 -6.3927097 -0.30739361
-6.7387486 -6.391634 -0.30932674
-6.8427482 -6.4109864 -0.31229305
-6.9076281 -6.3926406 -0.3134596
-6.9636884 -6.3656464 -0.31422618
-7.0092916 -6.3288269 -0.31452614
-7.0606723 -6.297009 -0.31509274
-7.1036763 -6.2575312 -0.31529275
-7.1306291 -6.2039847 -0.31479278
-7.1647716 -6.1568584 -0.31462613
-7.1925092 -6.1043725 -0.31419286
-7.2145109 -6.0472832 -0.31352627
-7.2337747 -5.9882421 -0.31275967
-7.2580023 -5.9336219 -0.31222641
-7.3106027 -5.9021611 -0.31292632
-7.3412104 -5.8528318 -0.31269303
-7.3856225 -5.8144774 -0.31305966
-7.4377298 -5.7819338 -0.31375957
-7.4627604 -5.7282758 -0.3133263
-7.4714842 -5.6624541 -0.31222641
-7.5084882 -5.6183 -0.3123264
-7.5412126 -5.5709352 -0.31225973
-7.5679855 -5.5192575 -0.31195977
-7.5895429 -5.4639573 -0.31145984
-7.6416631 -5.4306035 -0.31222641
-7.6625681 -5.3750024 -0.31172645
-7.685544 -5.3210573 -0.3113265
-7.7518802 -5.2969203 -0.31269303
-7.8090935 -5.2660208 -0.3136929
-7.7697048 -5.1703839 -0.31082657
-7.8113084 -5.1291962 -0.31122652
-7.8535371 -5.0882354 -0.31165981
-7.9258709 -5.0663304 -0.31329295
-7.9720249 -5.0271993 -0.3138929
-7.9925375 -4.9718537 -0.31349292
-8.0126724 -4.9164457 -0.31309298
-8.038413 -4.8646007 -0.31292632
-8.0766926 -4.8203096 -0.31325963
-8.1069784 -4.7711682 -0.31329295
-8.1309147 -4.7183247 -0.31309298
-8.1597128 -4.668345 -0.31309298
-8.2047424 -4.6275201 -0.31372625
-8.2364769 -4.5790324 -0.31385955
-8.2889585 -4.5418572 -0.31479278
-8.3421726 -4.5046849 -0.31575936
-8.3811264 -4.4595175 -0.31619263
-8.424264 -4.4163618 -0.31679258
-8.4556437 -4.3668818 -0.3169592
-8.4511013 -4.2990541 -0.31579268
-8.4558764 -4.2363725 -0.31499276
-8.4835033 -4.1852932 -0.31505942
-8.4973373 -4.1274829 -0.31462613
-8.5207005 -4.0744038 -0.31455949
-8.5554867 -4.0267277 -0.31492612
-8.5383177 -3.9548309 -0.31339294
-8.5233183 -3.8845408 -0.31195977
-8.5396976 -3.828898 -0.31169313
-8.5813189 -3.7844944 -0.31235972
-8.6282177 -3.7421105 -0.31322628
-8.6703224 -3.6973324 -0.31392622
-8.7039061 -3.6487 -0.31432617
-8.7178135 -3.5917983 -0.31402621
-8.7017069 -3.5228591 -0.31265968
-8.6943703 -3.4579482 -0.31162646
-8.6930828 -3.3958061 -0.31082657
-8.7053566 -3.3391802 -0.31052661
-8.7621584 -3.2994409 -0.31182644
-8.7878637 -3.2476943 -0.31202644
-8.7813177 -3.1841705 -0.31109321
-8.7884493 -3.1258745 -0.31065992
-8.8112383 -3.0732076 -0.31079322
-8.8412781 -3.0229659 -0.3111932
-8.8852463 -2.9772353 -0.31209308
-8.9147415 -2.9264019 -0.31249306
-8.9296751 -2.870729 -0.31239307
-8.9280548 -2.8098814 -0.31172645
-8.9546795 -2.7579894 -0.31205976
-9.0144958 -2.7159703 -0.31355959
-9.0300322 -2.6603246 -0.31352627
-9.0749979 -2.6131659 -0.31452614
-9.1274204 -2.5677211 -0.31579268
-9.1324024 -2.508755 -0.31542605
-9.1263866 -2.4469767 -0.3146928
-9.149931 -2.393209 -0.31499276
-9.1760645 -2.3399851 -0.31539273
-9.2067385 -2.2877364 -0.31595933
-9.2439165 -2.2368448 -0.31675923
-9.304163 -2.191083 -0.31835905
-9.3554258 -2.1426568 -0.31965891
-9.3752251 -2.0867331 -0.31989223
-9.3810148 -2.0276899 -0.31965891
-9.3903456 -1.9694754 -0.31955892
-9.4237995 -1.916203 -0.32029217
-9.4804878 -1.8672308 -0.32182533
-9.4956923 -1.8097731 -0.32195866
-9.4908924 -1.748576 -0.32142538
-9.4876671 -1.6878566 -0.32095876
-9.539216 -1.6367108 -0.32235861
-9.5707722 -1.5817351 -0.32309186
-9.6000395 -1.5261197 -0.32375845
-9.6181145 -1.4685446 -0.32405841
-9.6318884 -1.4102256 -0.32422507
-9.6561956 -1.3533193 -0.32475835
-9.6781864 -1.2959025 -0.32522497
-9.7008276 -1.2383932 -0.3257249
-9.7270927 -1.1811371 -0.32635817
-9.7421007 -1.1223462 -0.32662481
-9.737875 -1.0613567 -0.32625818
-9.7889433 -1.0061878 -0.32775801
-9.7829943 -0.94495118 -0.32735807
-9.8164797 -0.88742745 -0.32829127
-9.832695 -0.8281014 -0.3286579
-9.8525362 -0.7689209 -0.32915786
-9.8740158 -0.7096715 -0.32972446
-9.901123 -0.650581 -0.33049104
-9.9308672 -0.59136295 -0.3313576
-9.957263 -0.53164428 -0.33212417
-10.010255 -0.47289902 -0.33379066
-10.020957 -0.4117972 -0.3340573
-10.022295 -0.35026702 -0.33402398
-10.036244 -0.28911087 -0.33442393
-10.064808 -0.22813745 -0.33532384
-10.075012 -0.1665259 -0.3356238
-10.137806 -0.10535153 -0.33769023
-10.169244 -0.043278966 -0.33872345
-10.193305 0.019162722 -0.33952338
-10.237969 0.082064956 -0.34102321
-10.262257 0.14523439 -0.34185645
-10.26417 0.20826031 -0.34195644
-10.287677 0.27189472 -0.34278965
-10.283816 0.33494863 -0.34272301
-10.304538 0.39893046 -0.34348959
-10.325859 0.4632239 -0.34428951
-10.344782 0.52769226 -0.34502274
-10.364299 0.59246713 -0.34578934
-10.363461 0.65623939 -0.34588933
-10.380177 0.72126967 -0.34658924
-10.377548 0.78509825 -0.34665591
-10.37652 0.84908468 -0.34678921
-10.374102 0.91300052 -0.3468892
-10.368305 0.97663766 -0.3468892
-10.427752 1.0468228 -0.34908897
-10.41318 1.1099396 -0.34882233
-10.392271 1.1722453 -0.34835571
-10.394807 1.2371695 -0.34868902
-10.414787 1.3044035 -0.34962225
-10.416496 1.3695852 -0.34995553
-10.410867 1.4338828 -0.35005552
-10.395938 1.4968814 -0.34985554
-10.347023 1.5547038 -0.34852237
-10.295816 1.6116734 -0.34712252
-10.247262 1.6685551 -0.34582266
-10.226976 1.7297336 -0.34548935
-10.244719 1.7974596 -0.34645593
-10.226613 1.8590353 -0.34622261
-10.20028 1.9189788 -0.34572268
-10.156919 1.9754266 -0.34465611
-10.099533 2.0286601 -0.34312296
-10.060472 2.0851166 -0.34222305
-10.017188 2.1403353 -0.34118983
-9.9667749 2.1935983 -0.33992332
-9.9043903 2.2436743 -0.33825684
-9.8047781 2.2844524 -0.33532384
-9.7380896 2.3320048 -0.33352402
-9.6915703 2.383837 -0.33242416
-9.6089268 2.4261363 -0.33009109
-9.5377426 2.4705181 -0.32815796
-9.4934254 2.5212998 -0.32715806
-9.4662037 2.576354 -0.32675812
-9.432888 2.6295593 -0.3261582
-9.436758 2.6931474 -0.3268581
-9.4143 2.7493191 -0.32665813
-9.3886337 2.8044584 -0.32635817
-9.3683815 2.8611376 -0.32625818
-9.3477879 2.9176741 -0.3261582
-9.292572 2.9631367 -0.32485834
-9.255209 3.0139108 -0.32419175
-9.2204189 3.0652843 -0.32362515
-9.2042761 3.1227651 -0.32372513
-9.1915531 3.1814706 -0.32395843
-9.1577215 3.2328196 -0.32345849
-9.1198454 3.2825196 -0.32282522
-9.0685682 3.3270581 -0.32172534
-9.0376854 3.3787901 -0.32135871
-8.9990368 3.4274232 -0.32072547
-8.9573374 3.4746251 -0.31999221
-8.9246931 3.5251157 -0.31959224
-8.8750772 3.5686264 -0.31859237
-8.8335876 3.6150677 -0.31789243
-8.804781 3.6665125 -0.31765914
-8.7535887 3.7083845 -0.31662592
-8.6902828 3.7446265 -0.31515941
-8.657073 3.7934668 -0.31479278
-8.5742912 3.8200803 -0.31262636
-8.5370331 3.8664351 -0.31212643
-8.5077009 3.9162376 -0.31192645
-8.447298 3.9514298 -0.31059325
-8.4201851 4.0019002 -0.31049326
-8.3792706 4.0456696 -0.30989334
-8.3390341 4.0895271 -0.30932674
-8.2949963 4.1312623 -0.3086268
-8.2694912 4.1820817 -0.3086268
-8.235672 4.2286353 -0.30832684
-8.1776638 4.2624607 -0.30712697
-8.1407537 4.3069501 -0.30672702
-8.0983238 4.3483105 -0.3061271
-8.0723686 4.398397 -0.30616042
-8.0531006 4.4521966 -0.30646038
-8.0212727 4.4990816 -0.30629373
-7.9856973 4.543767 -0.30599377
-7.9334283 4.5786939 -0.30506054
-7.8801699 4.6126461 -0.30409399
-7.8139024 4.6384668 -0.30262747
-7.7741623 4.6796246 -0.30219418
-7.7342114 4.72047 -0.30176091
-7.6949024 4.7615271 -0.30136096
-7.6553812 4.8022799 -0.30096099
-7.6089029 4.8384371 -0.3002944
-7.5631094 4.8747468 -0.29966113
-7.5087895 4.9052119 -0.29869458
-7.4827175 4.9539509 -0.29886124
-7.4579902 5.0036683 -0.29909453
-7.4064832 5.0352888 -0.29826128
-7.3565168 5.0676007 -0.29749471
-7.3105307 5.1023488 -0.29689479
-7.2790856 5.1471095 -0.29689479
-7.2400541 5.1864386 -0.29659483
-7.1935334 5.2201996 -0.29599488
-7.1275434 5.2393808 -0.29459503
-7.1032782 5.2889843 -0.29492834
-7.0603175 5.3246469 -0.29449505
-7.0298963 5.3696876 -0.29459503
-7.0102553 5.4231167 -0.29516163
-6.9862895 5.473424 -0.29556161
-6.9564886 5.5192938 -0.29572824
-6.9193754 5.5593705 -0.29559493
-6.864975 5.5853243 -0.29472837
-6.8236327 5.621623 -0.29442838
-6.7989883 5.6717086 -0.29486167
-6.7556596 5.7062259 -0.29449505
-6.6931739 5.7241874 -0.29329517
-6.6654816 5.7716899 -0.29362848
-6.629941 5.8124795 -0.29362848
-6.5866766 5.846417 -0.29329517
-6.5529099 5.8887258 -0.29339516
-6.5410514 5.9510164 -0.29449505
-6.5044136 5.9910393 -0.29449505
-6.4697242 6.0328817 -0.29459503
-6.4354925 6.0752096 -0.29472837
-6.4045978 6.1207967 -0.29502833
-6.3611736 6.1544204 -0.29476169
-6.2925868 6.1632667 -0.29332852
-6.2638783 6.2109084 -0.29376179
-6.2298832 6.2534742 -0.29396176
-6.1906943 6.2908702 -0.29392844
-6.1589446 6.3359027 -0.29426175
-6.1178756 6.3714118 -0.29416177
-6.064909 6.3943281 -0.29349515
-6.0159931 6.4212117 -0.29302856
-5.9696913 6.4506688 -0.29269525
-5.9394393 6.4975042 -0.29316187
-5.9041481 6.5390177 -0.29339516
-5.8745589 6.5870552 -0.29392844
-5.8194962 6.6064787 -0.29319519
-5.7781935 6.6413083 -0.29316187
-5.7321229 6.6705737 -0.29289523
-5.6891451 6.7033339 -0.29279524
-5.640202 6.7289243 -0.29239529
-5.602632 6.7680244 -0.29259527
-5.5768151 6.8216176 -0.29342851
-5.519156 6.8362679 -0.29259527
-5.4471974 6.8324952 -0.29099545
-5.4175372 6.881495 -0.29166204
-5.3930016 6.9374886 -0.29262859
-5.3844137 7.0148439 -0.29449505
-5.3412704 7.04775 -0.29449505
-5.2841525 7.0619864 -0.29372847
-5.2341886 7.0854344 -0.29336184
-5.1894364 7.1158023 -0.29329517
-5.1649489 7.1742754 -0.29439506
-5.13936 7.2319007 -0.29546162
-5.0776687 7.2387538 -0.29446173
-3.5555365 5.1358676 -0.20790471
-3.5329792 5.1707897 -0.20843798
-1.439602 2.1356599 -0.085485034
-1.4353309 2.1577652 -0.086018309
-1.4264531 2.1732149 -0.086284943
-1.4038522 2.1676676 -0.085718341
-1.3668381 2.1391897 -0.084251836
-1.3419569 2.1289387 -0.083518587
-1.3315085 2.1413755 -0.083685234
-1.3037071 2.125654 -0.082752004
-1.3206557 2.1832049 -0.084685124
-1.2816222 2.1483579 -0.083018638
-1.2674019 2.1544588 -0.082951978
-1.2526535 2.1596017 -0.082851991
-1.2368969 2.1629097 -0.082685344
-1.2172188 2.159142 -0.082252055
-1.18112 2.1255159 -0.080685563
-1.1666149 2.1300938 -0.080585577
-1.1501983 2.1310561 -0.080352269
-1.1300577 2.1248393 -0.079852328
-1.1146781 2.1273074 -0.079685681
-1.0997696 2.1305549 -0.07955236
-1.0798779 2.1239011 -0.079052418
-1.0730938 2.1429968 -0.079519033
-1.0581554 2.1459558 -0.079385713
-1.041911 2.1461153 -0.079152405
-1.0200987 2.1344354 -0.078485809
-1.0065572 2.13975 -0.078452483
-0.98584688 2.1295626 -0.077852547
-0.96156877 2.1110172 -0.076952651
-0.94655293 2.1123178 -0.076786004
-0.92470038 2.0979683 -0.076052748
-0.91300327 2.1063533 -0.076152742
-0.89692491 2.1045613 -0.075886101
-0.87781137 2.0952778 -0.075352825
-0.8634153 2.0969284 -0.075219512
-0.84903204 2.0984812 -0.075086191
-0.83761775 2.1073658 -0.075219512
-0.82539886 2.1143274 -0.075286172
-0.81455803 2.1249511 -0.075486146
-0.8000952 2.1261678 -0.075352825
-0.78807378 2.1338494 -0.075452819
-0.77803278 2.1471009 -0.075752787
-0.77020365 2.1669004 -0.076286055
-0.79804444 2.2895441 -0.080452256
-0.79594731 2.3293877 -0.081685454
-0.7816394 2.3342276 -0.081685454
-0.75389552 2.2981482 -0.080252282
-0.7504884 2.3360319 -0.08141882
-0.72863799 2.3167598 -0.080585577
-0.69645953 2.262923 -0.07855247
-0.68227303 2.266197 -0.078519143
-0.66213983 2.2492497 -0.077785887
-0.65026253 2.2599928 -0.078019194
-0.64640003 2.2995372 -0.079252392
-0.63095415 2.2986417 -0.079085745
-0.61088341 2.2802672 -0.078319162
-0.59384483 2.2723696 -0.077919208
-0.56778616 2.2285175 -0.076286055
-0.56687897 2.2833657 -0.078052528
-0.5754301 2.3800547 -0.081252173
-0.55875307 2.3747854 -0.080952205
-0.52408409 2.2904906 -0.077952541
-0.48026252 2.160012 -0.073386379
-0.45960724 2.1287277 -0.072219841
-0.44017515 2.1011853 -0.071186624
-0.42767268 2.1058054 -0.071253285
-0.41628924 2.1162345 -0.071519926
-0.40423235 2.1236577 -0.071686573
-0.39246228 2.1329784 -0.071919881
-0.37866673 2.1314104 -0.07178656
-0.36507425 2.1307387 -0.071686573
-0.35199341 2.1329384 -0.071686573
-0.33889934 2.1350582 -0.071686573
-0.32624525 2.1400614 -0.07178656
-0.31310794 2.1420231 -0.07178656
-0.29995883 2.1439037 -0.07178656
-0.28719655 2.1486757 -0.071886547
-0.27388048 2.1494062 -0.07185322
-0.26044574 2.1490617 -0.07178656
-0.24759781 2.1535981 -0.071886547
-0.23383713 2.1501091 -0.0717199
-0.22033314 2.1485209 -0.071619913
-0.20618434 2.139884 -0.071286619
-0.19269018 2.1371276 -0.071153298
-0.1791537 2.1332901 -0.070986651
-0.1658272 2.1313598 -0.070886657
-0.15253116 2.1293466 -0.07078667
-0.13992204 2.1372235 -0.071019977
-0.12734091 2.1470208 -0.071319945
-0.11459147 2.155746 -0.071586579
-0.10178695 2.1653936 -0.071886547
-0.088498428 2.1659772 -0.071886547
-0.07499674 2.1604865 -0.071686573
-0.061709985 2.1599069 -0.071653239
-0.048137903 2.1462564 -0.071186624
-0.03486833 2.1405156 -0.070986651
-0.021733716 2.1406891 -0.070986651
-0.0085766986 2.1357851 -0.070820004
0.0045265779 2.134798 -0.07078667
0.017601525 2.1317317 -0.070686683
0.030695332 2.1325829 -0.07072001
0.043820459 2.1343529 -0.07078667
0.056968465 2.1360421 -0.07085333
0.070106372 2.1366513 -0.070886657
0.083910108 2.1541576 -0.071486592
0.097215652 2.1555991 -0.071553253
0.11023691 2.1509693 -0.071419932
0.12371782 2.1552415 -0.071586579
0.13637191 2.1454649 -0.071286619
0.14932603 2.1415966 -0.071186624
0.16291581 2.1466196 -0.071386606
0.17535111 2.1366143 -0.071086638
0.18915829 2.1434629 -0.071353272
0.20249411 2.1442523 -0.071419932
0.21654512 2.1519194 -0.0717199
0.23006256 2.1535316 -0.071819887
0.24472761 2.1649904 -0.072253175
0.25777102 2.1614633 -0.072186515
0.2720218 2.1677744 -0.072453149
0.28479698 2.1621008 -0.072319835
0.29792172 2.1593225 -0.072286502
0.31059596 2.153497 -0.072153188
0.32410061 2.1535273 -0.072219841
0.33761731 2.1534729 -0.072286502
0.35178781 2.1572797 -0.072486483
0.36518461 2.1560659 -0.072519809
0.37978834 2.16166 -0.07278645
0.38982841 2.1415887 -0.072186515
0.40462413 2.1479967 -0.072486483
0.41588891 2.1356626 -0.072153188
0.42819822 2.1291511 -0.072019868
0.44165993 2.1284411 -0.072086528
0.45533779 2.128623 -0.072186515
0.46903452 2.1287174 -0.072286502
0.48650226 2.1452947 -0.072953098
0.49965638 2.1422691 -0.072953098
0.51442057 2.1459668 -0.073186405
0.53115809 2.1573279 -0.073686346
0.5482989 2.169533 -0.074219622
0.56160063 2.1661279 -0.074219622
0.57718945 2.171335 -0.07451959
0.59312564 2.1773963 -0.074852884
0.60593808 2.1717906 -0.074786223
0.62117207 2.1747591 -0.075019531
0.63422436 2.1699476 -0.074986205
0.64695495 2.1640997 -0.074919544
0.65963775 2.1581776 -0.074852884
0.67584485 2.1636302 -0.075186178
0.68910789 2.1594427 -0.075186178
0.70667666 2.1684787 -0.075652793
0.72217554 2.1707408 -0.075886101
0.73933387 2.1776264 -0.076286055
0.75627691 2.1834383 -0.076652683
0.77232111 2.1862965 -0.076919317
0.78639829 2.1833973 -0.076985978
0.80425477 2.1907289 -0.077419266
0.81908143 2.1894977 -0.077552579
0.8335675 2.1872327 -0.077652574
0.84950215 2.1885996 -0.077885881
0.8632822 2.1842754 -0.077919208
0.88076919 2.1891379 -0.078285836
0.89494187 2.1855423 -0.078352496
0.90718287 2.177242 -0.078252502
0.92052501 2.1716347 -0.078252502
0.93620527 2.1714528 -0.078452483
0.95231885 2.1720755 -0.07868579
0.96766192 2.1707563 -0.078852437
0.98343682 2.1702406 -0.079052418
0.99840605 2.1677971 -0.079185732
1.021427 2.1824527 -0.079952314
1.036086 2.1788523 -0.080052301
1.0563875 2.1868551 -0.080585577
1.075946 2.1928952 -0.081052192
1.0907176 2.1889362 -0.081152178
1.1126968 2.1991487 -0.081785448
1.1298211 2.1993928 -0.082052082
1.1460664 2.197737 -0.082252055
1.1693437 2.2092159 -0.082951978
1.181459 2.1993577 -0.082851991
1.2078412 2.2157638 -0.083751895
1.2272161 2.2188075 -0.084151849
1.2427628 2.2147224 -0.084285162
1.2632476 2.2192173 -0.084751777
1.2763412 2.2105587 -0.084718451
1.2984629 2.2173495 -0.085285053
1.312554 2.2101998 -0.085318387
1.3307292 2.2098114 -0.085618347
1.3510313 2.2126954 -0.086051635
1.3687894 2.2111635 -0.086318269
1.3887037 2.2128832 -0.086718224
1.4054729 2.2093813 -0.086918205
1.4254998 2.2107971 -0.08731816
1.4455967 2.21205 -0.087718114
1.4635557 2.2098055 -0.087984756
1.4843253 2.2115736 -0.088418037
1.5062951 2.2148228 -0.088917986
1.5294942 2.2195315 -0.089484587
1.5476598 2.2166617 -0.089751221
1.5843107 2.2397671 -0.091084406
1.6096632 2.2462544 -0.091751002
1.6421977 2.2622216 -0.092817545
1.6927451 2.3020327 -0.094883986
1.8954351 2.5449336 -0.10541614
1.9200408 2.5452254 -0.10591608
1.9580666 2.5627851 -0.10714928
1.9951566 2.578392 -0.10831582
2.0244987 2.5834107 -0.10904907
2.0415545 2.572506 -0.10911573
2.0610561 2.564606 -0.10931571
2.0849526 2.5619903 -0.10974899
2.0885601 2.534492 -0.10911573
2.1002312 2.517024 -0.10891575
2.1008039 2.4865274 -0.10814917
2.0939372 2.4477642 -0.10701596
2.0945249 2.4182467 -0.10628271
2.1139352 2.4106102 -0.10651602
2.1207259 2.388624 -0.10611606
2.1006072 2.3369079 -0.10438292
2.0826252 2.2884874 -0.1027831
2.1047525 2.2844877 -0.10318306
2.1364508 2.2905366 -0.10404963
2.1600692 2.28756 -0.10451625
2.1885645 2.2894373 -0.10521616
2.2178588 2.2917688 -0.10594942
2.2472634 2.2938266 -0.10668267
2.2711468 2.2899313 -0.10714928
2.2929428 2.2837121 -0.10751591
2.3140354 2.2766109 -0.1078492
3.7805083 3.6745558 -0.17540833
3.8181221 3.6658275 -0.17610826
3.8369176 3.6388917 -0.1759416
3.8577149 3.6139135 -0.17587495
3.8834839 3.5935698 -0.1760416
3.9069362 3.571022 -0.17610826
3.9406419 3.5576997 -0.17664152
3.9623973 3.5334535 -0.17664152
3.9960024 3.5196452 -0.17717481
4.022047 3.4989963 -0.17737478
4.041925 3.4729488 -0.17730813
4.0608726 3.4461422 -0.17720814
4.0880685 3.4262969 -0.17747477
4.1105547 3.4024234 -0.17754143
4.1352229 3.3803005 -0.17770807
4.1621065 3.3598866 -0.17797472
4.1920218 3.3417625 -0.17837468
4.2108769 3.3147411 -0.17830801
4.2555962 3.3078587 -0.17934123
4.2821546 3.2865531 -0.17960787
4.3125944 3.268065 -0.18004115
4.3373671 3.2451348 -0.18024112
4.3571968 3.2184601 -0.18024112
4.4018946 3.2099223 -0.18127435
4.4377289 3.1945324 -0.18194094
4.4564323 3.1666639 -0.18190761
4.4954147 3.1530361 -0.18270752
4.5532956 3.1521351 -0.18427402
4.6162844 3.1540253 -0.18604048
4.667037 3.1468768 -0.187307
4.7012343 3.1281488 -0.18790694
4.7445664 3.115154 -0.1888735
4.7795272 3.0963097 -0.18950677
4.8060145 3.07177 -0.18980673
4.8222361 3.0406234 -0.18970674
4.8365593 3.0083377 -0.18954009
4.8642974 2.9843547 -0.18990672
4.9115882 2.9720473 -0.19103992
4.9803648 2.9720778 -0.19300637
5.0596604 2.9774587 -0.19537278
5.1037669 2.9614079 -0.19637266
5.2094555 2.9801698 -0.19973895
5.2729092 2.9736836 -0.20147209
5.3958755 2.999557 -0.20547165
5.429955 2.9750378 -0.20607159
5.4903178 2.9644611 -0.2076714
5.5701642 2.9635849 -0.21000448
5.6785288 2.9766903 -0.21340409
5.7357578 2.961973 -0.2148706
5.7814384 2.940773 -0.21590382
5.8503056 2.9307644 -0.21780361
5.9389839 2.9297502 -0.22043665
6.0035949 2.9159646 -0.22216979
6.1079311 2.920469 -0.22536942
6.2016935 2.9186935 -0.22816911
6.2947545 2.9154553 -0.23093547
6.3880067 2.9111841 -0.23370183
6.4695854 2.9005604 -0.2360349
6.626255 2.9221194 -0.24110101
6.7274976 2.9176004 -0.24413401
6.8353662 2.9146926 -0.2474003
7.0356188 2.9492149 -0.25399956
7.1256595 2.9356916 -0.25659928
7.301949 2.9560587 -0.26229864
7.4601779 2.9669826 -0.26733142
7.5154786 2.9357007 -0.2686646
20.564457 7.8890138 -0.73411268
20.620893 7.7658544 -0.73441267
20.670033 7.639874 -0.73447931
20.709003 7.5101752 -0.7342127
20.836617 7.4121099 -0.73711234
20.805267 7.2574534 -0.73441267
20.841843 7.1270709 -0.734146
19.088459 6.3968763 -0.67095304
19.094114 6.2687192 -0.66978651
19.148396 6.1566429 -0.67035311
20.948505 6.5939331 -0.73197961
21.058296 6.4867516 -0.73441267
19.209671 5.7884331 -0.66865331
21.159321 6.2346258 -0.73521256
21.210623 6.1085496 -0.73567915
21.237123 5.9753113 -0.73531252
18.169235 4.9919224 -0.62795788
18.273853 4.9002786 -0.63052422
18.445711 4.8252468 -0.63542372
18.550508 4.7312436 -0.63802338
18.595678 4.621429 -0.63858998
18.619799 4.5063004 -0.6384567
18.581921 4.3766131 -0.63622361
18.589914 4.2582731 -0.63559031
18.593256 4.1391315 -0.63482374
18.145496 3.9227381 -0.61869222
18.440172 3.8681717 -0.6279245
18.376394 3.7372222 -0.62495822
18.217569 3.588654 -0.61879224
18.314842 3.4912183 -0.62135857
21.809452 4.018971 -0.73914546
21.859283 3.8896282 -0.74001205
20.543087 3.5254824 -0.69468373
20.57715 3.4014854 -0.69511706
22.130507 3.5189486 -0.74687791
22.219852 3.3935053 -0.74917769
22.267946 3.2611589 -0.75011092
22.305351 3.1269619 -0.75071084
22.363743 2.9953485 -0.75204402
22.447134 2.8664279 -0.75424379
22.49803 2.7327394 -0.75537699
22.58189 2.6024253 -0.7576434
22.63022 2.4673922 -0.75874329
22.695641 2.3337045 -0.76044309
22.723457 2.1957488 -0.76090968
22.761389 2.0585303 -0.76174295
22.844301 1.9247903 -0.76410931
22.93041 1.790421 -0.76660907
5.0740952 0.36437213 -0.16924235
5.125103 0.33644539 -0.1708755
5.1071177 0.30380252 -0.17020892
5.1028972 0.27214003 -0.17000894
5.1274323 0.24191032 -0.17077552
5.2037153 0.21352701 -0.17327523
5.2079239 0.1816985 -0.17337523
5.2209291 0.15008599 -0.17377518
5.2337422 0.1183207 -0.17417514
5.2223783 0.086005852 -0.17377518
17.431353 0.1816128 -0.58092976
17.42914 0.074639663 -0.5808298
18.832359 -0.011375373 -0.94351101
18.8589 -0.12711042 -0.9448629
18.886726 -0.24319734 -0.94631493
18.93281 -0.35999149 -0.94871831
18.912271 -0.47570199 -0.94781703
18.903008 -0.5915491 -0.94751662
17.628511 -0.65994471 -0.8837775
18.951199 -0.82595295 -0.95037061
19.071461 -0.94847202 -0.9566794
19.076254 -1.0660876 -0.95723021
19.077326 -1.1836121 -0.95763075
19.095612 -1.3024135 -0.95893258
19.163952 -1.425262 -0.96278793
19.193672 -1.5459507 -0.96474069
19.217655 -1.6666259 -0.96644306
19.235907 -1.7871916 -0.96789509
19.257376 -1.908438 -0.96954739
19.327744 -2.0352454 -0.97370321
19.337723 -2.1563458 -0.97485483
19.364794 -2.2797475 -0.97690767
19.388105 -2.4031937 -0.97881037
5.3827939 -0.70060116 -0.27152148
5.3991747 -0.73645157 -0.27257293
5.4064193 -0.77125949 -0.27317378
5.4203539 -0.80721408 -0.2741251
5.433064 -0.84321547 -0.27502638
5.4583526 -0.88147354 -0.27657855
5.3838935 -0.90337682 -0.27307364
5.3989115 -0.9399932 -0.2741251
5.3714194 -0.96920002 -0.27302358
5.3437724 -0.99810505 -0.27192202
5.3346057 -1.0303068 -0.27177182
5.3791142 -1.0731832 -0.27437547
14.485498 -2.9829264 -0.74082762
14.474739 -3.0734112 -0.74122816
14.449754 -3.160888 -0.74092776
14.462241 -3.2567317 -0.74258006
14.515932 -3.3625395 -0.7463854
14.53389 -3.460799 -0.74838817
14.538759 -3.6510553 -0.75089169
14.493838 -3.7344627 -0.74974006
19.566156 -5.1697044 -1.0139595
19.560097 -5.2967119 -1.0153114
19.426176 -5.3885984 -1.010054
19.30916 -5.483954 -1.005698
19.218565 -5.5858831 -1.0027438
19.078623 -5.67239 -0.99723613
18.872414 -5.7373466 -0.98827356
17.177311 -5.337358 -0.90115178
17.129959 -5.4381223 -0.9004007
16.687748 -5.4106665 -0.87887061
16.138443 -5.3422117 -0.85163254
15.974785 -5.3970184 -0.84472287
15.636384 -5.3898048 -0.82855028
15.277017 -5.3710265 -0.81122607
14.893094 -5.3389449 -0.79254991
14.671503 -5.3613219 -0.78248584
14.382816 -5.3560872 -0.76881677
14.066742 -5.3368869 -0.75364554
13.893991 -5.3690948 -0.74613506
13.769707 -5.4184046 -0.74122816
13.643489 -5.4656496 -0.73622119
13.557905 -5.5281439 -0.73341727
13.537567 -5.6169715 -0.73416829
13.522171 -5.7080874 -0.73521978
13.508917 -5.8004079 -0.73642147
13.491378 -5.8911815 -0.73742288
13.467755 -5.9795265 -0.73812383
13.465405 -6.0776644 -0.74002647
13.459631 -6.1747484 -0.74177897
13.418774 -6.2559528 -0.74162877
13.455954 -6.3740873 -0.74583465
13.478686 -6.4864159 -0.74928945
13.461064 -6.5799627 -0.75054121
13.510789 -6.7072902 -0.75559825
13.489891 -6.8004055 -0.75674987
16.095507 -8.2382212 -0.90585834
15.933874 -8.2792625 -0.89959961
15.814752 -8.3409977 -0.8957442
15.377604 -8.2314281 -0.87381357
15.169716 -8.2402916 -0.864851
15.00691 -8.2715044 -0.85844207
14.674315 -8.2059746 -0.84226948
14.488172 -8.2189817 -0.83445853
14.208071 -8.1757174 -0.82119
14.115373 -8.2380743 -0.81873655
13.719049 -8.1200237 -0.79860842
13.600461 -8.1629314 -0.79460281
13.486131 -8.2072859 -0.79084754
13.403219 -8.2699509 -0.7889449
13.244688 -8.2847691 -0.78258598
13.157336 -8.3428822 -0.780433
13.115139 -8.4293976 -0.78098375
13.096644 -8.531518 -0.78298658
13.180739 -8.7019625 -0.79119807
13.171091 -8.8121099 -0.79385173
13.171333 -8.9297514 -0.79715639
13.138519 -9.0256701 -0.79850829
13.112402 -9.1266575 -0.80031079
13.123084 -9.2541409 -0.80441654
13.08312 -9.3466806 -0.80546802
13.065978 -9.4560585 -0.80797148
13.036707 -9.5573111 -0.80977404
13.092482 -9.7222719 -0.81693405
14.604965 -10.985122 -0.91557193
14.397894 -11.10861 -0.91106564
14.107533 -11.023332 -0.89694589
14.04198 -11.111545 -0.8970961
13.846498 -11.095694 -0.88893467
13.720767 -11.133874 -0.88522953
13.625185 -11.195662 -0.88347709
13.58464 -11.302689 -0.88532966
13.517323 -11.38776 -0.88547987
13.491266 -11.50808 -0.88838392
13.47331 -11.636341 -0.8918888
13.482104 -11.78914 -0.8972463
13.429704 -11.889518 -0.89859819
13.472517 -12.07569 -0.90640914
13.437367 -12.193701 -0.90906286
13.495417 -12.398223 -0.91812551
13.424939 -12.486238 -0.91852605
15.062641 -14.182835 -1.0365912
5.0847754 -4.9066672 -0.35363626
5.0631456 -4.9461493 -0.35423711
5.0327015 -4.9771233 -0.35423711
4.9801884 -4.9860034 -0.35268494
4.9270554 -4.9937162 -0.35108271
4.8628621 -4.9895215 -0.34867936
4.795445 -4.9811306 -0.34602565
4.7565327 -5.0017757 -0.3454248
4.6731019 -4.9748135 -0.34156939
4.6275444 -4.9872861 -0.34046787
4.5347748 -4.9478459 -0.33586141
4.6122422 -5.0947876 -0.3439227
4.4191279 -4.94207 -0.3317557
4.4032655 -4.9855618 -0.33285722
4.3174443 -4.9492631 -0.32865134
4.2765646 -4.9635549 -0.32785022
4.2240224 -4.96384 -0.32614785
4.1761365 -4.9690204 -0.32479596
4.1296225 -4.975338 -0.3235442
4.0781236 -4.9750929 -0.3218919
4.0205002 -4.9666409 -0.31973889
3.9812195 -4.9802952 -0.31903791
3.914696 -4.9591603 -0.31613386
3.8713 -4.9665446 -0.31508237
3.827961 -4.9735837 -0.31403092
3.7925379 -4.9906163 -0.31363034
3.7492576 -4.997016 -0.31257889
3.698909 -4.9934421 -0.31092656
3.6463878 -4.9862151 -0.30907398
3.6063712 -4.9955382 -0.30827287
3.5646393 -5.0021181 -0.30732152
3.521239 -5.0059242 -0.30622
3.4653962 -4.9913373 -0.30401692
3.4160757 -4.9853177 -0.30236459
3.3792682 -4.9970837 -0.30181381
3.3380103 -5.0019398 -0.30086249
3.2984679 -5.0089808 -0.30006137
3.2562447 -5.0115376 -0.29900992
3.1947114 -4.9834962 -0.2961559
3.1523297 -4.9844337 -0.29505438
3.1164002 -4.9952087 -0.29455367
3.0778403 -5.0014772 -0.29380262
3.0372484 -5.004046 -0.2928513
2.9946897 -5.0028777 -0.29169968
2.9547982 -5.0056767 -0.29079843
2.9169953 -5.0116282 -0.29009745
2.8807216 -5.0199032 -0.28954667
2.8444567 -5.0279222 -0.28899589
2.8004196 -5.021729 -0.287644
2.7618575 -5.0248132 -0.28684288
2.7190824 -5.0197096 -0.28559116
2.6783552 -5.017796 -0.28453967
2.6382194 -5.0164561 -0.28353828
2.6000385 -5.0183606 -0.28273717
2.5682895 -5.0324402 -0.282637
2.5265989 -5.0266871 -0.28143534
2.489949 -5.0304589 -0.28078443
2.4515979 -5.0303793 -0.27993324
2.4090223 -5.0210147 -0.27858135
2.3687863 -5.0158329 -0.2774798
2.3358607 -5.0257444 -0.27722946
2.34776 -5.1335359 -0.28238666
2.3313785 -5.1815448 -0.28423926
2.2756951 -5.1418672 -0.28128514
2.1926885 -5.0375981 -0.27482608
2.1570218 -5.0399394 -0.27422526
2.1539416 -5.1193624 -0.2778303
2.1205812 -5.1278677 -0.27757993
2.131937 -5.2462649 -0.28328791
2.0226884 -5.0663128 -0.27287337
1.9908347 -5.0767689 -0.27277324
1.9556992 -5.0786362 -0.27222246
1.9389793 -5.1288443 -0.27427533
1.8907974 -5.0956988 -0.27187195
1.8509538 -5.0837421 -0.27062023
1.8197258 -5.0950041 -0.27062023
1.7656516 -5.0410333 -0.26716539
1.722363 -5.0158763 -0.26526272
1.6982425 -5.0462289 -0.26631418
1.6706872 -5.0669875 -0.26686496
1.6555231 -5.1265659 -0.26946861
1.6396899 -5.1861467 -0.27207226
1.5744809 -5.088294 -0.26641434
1.53889 -5.0835204 -0.2656633
1.5173068 -5.1254282 -0.26736566
1.4841638 -5.1288853 -0.26706523
1.4572843 -5.1542335 -0.26791644
1.4203153 -5.1438236 -0.26691502
1.3879471 -5.149549 -0.26676482
1.3601332 -5.1724567 -0.26751587
1.3224175 -5.1574864 -0.26631418
1.294378 -5.180038 -0.26706523
1.2620972 -5.1859417 -0.26696509
1.2341661 -5.2101097 -0.26781631
1.2010533 -5.212718 -0.26756594
1.1764656 -5.2531261 -0.26926833
1.153125 -5.3012352 -0.27137128
1.1329505 -5.3668437 -0.27437547
1.1106122 -5.4255533 -0.27702919
1.1180913 -5.6379972 -0.28754386
1.1015462 -5.7389135 -0.29235059
1.072507 -5.7789516 -0.29405299
1.4240873 -7.9452596 -0.40405679
1.3734376 -7.9430227 -0.40350601
1.5841151 -9.5088587 -0.48266667
1.5274786 -9.5292473 -0.48321745
1.4632035 -9.5009289 -0.48131478
1.4005013 -9.4800882 -0.47981268
1.3442644 -9.502347 -0.48051366
1.4183978 -10.490262 -0.530083
1.352599 -10.487872 -0.52953219
1.279341 -10.423608 -0.52587712
1.2094653 -10.380668 -0.52332354
1.1346911 -10.287627 -0.51826644
1.0628623 -10.210953 -0.51406056
0.9899745 -10.112912 -0.50880325
0.92525995 -10.089953 -0.50735122
0.85873765 -10.041705 -0.50464743
0.78605109 -9.9073982 -0.4976376
0.71868837 -9.8223867 -0.49313131
0.65420091 -9.7638311 -0.48997691
0.5877915 -9.6609936 -0.48461941
0.52435881 -9.5886259 -0.4808141
0.45990083 -9.4759445 -0.47500598
0.39739513 -9.3758097 -0.46984875
0.34260586 -9.453927 -0.47365409
0.285732 -9.4937859 -0.47555673
0.22508433 -9.3955145 -0.47054973
0.16458739 -9.2369452 -0.46253854
0.10685981 -9.1478996 -0.45803225
0.050071336 -9.0295343 -0.4520739
-0.0053399415 -9.0396595 -0.45257461
-0.059659716 -8.8696737 -0.44406271
-0.11385019 -8.8511639 -0.44316146
-0.16764478 -8.8233376 -0.44180956
-0.2214791 -8.8101616 -0.44120872
-0.27459553 -8.7786894 -0.43970662
-0.32587644 -8.7079744 -0.43625179
-0.3743425 -8.592061 -0.43054381
-0.42487201 -8.5457125 -0.42834073
-0.47016472 -8.4153042 -0.42193177
-0.51715183 -8.3374987 -0.4181765
-0.56279421 -8.253458 -0.41412085
-0.61053652 -8.2110052 -0.41216812
-0.65697724 -8.1583242 -0.4097147
-0.70659184 -8.1491642 -0.40946433
-0.75639606 -8.1426868 -0.40936419
-0.79895639 -8.0633507 -0.40560895
-0.83586478 -7.9391074 -0.39960054
-0.8801347 -7.8941255 -0.39759773
-0.91384077 -7.7635975 -0.39128894
-0.95740545 -7.7251358 -0.38963661
-1.0025959 -7.7022791 -0.38878542
-1.048082 -7.6831174 -0.38813451
-1.089138 -7.634027 -0.3859815
-1.1253638 -7.5560751 -0.38237646
-1.171706 -7.5490289 -0.38237646
-1.2172076 -7.5367675 -0.38212612
-1.2571474 -7.4917278 -0.38022345
-1.2976089 -7.4523864 -0.37862122
-1.3360384 -7.4039874 -0.37656835
-1.3783252 -7.3789597 -0.37571716
-1.4171349 -7.3370228 -0.37401477
-1.4621273 -7.3281894 -0.37401477
-1.5076691 -7.3220143 -0.37416497
-1.5500784 -7.3009024 -0.37356415
-1.5895104 -7.2668619 -0.3723124
-1.6349469 -7.2608695 -0.37251267
-1.6787918 -7.2477822 -0.37236246
-1.7174476 -7.2130551 -0.37111071
-1.7647589 -7.2149935 -0.37176162
-1.8031576 -7.1807814 -0.37055993
-1.8421998 -7.150239 -0.36955854
-1.8732811 -7.0905204 -0.36705503
-1.9266729 -7.1155257 -0.3689577
-1.9801745 -7.1391788 -0.3708103
-2.0272169 -7.138423 -0.37141114
-2.0709794 -7.1258497 -0.37141114
-2.1277571 -7.1570458 -0.37371436
-2.1681459 -7.1323886 -0.37311351
-2.2287614 -7.1733155 -0.3759675
-2.2763605 -7.170928 -0.37656835
-2.2796555 -7.0314188 -0.36995909
-2.3202453 -7.0097132 -0.36955854
-2.3833528 -7.0549555 -0.37271294
-2.4386392 -7.0751343 -0.37456554
-2.4776988 -7.0477896 -0.37391463
-2.5178633 -7.0239925 -0.37346399
-2.5585146 -7.0018444 -0.37311351
-2.5773783 -6.9214334 -0.36965868
-2.6378682 -6.9531121 -0.37221226
-2.6452 -6.8454986 -0.3673054
-2.6842275 -6.8217044 -0.36690482
-2.7379198 -6.8347731 -0.36850706
-2.7862165 -6.8335667 -0.36935827
-2.8457017 -6.8587766 -0.37166148
-2.8830714 -6.8301454 -0.37106064
-2.9166508 -6.7930546 -0.37000918
-2.9642725 -6.7887592 -0.37076023
-3.0212731 -6.80513 -0.37266287
-3.0424273 -6.7409487 -0.37015939
-3.0783176 -6.7103524 -0.36950848
-3.1232319 -6.6994848 -0.36995909
-3.1762524 -6.7054677 -0.37136105
-3.2013118 -6.652554 -0.36950848
-3.253475 -6.6561146 -0.3708103
-3.2924783 -6.6324487 -0.37061
-3.3209734 -6.5880418 -0.36925814
-3.3526878 -6.5506487 -0.36830679
-3.397424 -6.538816 -0.36880749
-3.4416749 -6.5257978 -0.36925814
-3.4774094 -6.4966321 -0.36880749
-3.514823 -6.4707851 -0.36855716
-3.5684421 -6.474462 -0.37000918
-3.617851 -6.4698787 -0.37101057
-3.6530461 -6.4397397 -0.37055993
-3.6904981 -6.4137416 -0.37035966
-3.7323 -6.3952894 -0.37061
-3.778084 -6.383441 -0.37126091
-3.8223207 -6.3687024 -0.37176162
-3.8649609 -6.3511014 -0.37211213
-3.9001863 -6.3213167 -0.37176162
-3.9309552 -6.2845659 -0.37101057
-3.9576757 -6.2417717 -0.36990902
-4.0045404 -6.2308125 -0.37071016
-4.0655928 -6.2412715 -0.37281311
-4.105463 -6.218708 -0.37296331
-4.1485415 -6.200871 -0.37341392
