# .PCD v0.7 - Point Cloud Data file format
VERSION 0.7
FIELDS x y z
SIZE 4 4 4
TYPE F F F
COUNT 1 1 1
WIDTH 1515
HEIGHT 1
VIEWPOINT 0 0 0 1 0 0 0
POINTS 1515
DATA ascii
-56.065155 -0.063508295 3.2614453
-60.060719 3.9916501 3.5016341
-56.525341 7.6118641 3.3179057
-56.53688 7.9669123 3.3213909
-55.685932 8.1957722 3.2742825
-56.592739 8.6843348 3.3306847
-7.625576 1.2659535 0.44905919
-58.043133 10.738781 3.4338467
-57.018879 11.638629 3.3853443
-54.104912 11.737225 3.2206104
-57.063614 15.345986 3.4375062
-57.294201 16.544689 3.4691634
-8.9279051 2.998822 0.54728389
-8.9367228 3.0629332 0.54896837
-8.8989134 3.1111205 0.54780668
-8.8956423 3.1713641 0.54879415
-8.8797684 3.2272511 0.54902649
-66.236336 27.825113 4.1795063
-6.8443918 3.074774 0.43587351
-6.8362937 3.1216891 0.43657053
-6.7853169 3.1488678 0.4345375
-6.7785091 3.1964037 0.43535072
-6.7794762 3.2478566 0.43668672
-6.7998142 3.3090525 0.43930063
-59.715057 31.362501 3.9238665
-59.121983 31.982735 3.9103904
-62.341286 40.457108 4.3235035
-62.287045 40.967232 4.3370957
-50.607258 35.094166 3.582607
-7.5185623 7.8788567 0.63296181
-7.4974666 7.9538994 0.63528532
-7.4512424 8.002676 0.63551766
-7.4053774 8.051919 0.63580811
-7.4196024 8.1674061 0.64132631
-44.302769 51.88187 3.9688838
-43.827843 51.968048 3.9548268
-42.854538 51.451263 3.8954041
-42.442272 51.596828 3.8866329
-41.936676 51.624592 3.8692651
-41.449211 51.669128 3.8534656
-41.122093 51.910748 3.8525941
-40.812641 52.174671 3.8535235
-39.717945 51.422287 3.7798696
-40.184444 52.691418 3.8549757
-39.127159 51.963234 3.7840519
-39.605091 53.275116 3.86183
-39.283955 53.525978 3.862469
-39.84684 54.997246 3.9509351
-39.828625 55.688126 3.9829409
-18.42844 26.103357 1.858476
-18.219984 26.147139 1.8535968
-18.003765 26.177832 1.8479043
-17.803556 26.229988 1.8438382
-17.555054 26.208511 1.8347186
-17.156855 26.30657 1.8267026
-16.936235 26.319839 1.8203712
-16.514479 26.370012 1.8096832
-16.322985 26.423285 1.8064303
-16.113796 26.446215 1.8012025
-15.897232 26.454742 1.7951034
-15.718323 26.524303 1.7932446
-15.518006 26.556465 1.7889463
-15.315893 26.58371 1.7844155
-14.850747 26.145933 1.7488663
-14.923653 26.653807 1.7766899
-14.739085 26.707291 1.7741922
-15.006269 28.842833 1.8910627
-27.220692 53.926075 3.5140646
-26.773756 53.859657 3.4989619
-26.460331 54.058788 3.5012856
-26.225212 54.421581 3.514297
-26.054234 54.926025 3.5364861
-25.828213 55.323669 3.551821
-25.561199 55.639862 3.5619862
-25.40229 56.200474 3.5878348
-25.185139 56.643539 3.6061902
-24.965101 57.089703 3.624778
-24.698729 57.438072 3.6372085
-24.481495 57.909454 3.6574807
-24.501509 58.962952 3.7144639
-24.144165 59.124191 3.715219
-23.787994 59.28883 3.7163227
-24.143766 61.260593 3.8305793
-23.485279 60.678596 3.7850974
-23.108973 60.812229 3.7845166
-22.861349 61.290543 3.8054857
-22.623819 61.809345 3.829011
-22.336918 62.205379 3.8449848
-22.113323 62.791367 3.8727503
-21.83906 63.248596 3.892616
-21.55105 63.678329 3.9108551
-21.344687 64.366539 3.9450102
-21.041243 64.779243 3.9623201
-12.001053 37.733566 2.3031883
-21.66782 69.604088 4.2409039
-21.357552 70.120598 4.2643132
-11.228086 37.691658 2.287621
-10.669342 37.491501 2.2673488
-20.113106 72.360718 4.3692179
-10.226239 37.685123 2.2712986
-19.562695 73.882713 4.4462986
-19.243773 74.523323 4.4776659
-18.862167 74.942047 4.4957886
-18.231958 76.386528 4.5686874
-17.550407 77.743866 4.6366491
-7.0462894 38.926506 2.301039
-6.8248301 39.069321 2.3069639
-6.5649219 38.991344 2.2999353
-6.5237427 40.253841 2.372021
-6.1281977 39.340233 2.3159091
-5.8545189 39.161854 2.3032463
-5.6364794 39.353176 2.3124239
-5.4639964 39.891453 2.3420482
-4.9491444 39.755386 2.3303146
-3.967216 37.48391 2.1924748
-3.5161266 37.628174 2.1982255
-3.5111072 51.080894 2.9784467
-2.8850138 51.138073 2.9794922
-1.6351228 51.381062 2.9904125
-1.0011984 51.229572 2.980654
14.83294 77.510033 4.5910511
15.265842 77.203087 4.57833
15.803156 77.420959 4.5969176
16.31883 77.516945 4.6084771
16.283026 75.059235 4.4681973
16.49474 73.845261 4.4018626
16.35088 67.349411 4.0318499
16.663607 66.845818 4.0077438
16.749088 65.474358 3.9315922
16.846756 64.212563 3.8619461
17.020582 63.290462 3.8126886
7.816925 28.372101 1.7116327
8.0331535 28.473488 1.7206943
17.837294 61.770424 3.7402544
18.282442 61.8848 3.7539048
18.695595 61.88327 3.7607009
5.1545572 16.691704 1.0157535
5.2058067 16.497915 1.0058788
5.316432 16.495119 1.0076795
5.4278431 16.493481 1.0095963
5.5308504 16.465544 1.0099448
5.6473141 16.476627 1.012733
5.7562141 16.464283 1.0141271
5.8772445 16.485073 1.0176123
5.9857864 16.469343 1.0188901
6.1196713 16.521238 1.0244085
6.2389069 16.531012 1.0273708
6.3527598 16.525034 1.0294039
6.4762368 16.542448 1.0329472
6.5994263 16.557114 1.0363743
6.715157 16.551462 1.0385816
6.8512592 16.593916 1.0438675
6.9831071 16.623356 1.0483983
7.0826211 16.574688 1.0480497
7.1989112 16.564795 1.0501989
7.3347149 16.597927 1.0551363
7.4601488 16.605425 1.0585054
7.5776563 16.593845 1.0607127
7.6940408 16.578732 1.0627457
7.813931 16.570036 1.0652434
7.9603157 16.615412 1.0712844
8.059495 16.560871 1.070936
27.685053 56.010773 3.6346526
28.078815 55.940666 3.6412165
28.528513 55.977238 3.6549249
29.006781 56.062698 3.6720605
29.491343 56.152348 3.689719
31.126696 55.889629 3.7215505
33.351013 55.785946 3.7810314
33.641964 55.496597 3.7753389
22.57365 34.321407 2.3895051
38.764729 57.391739 4.0290036
39.14547 57.195644 4.0320239
18.62335 26.507011 1.8842084
18.704018 26.277563 1.8760183
18.793665 26.063515 1.8689317
18.896706 25.870316 1.8633554
16.855667 22.49135 1.6346679
16.986713 22.378756 1.6340289
17.080505 22.217913 1.6299047
16.901886 21.708595 1.6001062
17.115126 21.70639 1.6076574
17.14521 21.472244 1.5980731
17.179344 21.246315 1.5890697
17.249302 21.067125 1.5835515
17.296047 20.861748 1.5760583
17.245926 20.543434 1.5599682
17.401396 20.472219 1.5626403
17.358669 20.169842 1.5476539
17.040718 19.556414 1.5085615
16.988676 19.256844 1.493459
17.03336 19.070341 1.4870694
17.081085 18.8892 1.4810865
17.15959 18.743538 1.4778917
17.1623 18.517086 1.4683074
17.160151 18.288399 1.4584907
17.159971 18.064783 1.4490225
17.173613 17.85841 1.4408904
17.22089 17.689037 1.4357207
17.249216 17.501982 1.4290988
17.313269 17.352705 1.4255555
17.271145 17.09935 1.4134154
17.314358 16.933025 1.40842
17.359772 16.770287 1.4037149
17.434179 16.636574 1.4014496
17.512684 16.507374 1.3995907
17.601952 16.388723 1.3986614
17.65662 16.238512 1.3950599
17.753708 16.127855 1.3948858
17.745335 15.92261 1.3865212
17.778448 15.756483 1.3815258
17.867281 15.640525 1.3809448
17.948565 15.518192 1.3798412
18.069256 15.429811 1.3818161
18.21167 15.359198 1.3854756
18.430605 15.351306 1.3949438
18.970083 15.604493 1.4285179
19.271587 15.655235 1.443969
19.464622 15.614778 1.4512298
19.770569 15.661801 1.4668552
20.074671 15.703194 1.4822482
20.427423 15.778051 1.5011264
20.648478 15.74746 1.510246
21.275209 15.816296 1.5417871
21.428999 15.727393 1.5459113
22.200132 16.08469 1.5944138
22.403971 16.023666 1.601965
22.744087 16.056896 1.6192168
23.114115 16.106525 1.6385015
23.458452 16.133543 1.6558695
23.93532 16.246078 1.6824732
24.285872 16.267244 1.7000735
24.55596 16.230768 1.7119813
24.8148 16.183952 1.7230759
25.553354 16.443026 1.7673379
25.891441 16.436808 1.7837185
26.190641 16.402147 1.7973688
26.650053 16.46307 1.8219395
27.653578 16.617628 1.876483
27.771339 16.457306 1.8775866
37.227356 21.753336 2.5080602
37.253735 21.463205 2.5009155
37.29966 21.185898 2.495223
37.395851 20.938101 2.4930158
37.39164 20.635414 2.4842446
37.467564 20.378407 2.4809337
37.458153 20.076445 2.4721045
37.561214 19.835972 2.4708266
37.599854 19.562277 2.4654245
37.554817 19.246965 2.4546785
37.550114 18.95454 2.4467206
37.565586 18.674009 2.4402149
37.640007 18.423849 2.437659
37.692089 18.163511 2.4337673
37.732475 17.898521 2.4292364
37.803596 17.648926 2.4267969
38.484505 17.680023 2.4635077
39.377335 17.798397 2.5136366
40.305878 17.921072 2.5658565
40.858704 17.867413 2.5940285
42.280876 18.181101 2.6772089
43.192539 18.259909 2.7278023
43.975822 18.273806 2.7701476
45.310787 18.503326 2.8470545
46.278648 18.568069 2.9006686
47.766308 18.825506 2.9866369
48.411594 18.737455 3.0197463
48.503258 18.431543 3.0183523
48.532192 18.102535 3.0131826
48.666729 17.81333 3.0146928
48.672699 17.477606 3.0083613
48.723465 17.159061 3.0049343
48.77216 16.840553 3.001507
48.827293 16.524973 2.9986029
48.930611 16.226007 2.9987772
1.4165785 0.46034148 0.08595892
1.3727601 0.4368149 0.083112672
1.3935251 0.43402138 0.084216319
1.389477 0.4234266 0.083809711
1.3882219 0.41375291 0.083577365
1.3830665 0.40299413 0.083112672
1.3797522 0.39286071 0.082764149
1.3754038 0.38251591 0.082357541
1.3700172 0.37197784 0.081892848
1.3684136 0.36254248 0.081660502
1.3599796 0.35139361 0.081021547
1.3805044 0.34767193 0.082125194
1.3719462 0.33657986 0.08148624
1.3652463 0.32606956 0.080963463
1.3652763 0.31723481 0.080847286
1.3623282 0.30775252 0.080556855
1.3622406 0.29895994 0.080440678
1.3728372 0.29246652 0.080963463
1.3540744 0.27979821 0.079743639
1.3655548 0.27344316 0.080324508
1.3554457 0.26278085 0.079627462
1.3462392 0.25243682 0.078988507
1.3408861 0.24292699 0.078581907
1.3512024 0.23624094 0.079104684
1.353611 0.22811143 0.079162769
1.3510433 0.21916272 0.078930423
1.3434849 0.20948586 0.078407645
1.3546184 0.20271441 0.078988507
1.3637425 0.19553113 0.079453208
1.3649167 0.18715967 0.079453208
1.3729686 0.17968698 0.079859808
1.3710732 0.17088924 0.079685554
1.3701131 0.16223879 0.079569377
1.3740592 0.15416236 0.079743639
1.3759719 0.14583346 0.079801723
1.3788276 0.13758585 0.0799179
1.37567 0.12875143 0.079685554
1.3734505 0.12004773 0.079511292
1.3751564 0.11169881 0.079569377
1.256353 0.094311178 0.072598971
1.0666794 0.073525749 0.061504398
0.90271056 0.056692891 0.051920086
0.83825409 0.047498114 0.048144449
0.81858873 0.041351579 0.046982713
0.80985099 0.035932109 0.046459932
0.80008024 0.030583566 0.045879062
0.80923313 0.025959538 0.046401843
0.81037515 0.021019312 0.046459932
0.81148696 0.01606605 0.046518017
0.81057209 0.01107318 0.046459932
0.81062484 0.006099395 0.046459932
0.81694669 -0.026362672 0.031355936
0.81377393 -0.031262226 0.031239204
0.8165617 -0.036385879 0.031355936
0.83129311 -0.042142496 0.031939603
0.84099567 -0.047801629 0.032328714
0.84268111 -0.053085059 0.032406535
0.83835191 -0.05798202 0.032250892
0.84096974 -0.063347787 0.032367624
0.8405652 -0.06850668 0.032367624
0.84311551 -0.0739225 0.032484356
0.84264606 -0.079094365 0.032484356
0.81131983 -0.081203319 0.031278115
0.80881888 -0.085970342 0.031200293
0.76458108 -0.086051837 0.029488208
0.75907683 -0.09015663 0.029293653
0.86025381 -0.11817845 0.033340398
66.640915 -10.356683 2.6257091
66.588936 -10.767463 2.626215
0.80005419 -0.13507484 0.031122472
62.533875 -10.900874 2.471349
62.69001 -11.324868 2.4802208
62.540768 -11.694621 2.477108
1.003505 -0.19469094 0.039332695
1.0111105 -0.20260593 0.039682895
1.0000616 -0.20678914 0.039293785
0.99584168 -0.21229838 0.039177053
1.0081861 -0.22139655 0.039721806
1.0194809 -0.2304344 0.040227648
1.0199947 -0.23713681 0.040305473
1.0175484 -0.24315928 0.040266562
1.0170078 -0.24963586 0.040305473
1.0222408 -0.2575762 0.040577848
1.0225763 -0.26434267 0.040655669
1.0247992 -0.27163377 0.040811315
1.0260066 -0.27870071 0.040928047
1.0290914 -0.28632718 0.041122604
1.0292375 -0.29318246 0.041200425
1.0255003 -0.29893413 0.041122604
1.0179001 -0.30351129 0.040889136
1.0188867 -0.31062371 0.041005868
1.0121906 -0.31538633 0.040811315
1.009284 -0.32128859 0.040772405
0.99588788 -0.3237752 0.040305473
1.001471 -0.33239314 0.040616758
0.99751943 -0.33789182 0.040538937
0.99259347 -0.34302875 0.040422205
0.98481423 -0.34712324 0.040188737
0.97890347 -0.35181001 0.040033095
0.97766489 -0.35815293 0.040072005
0.96514893 -0.3603074 0.039643984
0.96478838 -0.36693189 0.039721806
0.96624678 -0.37428617 0.039877452
0.97044045 -0.38277024 0.040149827
0.95508838 -0.38351309 0.039605074
0.93791366 -0.38332722 0.038982496
0.92354643 -0.3840946 0.038476653
0.91564924 -0.38742161 0.038243186
0.92151779 -0.39658222 0.038593385
0.90807897 -0.39742875 0.038126454
0.89375162 -0.39771986 0.037620611
0.92863309 -0.42005688 0.039215963
0.92967087 -0.42741421 0.039371606
0.93880337 -0.4386014 0.039877452
0.94602722 -0.44906074 0.040305473
0.94685537 -0.4565908 0.040461116
0.94942188 -0.46502587 0.040694583
0.9456557 -0.47039819 0.040655669
0.94275165 -0.47619176 0.040655669
0.93892258 -0.48151201 0.040616758
0.92353779 -0.48081183 0.040072005
0.9258728 -0.48926732 0.040305473
0.92285335 -0.49493918 0.040305473
0.93648064 -0.5096575 0.041044779
0.93508595 -0.51635909 0.041122604
0.91969121 -0.515257 0.040577848
0.90000039 -0.51151973 0.039838538
0.88905072 -0.51254576 0.039488342
0.88416326 -0.51698363 0.039410517
16.100164 -9.6676769 0.73082036
15.976529 -9.727313 0.72790205
15.885081 -9.8057404 0.72646236
15.689931 -9.8187466 0.72027552
15.574542 -9.8800421 0.71774626
15.411085 -9.9094906 0.71299917
15.240321 -9.9323959 0.70790178
15.139069 -9.9992895 0.70603406
14.985252 -10.0303 0.70171493
14.887865 -10.097942 0.70004177
14.697978 -10.101381 0.69401056
14.607019 -10.171392 0.69264865
14.502691 -10.231452 0.69066423
14.390048 -10.284805 0.68829066
14.262729 -10.326615 0.68521667
14.104821 -10.344796 0.68066406
13.978514 -10.38467 0.67762905
13.850654 -10.422183 0.67451614
13.768959 -10.493648 0.6736601
13.609387 -10.504672 0.66899079
13.513971 -10.563979 0.66747326
13.69883 -10.844542 0.67988586
13.684269 -10.970265 0.68249291
13.753242 -11.164863 0.68934125
13.834233 -11.372135 0.69689
13.840998 -11.520728 0.70078111
14.00768 -11.805701 0.7128824
14.025433 -11.968613 0.71751285
14.060615 -12.148516 0.72311598
14.112914 -12.345745 0.72969198
14.200723 -12.577192 0.73821348
14.19396 -12.727461 0.74191004
14.28873 -12.971473 0.75101519
14.32953 -13.169791 0.75739664
14.388914 -13.388151 0.76486754
14.510163 -13.668023 0.77576262
14.528715 -13.854718 0.78128797
14.636822 -14.13029 0.79175502
14.738512 -14.40421 0.80202752
14.799026 -14.641954 0.81019884
14.8254 -14.849158 0.81661916
10.708495 -10.858353 0.59338665
10.656312 -10.938885 0.59420383
10.611857 -11.027824 0.59548789
10.627295 -11.180362 0.60019612
15.292492 -16.286884 0.86949927
15.358072 -16.559172 0.87899351
15.443832 -16.85792 0.8898108
15.414527 -17.034603 0.89412993
15.612709 -17.467842 0.91183442
15.752576 -17.843466 0.92638713
15.770199 -18.085892 0.93393588
15.854558 -18.409456 0.94560921
16.017109 -18.830631 0.96218532
16.122374 -19.191744 0.97557068
16.252512 -19.589453 0.9907071
16.380901 -19.992561 1.0059991
16.597347 -20.512161 1.027011
16.583456 -20.754128 1.0340151
16.767767 -21.250847 1.0536262
16.806566 -21.570881 1.0643656
17.033388 -22.140865 1.0873231
17.122669 -22.541758 1.1018369
17.322779 -23.098053 1.1238216
17.253864 -23.302685 1.1286077
17.526289 -23.976831 1.15604
17.786398 -24.648695 1.183161
17.953682 -25.20499 1.2045621
17.899271 -25.457724 1.2113714
18.347767 -26.438889 1.252695
18.319588 -26.747177 1.2619557
18.481371 -27.341719 1.2846409
18.773502 -28.144554 1.3169371
18.94603 -28.784214 1.3414121
19.208281 -29.576195 1.3728132
19.314329 -30.142769 1.3935918
19.57806 -30.971041 1.4263159
19.632996 -31.484005 1.4443706
24.198406 -39.340496 1.7980717
23.949305 -39.476276 1.797527
17.460712 -29.183596 1.3238243
17.154877 -29.075893 1.3141354
16.96409 -29.159878 1.3132015
15.687066 -27.349585 1.2272861
16.521358 -29.217991 1.3065867
16.344202 -29.323177 1.3067813
16.059563 -29.232868 1.2983376
15.540196 -28.703457 1.2705551
15.249955 -28.584917 1.2611387
15.015691 -28.566507 1.2562358
14.802908 -28.586231 1.2530841
14.333454 -28.100613 1.2279086
5.7771702 -11.500751 0.50070065
13.881194 -28.059439 1.21857
13.684695 -28.094675 1.2164298
5.5001211 -11.470894 0.49490288
5.4543729 -11.556836 0.49715972
13.165667 -28.342712 1.2164688
12.971571 -28.379339 1.214601
12.793916 -28.451107 1.2142898
12.625166 -28.54278 1.2148734
12.439828 -28.596802 1.2139007
12.313643 -28.788351 1.2188034
12.168531 -28.938896 1.2219942
12.000661 -29.037027 1.2230059
11.83129 -29.132336 1.2239397
11.682312 -29.279556 1.2270916
11.566609 -29.514427 1.2339399
11.405752 -29.637999 1.2361578
10.347097 -27.387383 1.1395806
5.0868583 -13.719199 0.56930077
5.0384593 -13.848749 0.57338643
4.9803786 -14.230202 0.58661616
4.8926549 -14.549756 0.59727776
4.8095417 -14.598483 0.59805602
4.8786964 -15.443431 0.63019651
4.7977195 -15.517943 0.6320253
4.0187993 -14.227073 0.57521522
3.8482416 -13.949966 0.56303608
12.823639 -57.315426 2.2865996
12.453468 -57.309055 2.2832532
12.112726 -57.437195 2.2853544
11.776687 -57.59169 2.288584
5.4624634 -27.575865 1.0942104
5.2959809 -27.623585 1.094794
10.75141 -57.997166 2.2964442
10.309225 -57.581066 2.2774167
9.5978823 -55.571507 2.1955478
9.2248993 -55.438129 2.187999
8.4766617 -52.946091 2.0875309
8.0498428 -52.335396 2.0614605
7.7190862 -52.31955 2.0589311
7.1079884 -50.313881 1.9782298
6.7726583 -50.160477 1.9705254
6.2355127 -48.421146 1.9006412
5.8302264 -47.576763 1.8660493
5.5357661 -47.590801 1.8652322
1.2935746 -11.753057 0.45996079
1.2260823 -11.805497 0.46171179
1.1551769 -11.828711 0.46233436
1.0792969 -11.799753 0.46093357
3.6662471 -42.968182 1.6788095
3.3547435 -42.386215 1.6552294
3.0342999 -41.579826 1.6229721
2.7331417 -40.909718 1.5961236
2.4513354 -40.419033 1.5763568
2.1705966 -39.83366 1.5529712
1.8911021 -39.121628 1.5247219
1.6286875 -38.603367 1.504099
1.375514 -38.161266 1.4865112
1.1238531 -37.584694 1.4637483
0.88005662 -37.03746 1.4421916
0.64402312 -36.545616 1.4228529
0.41176012 -35.852451 1.3957318
0.19006585 -35.537552 1.3833971
-0.027976662 -35.518063 1.3826188
-0.24615234 -35.552197 1.3839808
-0.46601191 -35.6819 1.389117
-0.68651438 -35.760296 1.3923076
-0.9128775 -36.030113 1.4030082
-1.1375188 -36.137691 1.4074441
-1.3624631 -36.215904 1.4107904
-1.5905499 -36.341633 1.4160434
-1.8161474 -36.384083 1.4181057
-2.0483651 -36.532883 1.4243704
-2.2835932 -36.698143 1.4313354
-2.5117931 -36.728302 1.4330864
-2.4054677 -32.26292 1.2593488
-2.5920491 -32.107117 1.2538623
-2.7710145 -31.883547 1.2457688
-2.9514089 -31.702774 1.2393874
-3.1325524 -31.549829 1.2341344
-3.3132932 -31.408781 1.2293873
-3.4896488 -31.241877 1.2236674
-3.6736751 -31.155373 1.2211381
-3.8490171 -31.005314 1.2161576
-4.0305362 -30.914728 1.2135504
-4.2192025 -30.882484 1.2132781
-4.408473 -30.855026 1.2132392
-4.5960917 -30.816525 1.2128111
-4.7918434 -30.831188 1.2145232
-4.9932113 -30.877161 1.2175194
-5.1959848 -30.925762 1.2206712
-5.4172168 -31.074427 1.2278308
-5.2894773 -29.278479 1.1581023
-7.2697806 -38.876141 1.5396248
-7.4791622 -38.680695 1.5336714
-7.8159714 -39.132843 1.5534772
-8.0793362 -39.197674 1.5579908
-8.3043261 -39.075031 1.5551114
-8.5007629 -38.826164 1.5472513
-8.7271919 -38.721611 1.545189
-9.1090431 -39.290325 1.5700921
-9.4743376 -39.755672 1.5909873
-9.7988768 -40.026791 1.6042171
-10.095923 -40.171364 1.6124662
-10.342968 -40.111561 1.6125829
-4.2413039 -16.039118 0.64556634
-4.2531352 -15.693555 0.63268679
-4.3212876 -15.566064 0.62860113
-4.303905 -15.142287 0.61253089
-4.385294 -15.076255 0.61093557
-3.7337687 -12.548356 0.50933886
-3.7766702 -12.413359 0.50478631
-3.8533595 -12.39186 0.5048641
-3.9402125 -12.402267 0.50626493
-4.8731351 -15.019235 0.6143986
-4.9689693 -15.000434 0.61486554
-5.1063552 -15.104083 0.62039089
-5.236402 -15.181101 0.62486571
-5.3609529 -15.238234 0.62856221
-5.4678464 -15.242675 0.63011867
-29.575724 -75.121391 3.1433423
-29.069555 -72.526962 3.0421736
-29.212618 -68.001732 2.8815491
-4.5439773 -9.2904463 0.40225574
-5.6772161 -10.146946 0.45229533
-5.6920233 -10.028492 0.44855985
-17.260206 -29.982538 1.346704
-17.534037 -30.030533 1.353669
-4.7723956 -7.9471064 0.36050424
-4.9279385 -7.8740101 0.36124355
-4.9456506 -7.7955279 0.35902563
-5.1295733 -7.9768419 0.36883119
-5.1180396 -7.7481999 0.36112681
-5.2205086 -7.7988605 0.364979
-5.314816 -7.8353214 0.36820862
-5.3543034 -7.7902102 0.36762494
-5.4225578 -7.7867317 0.36902574
-5.5289865 -7.8365984 0.37299466
-5.5816145 -7.8090296 0.37330595
-5.6434884 -7.7940593 0.37423983
-5.7030239 -7.7754006 0.37501803
-5.7941241 -7.7988176 0.37785855
-5.8196387 -7.7335753 0.37641883
-36.523262 -47.925732 2.3459389
-38.184658 -47.634026 2.3768342
-38.492592 -47.419003 2.377846
-39.628052 -43.65432 2.2953935
-27.036884 -29.418797 1.5554227
-27.245472 -29.283073 1.5570569
-27.61236 -29.314651 1.5677185
-27.919973 -29.279182 1.5749559
-39.673618 -41.09753 2.2239139
-45.306889 -46.360428 2.5237622
-40.347137 -40.781616 2.2334471
-10.070796 -9.9317408 0.55031216
-10.10442 -8.7017155 0.51879424
-10.145444 -8.6291924 0.51817167
-10.255188 -8.5078707 0.51840514
-10.305653 -8.4435196 0.5183273
-10.347946 -8.3725834 0.51786041
-10.365557 -8.2821093 0.51618719
-10.405982 -8.2103052 0.51568139
-10.432517 -8.1278753 0.51451403
-10.46081 -8.0472584 0.51346344
-10.457473 -7.943028 0.51089531
-10.541986 -7.9056921 0.51264632
-10.607161 -7.8533459 0.51346344
-10.744691 -7.8535695 0.51778257
-10.876948 -7.8483052 0.52182931
-11.031515 -7.8573651 0.52692664
-11.20213 -7.8757405 0.5327633
-45.652901 -30.859175 2.1453137
-49.119709 -32.331596 2.2894402
-44.000839 -28.576759 2.0425887
-44.104683 -28.260952 2.03932
-49.589603 -30.502851 2.2666383
-50.068455 -29.128441 2.2551594
-47.443916 -26.827713 2.1219282
-48.064114 -26.790541 2.1422787
-48.245148 -26.12068 2.1358972
-43.104881 -20.996443 1.8665941
-32.080925 -14.902225 1.3769767
-46.573498 -21.288189 1.9935997
-49.599125 -21.576529 2.1057801
-49.891834 -20.62022 2.1017334
-52.317127 -20.503464 2.1876488
-52.691872 -19.172359 2.1829796
-50.653999 -17.730013 2.0893598
-50.927425 -17.127142 2.0918109
-51.090179 -16.141376 2.0859356
-51.117615 -15.805744 2.083056
-48.811626 -14.438862 1.9816929
-55.498928 -14.581512 2.2340307
-55.591278 -13.878782 2.2307234
-53.077526 -12.561295 2.1234846
-53.328884 -12.275729 2.1304886
-54.57859 -5.6707745 2.1362863
-54.618328 -5.3363628 2.1365199
-54.631138 -4.9994001 2.1357806
-57.776096 -4.9299569 2.2575331
-25.900536 -0.93336594 1.0087618
-25.763947 -0.77018219 1.0032364
-59.480103 -1.4137232 2.3163664
-56.132645 -0.30059847 2.1853921
-56.095463 0.043801419 2.1839135
-56.154091 0.38840985 2.1862481
-59.996243 3.3635085 2.3394797
-59.825836 4.090981 2.3346157
-60.937389 7.1847744 2.3888967
-56.439697 8.0633793 2.2196338
-56.103539 8.3669424 2.2083883
-56.341434 8.7561417 2.2198284
-7.6468506 1.2852892 0.30147621
-57.567554 11.497604 2.2855101
-56.970375 11.7423 2.2646148
-53.984394 11.819304 2.1515005
-57.438141 15.186886 2.3130591
-57.085396 15.468995 2.3026309
-57.219032 16.261501 2.3158996
-57.292805 16.663071 2.3229814
-56.968239 19.648069 2.3461335
-8.9198236 3.1383684 0.36774167
-8.8439655 3.1727989 0.36540702
-58.136044 21.256062 2.4099476
-66.184021 27.951988 2.79719
-6.8703823 3.2051723 0.29474461
-6.7837663 3.2156012 0.2918652
-60.60252 30.563923 2.6425576
-59.644348 31.47093 2.6255925
-59.332085 31.7731 2.6203783
-63.565777 35.050701 2.8261786
-64.198395 38.012981 2.9048178
-63.922821 38.381485 2.90295
-62.527081 39.663021 2.882911
-62.309433 40.063229 2.884156
-62.071644 40.450798 2.8845842
-63.154476 43.401104 2.9835348
-50.537971 35.189423 2.3975737
-9.7376013 7.8065863 0.48552534
-9.6693468 7.8498149 0.48451364
-9.6256313 7.9128041 0.48474711
-9.5930271 7.9851403 0.48556423
-25.932104 25.343204 1.4114908
-7.5354147 7.9278526 0.42544672
-7.4845767 7.9717541 0.42532998
-7.4205723 8.0014114 0.42447394
-7.3983374 8.0762634 0.4260304
-7.3298697 8.1007614 0.42494088
-37.012878 43.513123 2.2240307
-10.482834 12.478911 0.63416541
-10.348643 12.473787 0.63066345
-10.338408 12.618206 0.63474905
-35.877296 44.338448 2.2205286
-35.791077 44.791161 2.2321632
-35.718597 45.267223 2.244926
-35.534138 45.606133 2.2508793
-35.403526 46.018135 2.2604513
-35.353813 46.541637 2.275471
-35.214462 46.953541 2.2850041
-35.277122 47.643333 2.3080006
-35.08968 48.003292 2.3149657
-34.904404 48.370033 2.3222809
-39.080292 54.863079 2.6225183
-18.376307 26.136171 1.2436676
-18.197361 26.222166 1.2424225
-18.014666 26.302002 1.2409438
-17.8244 26.369823 1.2389593
-17.636757 26.440458 1.2371695
-17.307722 26.295277 1.2253795
-8.2674103 12.730543 0.59062397
-8.1745853 12.758315 0.58957338
-8.1821136 12.944218 0.59583807
-16.443045 26.368715 1.2096205
-16.251099 26.420599 1.2074025
-9.2947254 15.321525 0.69735694
-15.845617 26.484268 1.2013324
-15.661487 26.544851 1.1996981
-15.462138 26.578262 1.1968966
-15.283353 26.645765 1.1956903
-14.786582 26.150183 1.1693475
-14.881268 26.698643 1.1897758
-15.004997 28.546164 1.2553409
-14.842885 28.663427 1.2564694
-14.931898 29.273796 1.2791934
-27.07954 53.902458 2.3485069
-26.675182 53.919823 2.3420868
-26.411222 54.220825 2.348079
-26.148893 54.529625 2.3544605
-26.093193 55.280926 2.3799472
-25.771187 55.47805 2.3815813
-25.555336 55.908684 2.3932936
-25.334753 56.337837 2.4049668
-25.274387 57.138306 2.432477
-24.903784 57.24741 2.4305704
-24.69392 57.730797 2.4446173
-24.393454 58.010185 2.4500647
-24.051617 59.220779 2.4885478
-23.708902 59.420143 2.4907658
-23.488251 59.932915 2.5061746
-23.287315 60.510479 2.524307
-22.998941 60.872829 2.5334899
-22.694138 61.199245 2.5412333
-22.686872 62.350536 2.5832183
-22.283043 62.430218 2.5808058
-21.992985 62.832676 2.5918176
-21.798073 63.523125 2.6147363
-21.593277 64.206902 2.6373825
-21.226736 64.422653 2.6408455
-20.922192 64.834114 2.6524022
-21.836538 69.115547 2.8220541
-21.701035 70.182831 2.860148
-21.289377 70.378746 2.8627551
-20.996035 70.97757 2.8818214
-20.622858 71.321999 2.8906152
-20.467663 72.448227 2.9311216
-20.046129 72.657219 2.9345458
-19.640474 72.929367 2.9406159
-19.464323 74.082596 2.9822507
-18.830414 75.423996 3.026726
-18.456984 75.907074 3.0415123
-18.098581 76.473976 3.0597227
-17.746244 77.092865 3.0800731
-8.543931 38.188229 1.52336
-7.5022836 39.130093 1.5510257
-7.0139594 39.176914 1.5493525
-6.792151 39.327526 1.5536327
-6.5548143 39.393105 1.5546055
-6.3237224 39.499676 1.5572515
-5.7941828 39.273788 1.5454226
-5.5554709 39.325424 1.546084
-5.3965735 39.969757 1.5700921
-5.1593909 40.065544 1.5725824
-4.8957095 39.951641 1.5669014
-5.3602557 46.082127 1.8060875
-5.1023378 46.340607 1.8149592
-4.8206897 46.397877 1.8160098
-3.8747067 39.659962 1.5512592
-2.9350064 40.219479 1.5698587
-3.0854516 50.87188 1.9841442
-2.7875531 51.152267 1.9943779
-2.1931317 45.367592 1.768227
-1.531613 51.213261 1.9946891
3.898015 29.898106 1.1736277
4.0355463 29.538 1.1604369
4.1856232 29.295057 1.1518764
4.3514419 29.175922 1.1482189
4.5156498 29.053883 1.1444834
4.6762915 28.917122 1.1402032
4.8223472 28.701637 1.132849
4.9940767 28.646896 1.1318762
5.1667371 28.598997 1.1312147
5.3377123 28.543184 1.1302809
5.5136976 28.514801 1.1304754
5.6871877 28.473574 1.130203
5.8972912 28.610388 1.1370515
6.0733533 28.576593 1.1371682
6.2522149 28.555386 1.1378297
6.4277492 28.518435 1.1379075
6.5933619 28.438549 1.1363121
6.7640271 28.382004 1.1356895
6.934247 28.324438 1.135067
7.1045027 28.26779 1.1345222
7.2620988 28.162706 1.1320708
4.770937 16.402269 0.66471058
4.8429966 16.276909 0.66081947
5.5520372 17.855553 0.72766858
5.546659 16.406635 0.67393249
5.6700292 16.438417 0.67665625
5.7744336 16.413685 0.67708427
5.8861704 16.408985 0.67836833
5.9949784 16.395082 0.67930222
6.117094 16.416044 0.68171465
6.2418194 16.441727 0.68436062
6.3685308 16.470222 0.68716222
6.489603 16.481974 0.68930233
6.6092 16.48822 0.69124788
6.7230783 16.478813 0.69257087
6.8520303 16.504622 0.69541138
6.9683337 16.498169 0.69692892
7.0915194 16.506516 0.69910789
7.2146697 16.513054 0.70124799
7.3450618 16.534225 0.70404959
7.4792743 16.561703 0.7071625
7.5982604 16.553642 0.70879674
7.7250309 16.561043 0.71113139
7.8457589 16.553965 0.7128824
7.9636559 16.539726 0.71436101
8.0834284 16.528252 0.71599531
27.891787 56.158463 2.441232
28.258343 56.030876 2.4431775
28.679943 56.009415 2.4498701
29.164557 56.104572 2.4618158
29.636492 56.167599 2.4725165
30.298983 56.5793 2.4987814
30.715712 56.521385 2.5045013
31.129009 56.453484 2.5099099
20.18495 36.080231 1.6094311
20.348745 35.854893 1.6049175
20.397869 35.433182 1.59161
20.387173 34.917313 1.5740222
20.459507 34.552532 1.5632049
20.533794 34.197609 1.5528157
20.612295 33.855888 1.54301
20.886299 33.836765 1.5479517
21.167202 33.825714 1.5533603
21.458921 33.828518 1.5595083
21.785517 33.881966 1.5681076
22.120661 33.94355 1.5772128
22.475 34.028976 1.5875632
22.743402 33.980114 1.5917655
23.133755 34.108692 1.6044116
23.392408 34.038578 1.6078358
18.686407 26.836302 1.2729287
18.759136 26.591312 1.2667419
17.470255 23.820944 1.1498531
17.594639 23.684423 1.1484523
16.884729 22.439796 1.093082
16.993027 22.297623 1.0912142
17.070911 22.116995 1.0874788
17.166298 21.960659 1.0849496
17.230642 21.766382 1.0805526
17.162626 21.409195 1.0680232
17.218729 21.211163 1.0633929
17.207058 20.932968 1.0547158
17.293625 20.777073 1.0521865
17.264954 20.485659 1.04277
17.347519 20.329168 1.0402019
17.322334 20.049189 1.0312912
17.068716 19.512318 1.0090342
17.035086 19.234417 1.0000457
17.127436 19.101257 0.9985671
17.124096 18.863369 0.991602
17.178665 18.691725 0.98810005
17.250151 18.539877 0.98564863
17.216282 18.277296 0.97728276
17.242599 18.081642 0.97245783
17.197071 17.813745 0.9637028
17.276718 17.677876 0.96206856
17.268906 17.454327 0.95564824
17.339615 17.312029 0.95366377
17.34449 17.105673 0.94813842
17.34391 16.896425 0.94241852
17.391098 16.73564 0.93938345
17.457249 16.594193 0.93743789
17.528145 16.458036 0.93580365
17.621473 16.34338 0.93541449
17.665428 16.183649 0.93245727
17.779955 16.089031 0.93327439
17.75318 15.867758 0.92673737
17.853954 15.761834 0.92693192
17.917946 15.623749 0.92525876
18.033916 15.531118 0.92630935
18.131918 15.422761 0.92646497
18.286652 15.361993 0.92953897
18.649721 15.472816 0.94315779
19.051928 15.610153 0.95864439
19.364075 15.668328 0.96950054
19.606607 15.66649 0.97681582
19.850624 15.66288 0.98417002
20.504642 15.774549 1.006933
20.742682 15.756029 1.0138592
21.495005 15.91535 1.041019
22.218624 16.032789 1.0664668
22.557486 16.06776 1.0779845
22.69652 15.957786 1.0799301
23.074762 16.013065 1.0932376
23.68206 16.220146 1.1172847
24.003832 16.225063 1.1277517
24.393879 16.271551 1.1413705
24.592585 16.186947 1.146001
25.530289 16.580555 1.1849508
25.576857 16.38855 1.1824217
26.062927 16.475317 1.200204
26.370411 16.444101 1.2096983
26.86488 16.524385 1.2277141
27.134918 16.461859 1.2354184
27.597269 16.511562 1.2518389
33.902172 20.002525 1.5323484
33.850662 19.693129 1.5245273
33.910183 19.450251 1.5218035
33.972355 19.209845 1.5192744
33.974373 18.936813 1.5141381
34.011982 18.685173 1.510675
34.069756 18.445679 1.5081847
34.124107 18.205238 1.5056165
34.174141 17.963432 1.5029317
34.364464 17.795221 1.5064726
34.952785 17.828766 1.5274457
35.60083 17.884909 1.5509479
36.415657 18.015291 1.5816097
37.616978 18.323185 1.6288867
37.701672 18.079063 1.6277193
37.793819 17.83886 1.6269411
37.937908 17.623045 1.6284586
38.415207 17.559004 1.6442955
42.559254 18.513954 1.8068267
42.733608 18.278797 1.8094338
43.048523 18.101847 1.8180331
44.950325 18.577831 1.8935205
47.342003 18.889526 1.9843777
47.863579 18.758024 2.0013819
48.514931 18.670715 2.0237947
48.608948 18.365265 2.0229774
48.824715 18.105225 2.0272965
48.900146 17.79266 2.025857
48.921818 17.461376 2.0222771
48.974277 17.14205 2.0200591
49.02372 16.822416 2.0178022
49.122231 16.520021 2.0176466
1.3098875 0.4309144 0.05322393
1.3838283 0.44588536 0.056142256
1.3817741 0.43588075 0.055947699
1.3796493 0.42591813 0.055753145
1.3764981 0.41570878 0.055519678
1.3761483 0.40640458 0.055402946
1.3747765 0.39684275 0.055247303
1.3685311 0.38595474 0.054897103
1.3650941 0.37595567 0.054663636
1.3606211 0.36575359 0.054391261
1.3570411 0.35587451 0.054157794
1.3591992 0.34754115 0.054157794
1.359367 0.33871061 0.054079972
1.375013 0.33366868 0.054624725
1.3799517 0.3259159 0.054741457
1.3702402 0.31475255 0.054274525
1.3682451 0.30546626 0.054118883
1.3642349 0.29579192 0.053885415
1.3572247 0.28555974 0.053535216
1.3550353 0.27642578 0.053379573
1.3557256 0.26791206 0.053340662
1.3416423 0.2565777 0.052718084
1.3412263 0.24797642 0.052640263
1.3358375 0.23850934 0.052367888
1.3353064 0.22996818 0.052290063
1.3406351 0.22242667 0.05244571
1.3350679 0.21309066 0.052173331
1.3442513 0.20611019 0.05248462
1.3365939 0.19654541 0.052134421
1.3427217 0.18903948 0.052328974
1.3517785 0.18186687 0.052640263
1.3479135 0.1729309 0.05244571
1.3549001 0.16538633 0.052679174
1.3519193 0.15660784 0.052523531
1.3766924 0.15093467 0.053457394
1.3537393 0.14000592 0.052523531
1.3505949 0.13130818 0.052367888
1.3493849 0.12283646 0.052290063
1.3501133 0.11455448 0.052290063
1.352783 0.1064259 0.052367888
1.2238536 0.088666849 0.047309455
0.97412288 0.064432606 0.03754279
0.82289368 0.049257178 0.031628314
0.81680328 0.00057058386 0.017697863
0.81767499 -0.014482162 0.017719852
0.81757069 -0.019499047 0.017719852
0.82043362 -0.024605911 0.017785821
0.8202672 -0.029639533 0.017785821
0.81707329 -0.034544546 0.017719852
0.81484884 -0.039460115 0.017675873
0.81359315 -0.04440444 0.017653884
0.81330526 -0.049395714 0.017653884
0.81597942 -0.054586124 0.017719852
0.81463206 -0.059518736 0.017697863
0.81026512 -0.064199172 0.017609905
0.78495324 -0.067035973 0.017060172
0.77954924 -0.071393803 0.016950224
0.7124325 -0.069638848 0.015476936
0.75922251 -0.083645076 0.016532427
66.530815 -9.4226122 1.4776604
66.527122 -9.8388519 1.4788918
66.502068 -10.252506 1.4797055
66.530693 -10.675251 1.4817724
66.588196 -11.103995 1.4845431
66.630127 -11.53163 1.4870279
66.659538 -12.381096 1.4909641
66.671669 -12.80704 1.4929651
0.91987634 -0.18233989 0.020358577
0.98240256 -0.20102192 0.021787887
0.96647805 -0.20394644 0.021458047
0.98376924 -0.21391293 0.021875843
0.9795115 -0.2192893 0.021809876
0.98009592 -0.22574458 0.021853855
0.97577393 -0.23106232 0.021787887
0.97239506 -0.23657212 0.021743909
0.99129307 -0.24762674 0.022205684
0.99169177 -0.25420144 0.022249663
0.99784821 -0.26231667 0.022425579
0.99815041 -0.26895502 0.022469558
1.0012997 -0.27640569 0.022579504
1.0043948 -0.28390503 0.022689451
1.0035943 -0.29034057 0.022711441
1.0008353 -0.29620913 0.022689451
1.0009125 -0.30292416 0.022733429
0.99808002 -0.30876428 0.022711441
0.99426025 -0.31427953 0.022667462
0.99136186 -0.3200669 0.022645472
0.98842984 -0.32583058 0.022623483
0.98641193 -0.33188933 0.022623483
0.97962934 -0.33631149 0.022513537
0.98320836 -0.34429976 0.022645472
0.98390168 -0.35133532 0.022711441
0.98360616 -0.35805017 0.02275542
0.97951621 -0.36338288 0.022711441
0.98007339 -0.37044725 0.022777408
0.97778195 -0.37645391 0.022777408
0.97824574 -0.38354173 0.022843378
0.982373 -0.3921327 0.022997303
0.97902232 -0.39777651 0.022975313
0.96732497 -0.39995426 0.02275542
0.96300977 -0.40510646 0.022711441
0.93477225 -0.39998972 0.022095738
0.91121787 -0.39653781 0.021589983
0.92613673 -0.40981168 0.02200778
0.95368958 -0.42902824 0.022733429
0.95649397 -0.4373675 0.022865366
0.9574185 -0.44491425 0.022953324
0.95015079 -0.44864514 0.022843378
0.94647878 -0.45403415 0.022821387
0.95985061 -0.46771929 0.023217196
0.95785862 -0.47404364 0.023239186
0.96029115 -0.48260674 0.023371121
0.96532571 -0.49258119 0.023569027
0.9622851 -0.49849504 0.023569027
0.96274745 -0.50625205 0.023656983
0.96403259 -0.51450437 0.023766931
0.96085751 -0.52040988 0.023766931
0.93837273 -0.51569861 0.023283165
0.92034823 -0.51316667 0.022909345
0.91109157 -0.51535738 0.02275542
0.90704519 -0.52044028 0.022733429
0.91247457 -0.53102642 0.022953324
0.8515203 -0.50255674 0.021480035
16.143686 -9.6664467 0.41359457
16.004595 -9.7170649 0.41154957
15.883371 -9.7773504 0.40996632
15.75014 -9.8291044 0.40807524
15.589837 -9.8624878 0.4054805
15.445712 -9.9045315 0.40330356
15.327646 -9.9620695 0.40180826
15.162704 -9.9877357 0.39908159
15.061223 -10.053941 0.39802611
14.900708 -10.079506 0.39540938
14.786628 -10.135134 0.39402404
14.655186 -10.177769 0.39217693
14.559754 -10.244487 0.39129734
14.428238 -10.284883 0.38945025
14.244093 -10.286009 0.38617381
14.122614 -10.330716 0.3845906
14.001927 -10.374916 0.38302934
13.892427 -10.426429 0.38177595
13.773273 -10.469728 0.38025868
13.665996 -10.521108 0.37907127
13.516033 -10.53837 0.37669641
13.613535 -10.749356 0.38124821
13.737841 -10.985031 0.38661361
13.77507 -11.154054 0.38958219
13.820017 -11.331551 0.39281461
13.896375 -11.537477 0.39699259
13.933988 -11.713881 0.4001151
13.935696 -11.862017 0.40224805
14.055005 -12.113084 0.40783337
14.170245 -12.364741 0.41337469
14.213238 -12.556704 0.41687098
14.290918 -12.782313 0.42144477
14.298182 -12.947605 0.42399555
14.385015 -13.187781 0.42896515
14.417404 -13.381217 0.43237349
14.452329 -13.57965 0.4359138
14.580249 -13.869278 0.44233468
14.661224 -14.118676 0.44741425
14.698876 -14.329804 0.45124039
14.771486 -14.57844 0.45620999
14.84796 -14.83486 0.4613775
14.940109 -15.111246 0.46711671
14.932325 -15.289893 0.46979943
10.666605 -11.056857 0.33764327
15.207729 -15.959085 0.48459828
15.265068 -16.217352 0.48958987
15.321846 -16.479115 0.49464741
15.410469 -16.77973 0.50082642
15.524856 -17.113888 0.50795096
15.60636 -17.417311 0.514108
15.599244 -17.62579 0.5174284
15.780308 -18.052372 0.52710372
15.861325 -18.37134 0.53356862
16.007778 -18.772614 0.54236436
16.064884 -19.075422 0.54825753
16.205812 -19.484167 0.55714124
16.349304 -19.903845 0.56626683
16.43408 -20.259233 0.57350129
16.557606 -20.66946 0.5822311
16.571882 -20.949442 0.58724469
16.829514 -21.545525 0.60105401
16.966869 -21.998293 0.61077332
17.06053 -22.402643 0.61908531
17.284439 -22.987951 0.63232291
17.393341 -23.430731 0.64155841
17.456675 -23.820059 0.64927673
17.623701 -24.360077 0.66104102
17.942785 -25.124321 0.67878646
18.060169 -25.619633 0.68916541
18.13274 -26.060692 0.69802713
18.43997 -26.852207 0.7161904
18.468925 -27.251198 0.72379869
18.709322 -27.973982 0.73993891
18.988884 -28.772482 0.75797021
19.023657 -29.213516 0.76650208
19.331493 -30.088383 0.78633648
18.062664 -28.496485 0.741808
17.860971 -28.564392 0.74070853
17.652828 -28.620691 0.73934519
17.245142 -28.347527 0.7295379
17.064192 -28.441662 0.72925204
16.627691 -28.103565 0.71794951
16.376347 -28.070349 0.7145192
16.120056 -28.024712 0.71082497
15.876289 -27.996992 0.70763654
15.390057 -27.531879 0.69347537
15.161494 -27.518087 0.69077069
14.950856 -27.534161 0.68885756
14.696257 -27.465826 0.68487751
14.476633 -27.459085 0.68248063
14.276999 -27.487953 0.68100739
14.099872 -27.559015 0.68061155
5.7875466 -11.485068 0.28260386
5.7218552 -11.530215 0.28284577
13.523499 -27.677343 0.67726916
13.34822 -27.748989 0.67700529
5.4478989 -11.505274 0.27972326
12.962351 -27.815552 0.67469645
12.736844 -27.775517 0.67181581
12.5707 -27.863169 0.67205769
12.386115 -27.90962 0.67133206
12.192636 -27.934698 0.67012262
12.011933 -27.987856 0.66961688
11.852025 -28.089588 0.67029858
11.695533 -28.200567 0.67122209
11.533219 -28.298649 0.6718598
11.357136 -28.363314 0.67172784
11.18984 -28.450144 0.67214566
4.7507167 -12.763224 0.29927182
4.6294794 -12.920325 0.30160269
4.4685822 -12.716455 0.2961933
4.4025202 -12.778608 0.29700691
4.3288264 -12.81959 0.29733676
4.2535396 -12.856351 0.29757863
4.1238728 -12.997156 0.29964563
3.9693301 -12.78161 0.29410431
3.9573824 -13.024783 0.29913989
3.7752197 -12.996519 0.29740271
3.7789323 -13.313741 0.30413148
3.7382975 -13.485045 0.30751783
3.6784654 -13.592652 0.30945289
3.633286 -14.11021 0.32020569
3.5953066 -14.326177 0.32460359
3.7494676 -15.338557 0.34703273
3.6761093 -15.44881 0.34901178
5.2894764 -22.851124 0.5156253
5.1544323 -22.906559 0.51615304
12.23298 -57.660378 1.2961822
11.858401 -57.634472 1.2939392
11.519786 -57.782627 1.2956544
11.175252 -57.905224 1.2968419
10.828729 -58.020866 1.2979193
10.369632 -57.515556 1.2851654
9.7317524 -55.94109 1.2486191
9.2051716 -54.907261 1.2242548
8.6386213 -53.540451 1.1925682
8.1702356 -52.691437 1.1725138
7.666697 -51.530193 1.1455989
7.2122803 -50.607296 1.1240712
6.7675939 -49.666924 1.1022358
6.3303413 -48.689331 1.0796528
5.9075565 -47.726139 1.0574654
5.5877576 -47.533119 1.052408
5.2974329 -47.579426 1.0526938
4.7319541 -45.010002 0.99516958
1.1780354 -11.905969 0.2628794
4.0712466 -43.89996 0.96944201
3.7398231 -43.20797 0.95363164
3.4132028 -42.465748 0.93676579
3.1046369 -41.839825 0.9225167
2.8078859 -41.270588 0.90956491
2.5081143 -40.53566 0.89300692
2.2264783 -39.960342 0.8800112
1.9512064 -39.367146 0.86666369
1.6832988 -38.772095 0.85331613
1.4249648 -38.234203 0.84126592
1.171492 -37.636665 0.8279404
0.92757833 -37.124432 0.8165279
0.69046611 -36.635635 0.80566514
0.45621282 -35.89542 0.78930503
0.23437843 -35.657604 0.78402758
0.01551241 -35.494415 0.78042132
-0.20292202 -35.606812 0.78290612
-0.4223682 -35.686871 0.78470927
-0.64336157 -35.796562 0.78719407
-0.86439103 -35.849907 0.78846943
-1.0883067 -35.974838 0.79135007
-1.3136424 -36.094372 0.79414272
-1.3691783 -32.1861 0.70829618
-1.5647464 -32.138149 0.70743859
-1.7011385 -31.019878 0.68303037
-1.8807266 -30.833223 0.67916024
-2.0568156 -30.626587 0.67487234
-2.2212276 -30.293329 0.66781378
-2.4001689 -30.192425 0.66590065
-2.6014264 -30.364399 0.67003465
-2.7930858 -30.406603 0.67133206
-2.9776533 -30.368994 0.67089224
-3.1571994 -30.285515 0.66946298
-3.3387971 -30.227814 0.66862738
-3.4957066 -29.962473 0.66321796
-3.6758285 -29.91069 0.66255832
-3.8539102 -29.84593 0.66163474
-4.0377736 -29.827665 0.66176665
-4.2228193 -29.817179 0.6620965
-4.4059873 -29.792683 0.66214049
-4.5862718 -29.749279 0.66178864
-4.7837706 -29.814354 0.66387767
-4.9782939 -29.854456 0.66543889
-5.1724658 -29.887381 0.66686821
-5.2715459 -29.385689 0.65637928
-5.5916038 -30.105726 0.67322314
-5.8162069 -30.278996 0.67788488
-6.0376964 -30.423172 0.6819309
-6.2774239 -30.6451 0.68775809
-6.5882912 -31.188017 0.70084178
-6.810153 -31.287674 0.70400828
-8.6616068 -38.65078 0.8709296
-8.8756905 -38.49754 0.86868668
-9.1414852 -38.567844 0.87152332
-3.9498115 -14.647114 0.33339933
-4.0444026 -14.63995 0.33379513
-4.1355162 -14.619667 0.33390507
-4.1962266 -14.494144 0.33161819
-4.2711697 -14.421152 0.33054072
-3.7782326 -12.475265 0.28643003
-3.8313503 -12.376399 0.28469285
-5.3447771 -15.558582 0.36156771
-5.4603095 -15.583049 0.36290908
-5.5447211 -15.518183 0.36218342
-5.5546155 -14.686913 0.34509766
-5.6395965 -14.639494 0.34478983
-29.449938 -75.06842 1.7733516
-29.018524 -72.654335 1.7204891
-4.350359 -10.336084 0.24638736
-4.4018931 -10.281625 0.24572769
-4.6744723 -7.9167452 0.20194684
-4.7245731 -7.7818742 0.1999678
-4.7528415 -7.7212372 0.19915418
-4.8059511 -7.7012587 0.19939607
-4.8718219 -7.7011957 0.2001657
-4.9195237 -7.6719995 0.20018768
-4.9681401 -7.6441841 0.20025365
-5.0001016 -7.5910139 0.19965994
-5.0632372 -7.5851364 0.20031963
-5.1264887 -7.5787687 0.20097931
-5.18646 -7.5669618 0.20150705
-5.2390656 -7.5440288 0.20174894
-5.3278298 -7.5722451 0.20337614
-5.4171362 -7.5996542 0.20500337
-5.4981976 -7.6140928 0.20630074
-5.5743265 -7.6205583 0.2074002
-5.6685972 -7.6504731 0.20915936
-5.7196341 -7.6211443 0.20931327
-5.792305 -7.6201301 0.21025883
-5.8584685 -7.6097951 0.21096249
-5.9382472 -7.6162801 0.2121499
-39.385735 -48.034187 1.3659765
-39.642391 -43.776855 1.2987109
-26.784468 -29.215723 0.87150133
-40.231026 -43.345707 1.3004701
-9.5350084 -10.147859 0.30600056
-9.8127909 -9.4664822 0.29962364
-9.9369564 -9.3535738 0.29988751
-10.114611 -8.5184278 0.29058602
-10.212237 -8.2842007 0.28895879
-10.181727 -8.1563797 0.28667191
-10.22923 -8.0918903 0.28660592
-10.283416 -8.0326662 0.28673786
-10.315093 -7.9559836 0.28625411
-10.370875 -7.8979936 0.286452
-10.439117 -7.8492308 0.28700176
-10.490294 -7.7874131 0.28708971
-10.516107 -7.7069435 0.28649598
-10.653109 -7.7073193 0.28893682
-10.822237 -7.7289619 0.29223523
-11.090085 -7.8179374 0.29817235
-10.924475 -7.6012836 0.29245511
-11.146454 -7.6546569 0.29713884
-11.352939 -7.6943703 0.30138281
-49.007259 -32.342983 1.2912126
-43.965271 -28.629774 1.1536909
-44.165344 -28.375685 1.1543506
-44.769279 -28.377123 1.1655653
-49.546597 -30.559437 1.2801079
-23.490105 -14.290185 0.60448432
-23.483898 -14.089719 0.6020875
-23.663696 -14.00085 0.60448432
-49.819641 -29.06477 1.2683436
-47.992546 -26.442013 1.2049263
-48.205727 -26.175184 1.2062236
-48.086693 -24.975618 1.1915348
-28.468634 -14.565247 0.70308471
-28.553898 -14.388494 0.70299673
-31.084284 -14.952582 0.75840998
-32.072853 -14.946263 0.7780025
-46.652458 -21.392962 1.1285791
-49.598427 -21.648003 1.1900175
-49.765934 -20.63909 1.184718
-52.629032 -19.221975 1.2320831
-50.570808 -17.769972 1.1786929
-51.239296 -15.911679 1.1798143
-51.426842 -15.624591 1.1819034
-48.861362 -14.518277 1.1208608
-49.325283 -13.023607 1.1218064
-49.233868 -12.676833 1.1179363
-48.88018 -12.266458 1.108173
-48.866146 -11.944702 1.106172
-49.0173 -11.663385 1.1079531
-49.127876 -11.371645 1.1088547
-49.27866 -11.088423 1.1107018
-49.516689 -10.823205 1.1145499
-50.163097 -10.642417 1.1276116
-50.425262 -10.37512 1.1320535
-50.854668 -10.138626 1.1402775
-51.034695 -9.8493204 1.1429381
-50.943806 -9.5079279 1.1395738
-50.718803 -9.1442537 1.1332629
-50.644932 -8.8104305 1.1303823
-50.589573 -8.4813309 1.1279634
-50.614998 -8.1666193 1.1273917
-50.603893 -7.8465533 1.1260504
-50.682728 -7.5406141 1.126754
-50.850777 -7.2469788 1.1294807
-50.942822 -6.9414415 1.1305581
-51.004284 -6.6313095 1.1309979
-51.058895 -6.3200707 1.1313277
-51.160263 -6.0141301 1.1327351
-52.777309 -5.5485024 1.1669506
-54.582279 -5.3998528 1.2061137
-57.258034 -4.9558411 1.2638137
-25.733309 -0.80105311 0.56600296
-55.915474 -0.024311397 1.2295763
-26.20083 0.31003904 0.57605207
-26.183439 0.4705289 0.57572222
-59.663128 4.0070548 1.3149611
-56.522144 8.0050735 1.2553259
-56.240532 8.3175097 1.2501804
-56.254642 8.6726446 1.2516537
-7.6879888 1.2818239 0.17116171
-28.501328 4.9325781 0.63592917
-28.476427 5.1084251 0.63606107
-27.118557 5.2091041 0.60710108
-27.149822 5.3880525 0.6085304
-57.081589 11.692938 1.2812953
-53.991425 11.75207 1.2150633
-57.188637 15.422421 1.302515
-57.059204 15.763717 1.3017454
-56.927734 16.104004 1.3009758
-57.00071 16.503048 1.3049339
-57.138714 19.62925 1.3285725
-8.8747082 3.1096034 0.20656461
-8.8507528 3.1623168 0.20645466
-58.173973 21.189892 1.3614906
-66.230827 27.877203 1.5802408
-6.8863091 3.2015743 0.16676384
-6.8150096 3.219425 0.16551045
-59.796448 31.458521 1.4858406
-47.325623 28.733885 1.2174822
-47.152679 29.026352 1.2175921
-26.074099 16.946815 0.68371207
-25.864428 17.037189 0.6809414
-25.685398 17.146168 0.67898434
-25.559835 17.290005 0.6784566
-25.453262 17.44651 0.6784566
-25.250483 17.536207 0.67590582
-38.414257 27.029352 1.0328374
-38.289204 27.294146 1.0339588
-9.6684875 7.9274707 0.27473167
-9.5342836 7.9157572 0.27229086
-66.816193 56.874802 1.9296521
-7.4782214 8.0428915 0.24128583
-23.883839 26.006161 0.7763533
-24.253866 28.443127 0.82189327
-36.781895 43.675213 1.2556337
-10.375387 12.474152 0.35659811
-36.028042 43.861397 1.2481793
-35.792877 44.12434 1.2493887
-35.781479 44.667728 1.2585363
-35.723812 45.160873 1.2662326
-35.562355 45.52813 1.2703886
-35.33606 45.815144 1.2723237
-27.948725 36.700459 1.0143663
-21.526197 28.629492 0.78756791
-18.372372 26.062523 0.70108366
-18.208113 26.169018 0.70092976
-18.001925 26.214317 0.69917059
-17.789698 26.24897 0.69716954
-17.641642 26.377575 0.69769728
-17.425491 26.403553 0.69554234
-11.318796 17.381449 0.45594612
-8.2705173 12.872364 0.33625793
-16.713345 26.367704 0.68637276
-16.492407 26.375664 0.68393195
-16.298243 26.424458 0.6825906
-16.099947 26.465031 0.68107337
-15.894566 26.492163 0.67924821
-15.715424 26.561657 0.67854458
-15.524943 26.610954 0.67735714
-15.322488 26.638117 0.67564195
-14.809598 26.115908 0.66007346
-14.527612 25.988991 0.65459812
-14.728259 26.731754 0.6710242
-12.25593 22.570982 0.56463963
-11.98231 22.393646 0.55835062
-14.946556 28.777094 0.71295792
-9.0613451 17.710752 0.43729913
