# .PCD v0.7 - Point Cloud Data file format
VERSION 0.7
FIELDS x y z
SIZE 4 4 4
TYPE F F F
COUNT 1 1 1
WIDTH 1550
HEIGHT 1
VIEWPOINT 0 0 0 1 0 0 0
POINTS 1550
DATA ascii
6.4761167 1.8173026 1.3818721
16.822628 4.6092415 3.587477
6.3976302 1.7108742 1.3605034
6.4174852 1.6740589 1.3625194
6.3668838 1.6192019 1.3496175
6.5078988 1.6126117 1.377437
6.9670858 1.6810762 1.4725879
6.9458032 1.6309075 1.4659353
6.985281 1.5950167 1.4721848
7.0628276 1.5671885 1.4864976
6.9095359 1.4887545 1.4522272
6.9636016 1.4557493 1.461702
24.972628 5.060359 5.2417312
7.3384843 1.4403529 1.5366938
7.1277852 1.3536373 1.4907311
7.1099458 1.3051027 1.4852881
7.1139622 1.2607688 1.4844818
7.1891475 1.2286429 1.4985931
21.679102 3.5678792 4.5194311
24.452917 3.87041 5.092957
24.478144 3.7205915 5.0933604
21.467779 3.1284051 4.4625826
23.866182 3.3284748 4.9570847
23.900719 3.1839118 4.9601088
23.116234 2.9351733 4.7933931
24.243326 2.9272387 5.0234084
24.24818 2.7769806 5.0207877
7.5538039 0.81828612 1.5612879
7.5947351 0.7756024 1.5687467
7.5925264 0.72833288 1.5673356
7.5529528 0.67779386 1.558264
7.5628257 0.63192624 1.5594735
7.5607014 0.58505648 1.558264
7.5582871 0.5382365 1.5570544
21.283247 1.3840837 4.3871875
21.279604 1.2527754 4.3847685
21.27809 1.1217186 4.3829541
21.302183 0.9919576 4.3865829
26.16012 1.0573106 5.3860703
21.334797 0.46920002 4.389607
24.789474 0.39298561 5.1002145
28.341829 0.27534273 5.8309808
24.719669 0.066573396 4.5926685
28.474276 -0.097924508 5.2905922
26.833303 -0.25697628 4.9857645
27.62257 -0.43403167 5.1328788
26.467398 -0.57836968 4.9186954
24.422386 -0.83368236 4.5400367
29.103666 -1.1721729 5.4119387
23.707129 -1.1006926 4.4091873
25.884445 -1.3609324 4.8158069
26.361044 -1.8730927 4.9101062
24.08259 -2.3064737 4.4947147
30.430401 -3.2915628 5.6871605
30.67371 -3.6992266 5.7407064
28.231569 -3.5806408 5.2874856
28.224455 -3.9322419 5.2947955
39.101837 -6.9231343 7.3790631
34.00679 -9.0881748 6.5407872
47.43465 -16.82765 9.3533144
47.287048 -17.102671 9.3447256
47.131405 -17.374136 9.334857
46.922668 -17.624973 9.3147545
46.692436 -17.866179 9.2906313
28.857864 -11.245803 5.7547779
46.272282 -18.359505 9.2511578
46.041161 -18.595585 9.2275829
45.855263 -18.848585 9.2133284
45.737843 -19.129213 9.2131453
45.530945 -19.371775 9.1952362
45.339039 -19.619549 9.1806154
45.191704 -19.885891 9.1753159
44.960247 -20.114227 9.153203
44.810925 -20.378325 9.1480865
44.650234 -20.636808 9.1409588
44.457806 -20.879881 9.1276178
44.266739 -21.122637 9.1148252
44.092064 -21.372416 9.1056881
43.88953 -21.607817 9.0910683
43.650597 -21.823954 9.0691385
43.49044 -22.078472 9.063838
43.241417 -22.286806 9.0402632
43.075977 -22.537127 9.0344152
42.943825 -22.804699 9.0358772
42.782318 -23.056576 9.0314913
4.32233 -2.3644831 0.91353911
4.407465 -2.4462922 0.93473816
4.4386363 -2.4993322 0.94460666
4.4249249 -2.5274951 0.94497216
4.3012853 -2.4920199 0.92176288
4.2969341 -2.5248384 0.92413861
4.2602448 -2.5385778 0.91956985
4.0880594 -2.4701228 0.88557833
4.0610881 -2.4879713 0.8830198
4.0875082 -2.5387733 0.89215732
4.2033181 -2.6465545 0.92103189
4.2300992 -2.6997945 0.9305349
4.2448254 -2.7459872 0.93747938
45.225613 -29.643589 10.049228
37.353519 -28.261057 8.7043686
36.978848 -28.33604 8.6574011
36.693214 -28.476212 8.6312685
36.41885 -28.623058 8.6078758
36.16946 -28.787819 8.5905151
35.79847 -28.853119 8.5442791
35.527069 -28.995768 8.521801
35.228745 -29.114256 8.4929266
34.882053 -29.189802 8.4523554
34.629532 -29.341635 8.4346285
34.339149 -29.459463 8.4077644
34.078323 -29.600626 8.3882103
33.786049 -29.712431 8.360981
33.488548 -29.81719 8.3324718
33.161831 -29.893091 8.2966528
32.904442 -30.029072 8.2781944
32.655296 -30.171022 8.2619295
3.5287566 -3.3015285 0.89599508
3.5576911 -3.3697615 0.90860486
3.5092678 -3.3649936 0.90147758
3.4765604 -3.3748231 0.8983708
3.4684112 -3.4084935 0.90166032
3.4613738 -3.4435771 0.90531534
3.4498787 -3.4745171 0.90787387
3.43538 -3.5026376 0.90970135
30.18759 -31.150827 8.0609045
29.931976 -31.268711 8.043726
29.676731 -31.385345 8.0267305
29.435276 -31.515116 8.0135717
29.170681 -31.61854 7.9942007
28.923809 -31.739525 7.9797635
28.631823 -31.808985 7.952899
28.351835 -31.889284 7.9293242
28.111521 -32.012413 7.9168973
27.918432 -32.188755 7.9179935
27.699291 -32.334816 7.911963
27.436228 -32.42836 7.8935051
27.24304 -32.603638 7.8953328
27.004301 -32.72393 7.8841848
26.726606 -32.795269 7.8617067
26.502069 -32.930302 7.8549447
26.232838 -33.008404 7.8350253
25.986105 -33.113056 7.821867
25.687286 -33.149094 7.7929926
25.408722 -33.208481 7.7701488
25.178999 -33.330029 7.7622905
25.006933 -33.52803 7.7725244
24.790243 -33.666592 7.7692351
24.588984 -33.826015 7.7710624
24.308744 -33.87561 7.7480359
24.215227 -34.186192 7.7849517
23.831491 -34.085957 7.7286644
23.618547 -34.226688 7.7275677
23.220337 -34.549034 7.7354259
22.765001 -34.324623 7.6537366
22.525965 -34.420883 7.6442337
22.304205 -34.542759 7.6407614
22.255064 -34.935184 7.6972313
22.034008 -35.061089 7.6950383
21.690508 -34.989231 7.649899
21.459511 -35.095665 7.6442337
21.21076 -35.171951 7.6323547
20.977964 -35.273552 7.6263242
20.753677 -35.388882 7.6235828
20.525316 -35.496838 7.6195626
20.267199 -35.552071 7.6045771
19.915731 -35.439201 7.5541377
19.694094 -35.553856 7.5526757
19.530218 -35.774128 7.573875
19.338293 -35.945236 7.5848398
19.120136 -36.068432 7.5859365
18.85659 -36.104897 7.5691233
18.640549 -36.231285 7.5714989
18.412998 -36.335335 7.569489
18.154577 -36.377254 7.5548687
17.933632 -36.493256 7.5559654
17.697813 -36.578712 7.5510311
17.440062 -36.617382 7.5367765
17.164976 -36.616879 7.5148463
16.939564 -36.720619 7.5146637
16.755787 -36.91608 7.5334868
16.539381 -37.041538 7.5382385
16.321274 -37.163929 7.5426245
16.091373 -37.259762 7.5418935
15.888196 -37.418427 7.5541377
15.670042 -37.543339 7.559803
15.39834 -37.538727 7.5397005
15.17764 -37.65712 7.5446348
14.953534 -37.767822 7.5482898
14.710467 -37.83046 7.5426245
14.413539 -37.751007 7.5089984
14.184736 -37.847023 7.510643
13.972949 -37.989632 7.521791
13.797655 -38.235565 7.5535893
13.573941 -38.351017 7.559803
13.340302 -38.439156 7.5608997
13.119075 -38.564034 7.569489
12.883447 -38.647537 7.57022
12.63447 -38.690346 7.5632753
12.411507 -38.813026 7.5722303
12.178701 -38.906277 7.5757022
11.925061 -38.932331 7.5663819
11.663379 -38.929424 7.5517621
11.423739 -38.998371 7.5513964
11.223202 -39.203838 7.5777125
11.033281 -39.453754 7.6128006
10.796947 -39.542526 7.6170039
10.540192 -39.555779 7.6069527
10.324737 -39.72533 7.6272378
10.091901 -39.831772 7.6356444
9.8449516 -39.8834 7.6338172
9.6106157 -39.98703 7.6422234
9.3653021 -40.046204 7.6424065
9.1178818 -40.096207 7.6411271
8.8464403 -40.037155 7.6193795
8.6162844 -40.163742 7.6332688
8.3772945 -40.25243 7.640213
8.2122021 -40.70977 7.7173338
7.9641418 -40.769043 7.7191615
7.7127423 -40.811348 7.7180648
7.4722528 -40.913033 7.7284818
7.2272201 -40.992966 7.7350607
6.9760504 -41.039448 7.7356091
6.7302999 -41.11932 7.7427363
6.4810805 -41.180237 7.7465739
6.2225518 -41.181316 7.7394466
5.9718647 -41.233318 7.742188
5.738049 -41.408443 7.768321
5.5020514 -41.580299 7.7940888
5.2506285 -41.643517 7.7997541
5.0074139 -41.778423 7.8191257
4.7629628 -41.913864 7.8388629
4.5104208 -41.98629 7.8470864
4.2566743 -42.052299 7.8543968
4.0034962 -42.129501 7.8640823
3.7510974 -42.222801 7.8770576
3.4926815 -42.253841 7.8787026
3.2371759 -42.324474 7.8880229
2.9820383 -42.409248 7.9002671
2.7276192 -42.517994 7.9172626
2.4743688 -42.666435 7.9419341
2.2184827 -42.795689 7.963316
1.9602956 -42.905727 7.9814081
1.7013075 -43.025993 8.0016937
1.4393086 -43.096542 8.0130243
1.1760523 -43.148792 8.0212479
0.9144938 -43.307545 8.0495739
0.65069222 -43.442104 8.0736971
0.38478604 -43.519997 8.0875864
0.118101 -43.652298 8.1118917
-0.15037778 -43.837032 8.1462488
-0.41939148 -43.839218 8.1469803
-0.69090509 -43.997044 8.1769514
-0.96595865 -44.22591 8.2204456
-1.23824 -44.252563 8.2266588
-1.5131972 -44.345341 8.2454824
-1.79187 -44.499271 8.2760019
-2.0688887 -44.573864 8.2920837
-2.3512757 -44.730186 8.323699
-2.6334114 -44.846436 8.3481884
-2.9152162 -44.932446 8.3673763
-3.2014494 -45.062775 8.395155
-3.4896185 -45.194221 8.423481
-3.778949 -45.316963 8.4505281
-4.0641284 -45.373226 8.4655142
-4.3572621 -45.502064 8.4943886
-4.649437 -45.6026 8.5183287
-4.958231 -45.842018 8.5685844
-5.2489138 -45.893757 8.5841188
-5.5418296 -45.955364 8.6018457
-11.909461 -29.486181 5.9088368
-4.4522662 -10.830159 2.1743336
-12.285198 -29.373188 5.9159636
-4.2084913 -9.7240582 1.9672775
-4.2862926 -9.7394476 1.975684
-4.3809009 -9.7910423 1.9915833
-4.459209 -9.8042507 1.9998071
-4.5819778 -9.9123583 2.027585
-4.6765656 -9.9561396 2.042388
-4.8523049 -10.167722 2.0919132
-4.8344116 -9.9723167 2.057739
-4.5802488 -9.3020878 1.9250622
-4.6385579 -9.2764473 1.9256104
-4.9023314 -9.6554604 2.0105894
-13.586761 -26.360773 5.5102582
-4.991281 -9.5388212 1.9988933
-4.8781881 -9.1849985 1.9309102
-13.706803 -25.432873 5.3680782
-4.9768553 -9.0994282 1.9256104
-5.0435653 -9.0884924 1.9298137
-5.4782987 -9.7307806 2.0734553
-5.5788536 -9.7686996 2.0888064
-5.664804 -9.7793751 2.0984921
-5.6908412 -9.6867876 2.0860653
-3.9524026 -6.4522576 1.4042238
-3.9753232 -6.4011564 1.3983757
-4.0223808 -6.3891244 1.401117
-6.8348002 -10.288241 2.2936697
-5.7311697 -8.5129652 1.9053252
-5.9328752 -8.6969376 1.9546677
-5.8570056 -8.4735374 1.9124525
-5.8361416 -8.3335495 1.8888776
-5.653367 -7.9680104 1.8137672
-6.8829532 -9.5762234 2.1898675
-4.7652807 -6.5444269 1.5025434
-7.3080468 -9.9088297 2.2863595
-7.3487043 -9.8370218 2.2801461
-4.5877509 -6.0627952 1.4109855
-5.0613918 -6.6042209 1.5443933
-4.751616 -6.1217699 1.4382153
-4.5375786 -5.7724767 1.3625567
-4.7792392 -6.0037661 1.4241436
-4.7672482 -5.9138546 1.4097062
-4.8910961 -5.99189 1.435474
-5.1958261 -6.28613 1.5136912
-5.8696556 -7.0134096 1.6977208
-7.2898235 -8.6027632 2.0937407
-7.3463125 -8.5623484 2.0948372
-7.9151254 -9.1116619 2.2412202
-6.3542438 -7.2245812 1.7861719
-8.0570707 -9.0483561 2.2498095
-7.0006299 -7.7653275 1.9411442
-5.1169424 -5.6060371 1.4086097
-5.4034362 -5.8475018 1.4776894
-6.8280721 -7.2991166 1.855617
-5.9209394 -6.2519221 1.5983046
-6.2741933 -6.5440798 1.682918
-6.9735928 -7.1848974 1.8589065
-6.7784595 -6.8986115 1.7954922
-6.6501083 -6.6854062 1.7505356
-6.0136652 -5.9717469 1.5730851
-6.1891518 -6.071064 1.6092696
-8.2094898 -7.9549155 2.1226153
-7.5813231 -7.2564836 1.9484543
-7.4664025 -7.0591936 1.9077009
-7.500236 -7.0045238 1.9053252
-7.5148926 -6.9323707 1.8981979
-6.9694085 -6.3503861 1.7503529
-7.5424013 -6.7883244 1.8839433
-7.6816325 -6.8288007 1.9082491
-7.8489742 -6.8918252 1.9393167
-7.9089394 -6.8589959 1.9437027
-18.684933 -15.808119 4.547164
-7.1798267 -5.9986238 1.7368294
-21.294193 -17.571983 5.1295891
-20.794966 -16.946589 4.9841199
-20.928427 -16.842716 4.9912472
-20.223982 -16.072298 4.799542
-21.393648 -16.161406 4.9815617
-21.634222 -15.726147 4.969317
-21.446905 -15.191242 4.883059
-21.515539 -15.042459 4.8775764
-21.59206 -14.899549 4.874104
-21.503185 -14.451927 4.8136139
-23.813597 -14.16221 5.1478643
-24.029245 -13.698108 5.1390924
-24.135983 -13.563415 5.1440263
-24.334265 -13.284581 5.1511536
-25.271599 -13.595712 5.3318939
-25.215563 -13.366713 5.3026538
-25.331091 -13.229492 5.3097811
-25.219669 -12.779872 5.2531285
-25.321362 -12.636741 5.2580628
-25.87225 -12.713994 5.3561997
-26.041815 -12.59954 5.3752055
-26.142599 -12.450928 5.3801398
-49.311882 -21.296572 9.9821587
-27.933619 -11.860668 5.6387315
-28.043409 -11.503181 5.6319699
-27.280233 -10.800939 5.4515953
-26.982216 -10.491884 5.3790436
-27.103949 -10.348222 5.3905568
-27.467054 -10.294209 5.4501333
-28.631426 -10.530727 5.6683373
-28.689955 -10.352847 5.6672406
-28.823198 -10.002899 5.6688852
-28.108782 -8.7985926 5.4726114
-28.747889 -8.8053503 5.5864649
-28.994442 -8.6866388 5.623929
-57.330353 -12.299327 10.896824
-32.53841 -5.9425864 6.1460466
-56.38176 -9.5842648 10.628364
-32.31337 -5.2888126 6.084094
-32.581211 -5.1275887 6.1285024
-32.127945 -4.8544188 6.0374928
-32.629173 -4.5213375 6.1208272
-32.967216 -4.3621912 6.1791244
-32.643417 -3.9123693 6.1089482
-33.397511 -3.7950461 6.2456455
-62.367859 -6.7002759 11.657431
-33.135399 -3.3539257 6.1884446
-33.259262 -2.9546213 6.2043438
-37.480923 -1.2516702 6.968606
-37.339497 -1.0176208 6.9410105
-37.318493 -0.78792989 6.9360762
-37.09161 -0.55546916 6.8931298
-37.179852 -0.32862645 6.909029
-37.081287 0.35484979 6.8907542
-85.558601 2.3933749 15.907656
-38.935165 1.567906 7.2409039
-39.071144 1.8135679 7.2681336
-39.145683 2.0578101 7.2842155
-39.13232 2.2979646 7.2842155
-39.044289 2.7739651 7.2736158
-38.96772 3.0089438 7.262651
-65.95784 5.9075937 12.307108
-67.841324 7.758739 12.690336
-63.599339 9.6568222 11.955132
-63.423416 10.827992 11.957507
-67.258209 11.907817 12.694174
-44.967922 8.5320454 8.5055361
-44.678352 8.7614536 8.460762
-66.029335 13.369294 12.520378
-65.657341 13.713889 12.465553
-64.585686 14.319392 12.294498
-45.913536 10.772552 8.7639446
-63.550369 15.322353 12.14903
-63.354 15.686956 12.129658
-63.140305 16.045853 12.107363
-62.875118 16.389822 12.075563
-62.442825 16.686979 12.011967
-61.581116 17.269094 11.886051
-61.021339 17.516691 11.798514
-60.192574 18.081203 11.680275
-60.120911 18.462608 11.688133
-59.769165 18.756681 11.641897
-59.454472 19.059439 11.603154
-59.293423 19.409817 11.594748
-59.10141 19.749277 11.580676
-58.737175 20.029047 11.533161
-57.994949 20.573795 11.43612
-57.595798 20.830954 11.382392
-56.821342 21.34293 11.280234
-56.805935 21.735798 11.303444
-56.347206 21.957579 11.23875
-56.11729 22.265558 11.219927
-55.845608 22.555346 11.193063
-55.502468 22.81386 11.152126
-55.231735 23.099743 11.125993
-55.010246 23.404716 11.110094
-54.65266 23.64967 11.066965
-53.36237 24.663303 10.924968
-53.182449 24.977308 10.919302
-52.903965 25.243885 10.893718
-52.382687 25.390919 10.818241
-52.197678 25.69796 10.812393
-51.803345 25.899929 10.763416
-51.526852 26.158112 10.739111
-51.387226 26.485043 10.743679
-51.1105 26.740601 10.719922
-50.965435 27.06431 10.724125
-50.743019 27.346668 10.712429
-50.347404 27.533445 10.664366
-49.902412 27.689213 10.605886
-49.642475 27.944731 10.58688
-49.385548 28.200541 10.568788
-49.12991 28.45573 10.551243
-48.800098 28.666023 10.517982
-48.549805 28.921141 10.502084
-48.309158 29.180878 10.48856
-48.00679 29.401777 10.461879
-47.780376 29.667784 10.45201
-47.480118 29.886555 10.426242
-47.283413 30.169394 10.423501
-46.981003 30.383671 10.397733
-46.788754 30.668137 10.396636
-46.356686 31.204861 10.38494
-45.677006 31.984613 10.362827
-44.875492 32.251263 10.269991
-44.596478 32.46756 10.251533
-44.344196 32.70208 10.239471
-44.143497 32.97414 10.239654
-43.843903 33.171421 10.217175
-43.627834 33.430847 10.214435
-43.374504 33.661144 10.203286
-43.16869 33.927864 10.203652
-42.736847 34.445187 10.200728
-42.248791 34.91568 10.185742
-41.764633 35.387024 10.17295
-41.114204 35.711842 10.120501
-40.885445 35.95565 10.118308
-40.770531 36.30064 10.144807
-39.87014 36.836781 10.087789
-39.677113 37.112293 10.096377
-39.18676 37.565781 10.088154
-38.746666 38.067261 10.094367
-38.511662 38.303596 10.094185
-38.032524 38.766994 10.09254
-37.751514 38.955853 10.081209
-37.387363 39.056793 10.047766
-37.144985 39.283318 10.047217
-10.448401 42.327888 8.101841
-0.29844362 33.772354 6.2756166
-0.091241464 33.783382 6.2774439
3.4383407 30.060915 5.6219187
3.986284 29.956474 5.6151567
4.1890078 30.067778 5.6407418
4.5567851 30.008276 5.6396456
14.544847 21.606567 4.8391991
14.65942 21.490923 4.8333511
14.803308 21.418365 4.8373713
14.927118 21.31666 4.8349957
15.020658 21.172544 4.8231168
15.10783 21.020903 4.8095932
11.303381 15.32667 3.5376511
11.416038 15.282231 3.543499
11.407773 14.886579 3.4839225
11.547724 14.879215 3.4987252
9.9565983 12.667641 2.9926896
10.040874 12.614772 2.9947
10.215434 12.51574 3.0007305
11.25283 13.446548 3.2569466
11.809883 13.937587 3.393461
11.820282 13.777555 3.3720794
11.770497 13.550377 3.3340671
11.113919 12.636987 3.1259146
11.211516 12.591318 3.1315799
11.336617 12.575598 3.1449206
12.37453 13.558812 3.4099085
12.563573 13.597447 3.4389658
11.852943 12.671395 3.222955
11.955482 12.624843 3.2297168
8.8881187 9.2708683 2.3850448
12.14032 12.508929 3.2379405
14.236343 14.489797 3.7735817
12.275577 12.341579 3.2333717
9.332695 9.2681894 2.4426112
12.866838 12.622406 3.348139
13.595698 13.174743 3.5168176
14.309072 13.696832 3.6796482
12.164686 11.361286 3.0917404
12.614978 11.63777 3.1880498
11.483504 10.464157 2.8855979
12.079461 10.872346 3.01864
13.199238 11.447609 3.2454333
13.250565 11.350414 3.2408645
13.367995 11.309538 3.2525606
16.368174 13.172532 3.9031518
13.988787 11.116819 3.3190818
15.076916 11.68264 3.5431335
13.38664 10.11234 3.1162288
16.607866 12.386558 3.8488748
16.806265 12.374781 3.8772011
10.881011 7.9090905 2.4981673
10.934928 7.8461895 2.4994464
10.675595 7.5612893 2.4294531
11.106129 7.7643666 2.5166249
11.168126 7.7061262 2.5199144
11.320025 7.7088475 2.5434892
16.726292 11.092887 3.7284424
13.673743 8.9479637 3.0352705
15.162211 9.7897463 3.352525
12.24354 7.7990665 2.6960859
11.777562 7.4010119 2.583329
11.580425 7.1783772 2.5303314
15.387832 9.4085436 3.350332
11.691159 6.9524441 2.5261281
11.741231 6.8850546 2.5277727
15.785168 9.126997 3.3870647
15.755461 8.9812765 3.3687897
7.3700895 3.9063034 1.548231
7.6326981 3.9857209 1.5983046
8.3633213 4.2375207 1.7404844
8.4120369 4.1975398 1.7452358
13.137983 6.4558067 2.7187469
7.6141911 3.683341 1.5699782
7.2434335 3.4492638 1.4890199
7.608077 3.5658388 1.5595615
20.97716 9.6766262 4.2918615
7.1463418 3.2430191 1.4564903
6.4658799 2.8864369 1.3139451
7.2036042 3.1629851 1.4601454
7.1533775 3.0887094 1.4460735
5.771328 2.4499099 1.1631761
6.0656981 2.5310941 1.2194631
6.8524556 2.8102467 1.3744354
6.5039091 2.6207614 1.3011526
6.401947 2.5341141 1.2775778
18.748215 7.2899089 3.7368488
6.1257892 2.3382277 1.2165391
7.2245088 2.7070746 1.4318191
7.3498635 2.7027447 1.4533836
7.2886276 2.6295621 1.4380325
7.4649634 2.6415439 1.4696484
7.0593519 2.449338 1.3866798
6.8033938 2.3138297 1.3334993
6.7642999 2.2543178 1.3230826
6.7966967 2.2188747 1.3267376
6.7605519 2.161257 1.3170519
6.2276182 1.9487904 1.2106911
6.3362837 1.9402013 1.2295145
6.210567 1.8600875 1.2028329
6.3152704 1.8493085 1.2209252
17.258516 4.9403257 3.3346155
6.6253247 1.85217 1.2764813
6.7911596 1.8536975 1.3062695
6.4537535 1.7190831 1.2392002
6.9428058 1.8038563 1.3311236
6.9718509 1.7658103 1.3345959
6.391716 1.5771432 1.2214735
6.9050498 1.6589831 1.3177829
6.984026 1.6327041 1.3309408
6.9210534 1.5732505 1.3170519
7.2300963 1.5969403 1.3740699
7.1292114 1.5288295 1.3530537
7.0056281 1.45741 1.3278341
7.1117768 1.4340341 1.3462919
7.0007925 1.3669947 1.3236308
6.8380566 1.291695 1.2912841
6.8120027 1.2435302 1.2848878
6.915359 1.2186102 1.3029801
6.9808612 1.1860418 1.3139451
6.9123282 1.1307975 1.2996906
7.0580182 1.1102232 1.3258239
7.0413666 1.0633693 1.3214378
7.0458131 1.0198624 1.3210723
23.818739 3.3003073 4.467485
23.822947 3.1520326 4.464561
7.4457617 0.93821692 1.3927104
24.182945 2.8981833 4.5250511
7.5299802 0.85510224 1.4064168
7.5008717 0.80520701 1.4000205
7.5747852 0.71923888 1.412082
7.5663242 0.67161608 1.4097062
24.510347 2.0257163 4.5692768
7.5867405 0.57968998 1.412082
26.477182 1.8614978 4.931488
7.5403013 0.48314559 1.4022135
7.5234938 0.43573132 1.3985585
26.652548 0.88985455 4.9546971
22.948896 0.48426387 4.2644491
22.790216 0.34102553 4.234478
28.545101 0.25214174 5.3039331
28.541771 0.08720728 4.7947192
26.878107 -0.082787544 4.5151224
24.231312 -0.22330427 4.0704522
24.064814 -0.36945125 4.0427742
24.237591 -0.52087605 4.0722752
24.277311 -0.67078412 4.0795679
29.287514 -0.98913091 4.922833
29.119291 -1.1623653 4.8956523
26.911592 -1.4051856 4.5268898
26.436798 -1.5431015 4.4484963
26.761154 -1.8918169 4.50667
26.55632 -2.0411704 4.4741855
26.607178 -2.2093835 4.4849582
26.575441 -2.3710229 4.4819751
27.629473 -2.6360476 4.6624618
28.316244 -2.8770075 4.7812943
30.898293 -3.9076252 5.2320967
30.893288 -4.0997348 5.2354116
39.068607 -6.903162 6.6655488
33.945477 -9.0589666 5.9024997
47.46859 -16.821259 8.4616308
47.305126 -17.090757 8.4510241
47.100349 -17.344233 8.4332905
46.909943 -17.601727 8.4183741
46.723679 -17.859652 8.4044523
28.796762 -11.210183 5.1913257
46.438656 -18.406967 8.3931818
46.265392 -18.667578 8.3824091
46.03595 -18.90428 8.3616924
45.730732 -19.107693 8.3273849
45.574509 -19.371729 8.3204241
45.398666 -19.626741 8.3101482
45.198841 -19.870403 8.2957287
44.99234 -20.109941 8.2803154
44.795372 -20.352587 8.2668915
44.624886 -20.60639 8.258604
44.417255 -20.842113 8.2436876
44.200405 -21.072245 8.2272797
44.041878 -21.329302 8.2219763
43.837608 -21.563442 8.2083864
43.663891 -21.811747 8.2007627
43.505489 -22.067207 8.1962872
43.300007 -22.298069 8.1831942
43.138775 -22.550999 8.1787195
42.966488 -22.797703 8.1724215
42.782383 -23.037533 8.164135
42.61599 -23.286367 8.1594944
4.2539983 -2.3583014 0.81539476
4.2093644 -2.3674378 0.80959398
4.2127461 -2.4034846 0.81307441
4.1910911 -2.4253366 0.81174856
4.2007947 -2.4654839 0.8165549
4.1703343 -2.4821336 0.81357163
4.2723832 -2.5785103 0.83660895
4.2144237 -2.5789378 0.82832217
4.209414 -2.6115077 0.8304767
4.3293791 -2.7228711 0.85749173
4.3350415 -2.7636988 0.86196661
43.326111 -27.998871 8.6674757
43.134525 -28.25176 8.6636629
42.94968 -28.508808 8.6615086
42.730576 -28.742632 8.6527252
42.52652 -28.985952 8.6472559
42.287815 -29.204874 8.6349907
42.055302 -29.427048 8.624218
41.570869 -29.854628 8.5993576
40.485062 -30.608313 8.5275936
37.010307 -28.339808 7.8319993
36.712593 -28.470879 7.8058133
36.480591 -28.651138 7.7937145
36.101116 -28.712996 7.7501259
35.805981 -28.838703 7.7246022
35.525951 -28.97434 7.702394
35.285908 -29.140911 7.6889691
34.96648 -29.239838 7.658308
34.626854 -29.318741 7.6231718
34.401386 -29.492142 7.6132278
34.041039 -29.547525 7.573451
33.817616 -29.719385 7.5641699
33.544003 -29.845695 7.5437841
33.349983 -30.041716 7.5414639
33.229145 -30.304258 7.5560489
32.820858 -30.302872 7.5053334
32.623501 -30.493586 7.5028477
32.364151 -30.625402 7.4862738
3.6021943 -3.450578 0.83627748
3.5660877 -3.4581978 0.83279705
3.550431 -3.4855409 0.8341229
3.5072944 -3.4857094 0.8289851
3.5428445 -3.5645213 0.84257543
3.5243607 -3.5897112 0.84340411
3.5002084 -3.6091447 0.84290695
3.4855013 -3.6383874 0.84473002
3.4759891 -3.6733158 0.84787899
3.4466507 -3.6873701 0.84622163
29.436935 -31.884869 7.2910366
29.124453 -31.937368 7.262033
28.852037 -32.031208 7.2429733
28.413729 -31.936502 7.1819825
28.109825 -31.988014 7.1546359
27.893629 -32.137547 7.1496639
27.844173 -32.481049 7.1879487
27.688955 -32.703972 7.1995506
27.333414 -32.688656 7.1591105
27.085232 -32.798725 7.1466804
26.821144 -32.887875 7.1301069
26.534719 -32.947372 7.1075668
26.300751 -33.070202 7.0991144
26.097343 -33.230957 7.0991144
25.674187 -33.108349 7.0391178
25.424391 -33.204971 7.0263562
25.207682 -33.343826 7.0228758
25.064548 -33.580853 7.040278
24.846914 -33.718925 7.0371289
24.571676 -33.777447 7.0177379
24.309311 -33.851482 7.0019927
24.149622 -34.068386 7.0160804
23.871155 -34.117348 6.9958606
23.64007 -34.232338 6.9895625
27.15239 -39.839046 8.1004915
23.217106 -34.518227 6.9892311
22.764914 -34.298504 6.9163074
22.51243 -34.374016 6.9035459
22.291456 -34.496593 6.9005623
22.27075 -34.932915 6.960393
22.04916 -35.058056 6.9582386
21.680784 -34.946312 6.909512
21.473673 -35.091305 6.9119983
21.241646 -35.195385 6.9066949
20.972834 -35.236927 6.8894582
20.783186 -35.410881 6.8984079
20.517109 -35.454086 6.8821659
20.251291 -35.495365 6.8659234
19.935461 -35.445328 6.8324447
19.723335 -35.577332 6.8344336
19.518377 -35.722782 6.8392401
19.389051 -36.009453 6.8712273
19.160803 -36.114677 6.868741
18.864384 -36.089108 6.8417263
18.660196 -36.238373 6.8481898
18.429907 -36.337234 6.8453722
18.185007 -36.406403 6.8372512
17.969547 -36.534115 6.8404002
17.729998 -36.612621 6.8345995
17.479551 -36.667309 6.8246551
17.165852 -36.585491 6.7896848
16.958818 -36.72863 6.7968116
16.735178 -36.836487 6.7976403
16.580462 -37.09874 6.8271413
16.345373 -37.183525 6.8241582
16.11965 -37.289455 6.8253183
15.884372 -37.373142 6.8226666
15.663118 -37.489922 6.8263125
15.403574 -37.514164 6.813385
15.203356 -37.682968 6.8269753
14.968946 -37.768211 6.8256497
14.720824 -37.817993 6.8181915
14.43252 -37.761135 6.7918396
14.198819 -37.844364 6.7910109
13.970432 -37.941879 6.7929997
13.843911 -38.321835 6.8457036
13.598631 -38.37817 6.8407316
13.351887 -38.429214 6.8350968
13.133642 -38.562695 6.844378
12.886477 -38.611687 6.8389087
12.648398 -38.687218 6.8384113
12.430925 -38.827023 6.8495159
12.20248 -38.934563 6.8551507
11.952076 -38.971931 6.8486872
11.679288 -38.933075 6.8291302
11.437681 -38.995487 6.8276386
11.204173 -39.085789 6.8312845
11.044178 -39.439644 6.8811712
10.811076 -39.539963 6.886972
10.562158 -39.582684 6.8829942
10.335976 -39.711643 6.8942642
10.096966 -39.793434 6.8975792
9.8457441 -39.826878 6.8927727
9.6334963 -40.020767 6.915976
9.3915749 -40.095448 6.9187932
9.1322365 -40.094627 6.9088492
8.8683615 -40.069988 6.895093
8.6206722 -40.115936 6.8937674
8.4083786 -40.33123 6.9217768
8.8497171 -43.791367 7.5063281
8.5763054 -43.821617 7.5023503
7.7117372 -40.728191 6.9643707
7.4902687 -40.93092 6.9910545
7.2400098 -40.981937 6.9920487
6.98212 -40.988647 6.9857507
6.7456517 -41.123169 7.0014958
6.4951954 -41.176449 7.0036502
6.2382841 -41.188225 6.9990096
5.9896913 -41.255005 7.0039816
5.7437706 -41.343727 7.0129313
5.0376997 -41.907528 7.0916562
4.7872782 -41.997421 7.1017661
4.5373163 -42.09856 7.1140304
4.2804136 -42.140324 7.1165166
4.0415215 -42.372936 7.1514869
3.7847788 -42.434265 7.1577849
3.5128334 -42.318115 7.1344161
3.2550724 -42.364441 7.1387253
2.9967358 -42.407227 7.1427031
2.7706859 -42.955257 7.2320347
2.5134404 -43.08073 7.2504315
2.2449434 -43.016548 7.2371726
1.9895273 -43.215706 7.2684965
1.7238516 -43.215279 7.2665076
1.4644749 -43.397522 7.2955117
1.200505 -43.490467 7.3097649
0.93394738 -43.511806 7.3122511
0.66684061 -43.509815 7.3110909
0.39982966 -43.510132 7.3105936
0.13325492 -43.644897 7.3329678
-0.13595717 -44.101486 7.4097037
-0.40663809 -44.1087 7.4111953
-0.67844254 -44.181297 7.4239569
-0.95238256 -44.309402 7.4463315
-1.2292824 -44.485096 7.4769926
-1.5061767 -44.594006 7.4967151
-1.7854763 -44.726807 7.5207472
-2.0574756 -44.662796 7.5119629
-2.3328714 -44.675922 7.516438
-2.6179309 -44.848808 7.5480933
-2.9185364 -45.226528 7.6145535
-3.2030802 -45.308113 7.6314588
-3.4919846 -45.430176 7.6554904
-3.789608 -45.635902 7.6939411
-4.0744615 -45.666801 7.7032223
-4.3650818 -45.750889 7.7217851
-4.6587815 -45.851772 7.7434964
-4.9422545 -45.842915 7.7469769
-5.2311573 -45.879333 7.7584128
-5.5228119 -45.931557 7.7728314
-4.3391094 -10.94746 1.9770392
-4.4106283 -10.931603 1.9790281
-4.4660072 -10.876056 1.9738903
-4.5284753 -10.838439 1.9720671
-4.578691 -10.772329 1.9651062
-4.2095332 -9.7374516 1.7808077
-4.2934117 -9.7665091 1.7909176
-4.3681469 -9.7732935 1.7970499
-4.4655623 -9.828908 1.8122976
-4.6026864 -9.9678526 1.8431245
-4.6821938 -9.9787054 1.8504169
-4.7991371 -9.9098454 1.848428
-4.8568053 -9.8740177 1.8472679
-14.047837 -28.121841 5.2809892
-4.9379501 -9.5891867 1.8106402
-4.878366 -9.3323526 1.7677145
-13.528272 -25.496693 4.8487492
-5.3530097 -9.9412327 1.8954971
-4.9821687 -9.1180897 1.74418
-5.0494986 -9.1080475 1.7481576
-45.87767 -81.564651 15.725348
-46.337688 -81.212234 15.711924
-46.775352 -80.823105 15.69187
-47.165565 -80.355972 15.657065
-47.617374 -79.997261 15.643806
-6.2359214 -10.331903 2.0260971
-6.079391 -9.9342737 1.9553279
-6.1537499 -9.9185715 1.9596369
-6.2291946 -9.9040003 1.9642776
-6.3036318 -9.8872118 1.9685867
-6.360189 -9.7109413 1.9488641
-50.795387 -76.525055 15.43415
-5.8980079 -8.6534815 1.7579361
-5.9112039 -8.559515 1.7461689
-5.90029 -8.4325867 1.7276064
-5.7021151 -8.0438442 1.6550139
-7.1440606 -9.9479418 2.0562611
-7.1579728 -9.839325 2.0428364
-53.934486 -73.187866 15.277032
-4.8749113 -6.5311356 1.3676275
-4.9083514 -6.4924479 1.3658044
-4.7166672 -6.1599765 1.3018303
-4.5543351 -5.8729753 1.2469716
-4.6353602 -5.9023118 1.2592361
-4.8783627 -6.1338596 1.3150891
-4.8126025 -5.9755497 1.2874112
-4.9239721 -6.0376143 1.3072996
-5.1863666 -6.2802663 1.3667989
-7.3934388 -8.8416662 1.9349422
-7.9312267 -9.3673744 2.0607359
-8.0752048 -9.4196081 2.0831103
-7.0209718 -8.0889206 1.7980442
-6.338098 -7.2123289 1.6115911
-5.0449471 -5.6703215 1.2734894
-5.98984 -6.6496801 1.5020396
-5.5115356 -6.0437217 1.3725996
-6.5038228 -7.0444679 1.6092708
-5.9879894 -6.4064584 1.4717098
-5.996006 -6.3366461 1.4640859
-5.2147622 -5.443758 1.2648711
-7.3716049 -7.6012826 1.777493
-7.175127 -7.2192779 1.7085468
-7.2087965 -7.1646886 1.7060606
-17.368731 -17.051529 4.0885177
-6.9556484 -6.7454619 1.6263416
-7.0004678 -6.7060671 1.6271703
-7.0486469 -6.669765 1.6288277
-20.442667 -19.106966 4.7005811
-20.53706 -18.960434 4.6954432
-20.76379 -18.703026 4.6944489
-8.7006454 -7.7410979 1.955162
-6.0826211 -5.3453727 1.3588434
-8.86127 -7.6912751 1.9699126
-19.298307 -16.543451 4.2698331
-6.1536384 -5.2102027 1.3530427
-20.86845 -17.449751 4.5696497
-23.623665 -19.265945 5.1210537
-21.366043 -16.992512 4.5858917
-21.468353 -16.859877 4.5855603
-21.66424 -16.587961 4.5835714
-21.752239 -16.444611 4.5807538
-21.733397 -16.22176 4.5557275
-21.979395 -16.196329 4.5863891
-22.196388 -16.14702 4.6109176
-22.347914 -16.048487 4.6218562
-21.853821 -15.49132 4.4998746
-21.565458 -15.088959 4.4213157
-21.877546 -15.108215 4.4662304
-24.585041 -15.044564 4.8419538
-24.722363 -14.306778 4.7983656
-24.350563 -13.892876 4.7095308
-24.561703 -13.814265 4.7338939
-25.085014 -13.906675 4.8182535
-25.168142 -13.751549 4.8179221
-25.310223 -13.628185 4.8290267
-46.27322 -24.550404 8.8013897
-25.345335 -13.248495 4.8043318
-25.257103 -12.810231 4.7574286
-25.470211 -12.722439 4.7827864
-25.876102 -12.727394 4.844274
-25.987436 -12.584715 4.8505721
-24.399496 -11.631473 4.5406456
-26.457745 -12.413986 4.9095745
-27.699621 -11.974167 5.0695095
-27.56776 -11.319566 5.0063643
-27.912706 -11.062896 5.0439863
-27.501261 -10.705045 4.9576378
-27.359161 -10.456882 4.9203472
-27.450508 -10.299205 4.9253192
-28.155436 -10.367055 5.0403399
-28.668358 -10.356606 5.1207223
-28.557539 -10.118914 5.0897293
-29.544117 -10.264885 5.2543054
-29.661623 -10.10217 5.2640839
-28.286201 -9.4404449 5.0095134
-28.970678 -9.4717226 5.1203909
-28.344507 -9.0748777 4.9997349
-28.357309 -8.887517 4.9922767
-28.320795 -8.6855946 4.976366
-29.209515 -8.7624273 5.1230426
-28.49906 -8.3590498 4.9892936
-56.985126 -12.979257 9.8201704
-57.135761 -10.093725 9.7489033
-32.765842 -5.1685405 5.5726848
-32.291988 -4.6884184 5.4818611
-32.3895 -4.499825 5.4936285
-32.879883 -4.3624806 5.5721874
-33.031265 -4.1764851 5.5934014
-33.103268 -3.9793799 5.601357
-33.224064 -3.7872441 5.6177649
-33.345547 -3.387121 5.6308579
-33.468781 -3.1922843 5.6482601
-33.286373 -2.9689045 5.6142845
-65.270729 -3.004782 10.978997
-37.313354 -1.2591875 6.2724223
-37.247429 -1.0281999 6.2601581
-37.171204 -0.7978785 6.2464018
-37.206955 -0.57026869 6.2517056
-37.185101 -0.34173393 6.2475619
-37.231861 -0.11370233 6.2551861
-37.154938 0.11451275 6.2422585
-36.944649 0.56728685 6.2076197
-36.854694 0.79212022 6.1932006
-36.826466 1.0176148 6.1893888
-39.132774 1.5621414 6.5798631
-39.26825 1.8089432 6.6043921
-39.143158 2.0439403 6.5853324
-39.210609 2.2887924 6.5989227
-39.169254 2.527626 6.5944476
-39.08218 2.7629092 6.5825148
-39.121521 3.0070446 6.5921273
-39.088573 3.2458906 6.589807
-67.71006 8.1415491 11.4593
-66.55925 9.248991 11.291409
-64.113869 10.115381 10.906239
-63.384113 10.799034 10.803814
-66.957283 12.255177 11.437755
-45.111485 8.5430813 7.7141609
-44.717548 8.7530355 7.6558218
-44.630135 9.0206099 7.650187
-65.850517 13.730838 11.302845
-46.032742 10.189481 7.9214969
-46.32383 10.851903 7.9939237
-63.510509 15.289837 10.976511
-63.327423 15.657466 10.961264
-62.210968 16.602287 10.819061
-61.976654 16.947798 10.79619
-61.815472 17.312069 10.786411
-61.362068 17.591835 10.725918
-61.045731 17.907223 10.689622
-60.82325 18.248014 10.670065
-59.763809 18.732586 10.52372
-59.517197 19.057135 10.500683
-58.838009 20.040997 10.444166
-58.453102 20.31101 10.39776
-57.953705 20.536871 10.331135
-57.378052 21.128937 10.273955
-56.883232 21.743082 10.232356
-56.236874 21.892431 10.14004
-56.019894 22.204741 10.12529
-55.939293 22.570932 10.135566
-55.348724 23.126427 10.079216
-55.019726 23.38652 10.045239
-54.610874 23.609404 9.9968443
-54.266373 23.85673 9.9603825
-53.657974 24.379313 9.9028721
-53.544979 24.725456 9.909833
-53.255665 24.989441 9.8844757
-52.467487 25.409832 9.79531
-52.199089 25.676441 9.7744265
-52.030857 25.991398 9.772604
-51.70153 26.22451 9.7407827
-51.506332 26.524096 9.7344847
-51.245605 26.788921 9.7160873
-50.675964 27.288122 9.6708422
-50.241894 27.453377 9.6199608
-49.962101 27.69993 9.5987463
-49.716415 27.963911 9.5843277
-49.367451 28.167759 9.5501862
-49.084435 28.406912 9.5289717
-48.821606 28.656137 9.5119009
-48.526218 28.884542 9.488698
-48.283062 29.142513 9.4759359
-48.047821 29.404247 9.4649973
-47.759235 29.63196 9.4437838
-47.473843 29.859863 9.423398
-47.245659 30.122498 9.4146137
-47.000305 30.373285 9.4026804
-46.707462 30.591942 9.3814669
-46.476967 30.850142 9.3730145
-46.254887 31.113272 9.3665504
-46.01992 31.367064 9.3577662
-45.747879 31.594486 9.3416901
-45.507103 31.842369 9.332243
-45.283508 32.101604 9.3266077
-44.874218 32.226986 9.2828531
-44.606255 32.451248 9.2684345
-44.365013 32.693913 9.2598162
-44.116947 32.930714 9.2500381
-43.877087 33.172836 9.2422485
-43.628864 33.407864 9.2329674
-43.394226 33.652573 9.2268343
-43.172962 33.907238 9.2238512
-42.953289 34.16291 9.2215309
-42.686798 34.380665 9.2094326
-42.179558 34.834087 9.1915331
-41.963512 35.090977 9.1912012
-41.748161 35.348438 9.1913671
-41.516258 35.591736 9.1882181
-41.124306 35.695831 9.1497679
-40.891914 35.936428 9.1469498
-40.684639 36.199112 9.1500988
-40.439781 36.428268 9.1451263
-40.204571 36.665745 9.1426411
-39.9571 36.891678 9.1376686
-39.663704 37.074203 9.1224213
-39.449081 37.329754 9.1255703
-39.187954 37.541088 9.1182775
-38.956871 37.780838 9.1182775
-38.6828 37.978397 9.1084995
-38.438549 38.204609 9.1060133
-38.210358 38.446739 9.1076708
-37.968899 38.675541 9.1065102
-37.712334 38.888672 9.1020355
-37.393192 39.036015 9.0826445
-37.14077 39.251827 9.0796614
-31.025442 40.009167 8.506711
-29.264076 41.283527 8.5024023
-28.623075 41.996914 8.539361
-26.975883 43.481342 8.5975342
-10.451845 42.278652 7.3172231
-4.7768073 37.779346 6.3977189
-0.72407842 33.732235 5.6683145
-0.5183568 33.818871 5.6822362
-0.31103757 33.843113 5.6858826
3.9926999 30.086767 5.0986791
4.1723475 30.026539 5.0927129
4.3760662 30.13505 5.1155844
4.5607414 30.106657 5.1154184
14.370078 21.940268 4.4057364
14.780934 21.685898 4.4085541
14.463144 20.942383 4.2753019
14.92608 21.331583 4.3734179
14.886728 20.999849 4.3240285
15.154911 20.831533 4.3273435
15.266064 20.715923 4.3227029
11.360309 15.219496 3.1897304
11.446938 15.140851 3.1879075
11.542623 15.074244 3.1887362
11.491668 14.818444 3.1494567
11.540346 14.694139 3.1380208
10.107285 12.708179 2.7268295
12.050125 14.961545 3.2265239
11.880541 14.567115 3.1570804
12.101573 14.653625 3.191885
12.405085 14.834798 3.2479038
13.065202 15.052284 3.347677
13.142342 14.954796 3.3438652
13.273187 14.91808 3.3538094
11.373791 12.626474 2.8539491
13.156883 14.426908 3.2793937
13.334802 14.442999 3.3016024
13.396235 14.332088 3.2949729
12.643422 13.361407 3.0894601
13.595662 14.192253 3.3009396
13.656875 13.910345 3.2740903
14.141709 14.228471 3.3693886
9.4107494 9.3530884 2.227798
14.180837 13.921904 3.3377328
14.120862 13.693889 3.303757
14.973035 14.343058 3.4825861
15.085115 14.27396 3.4882212
15.0593 14.075409 3.4622006
11.499316 10.486664 2.613466
12.681472 11.282786 2.8506343
13.123821 11.532851 2.9341655
13.198807 11.455986 2.9351599
13.267354 11.3735 2.9348283
13.369253 11.31928 2.9419551
20.315418 16.987324 4.4484963
13.807514 11.402404 3.0074208
15.985776 13.037051 3.4646866
14.441796 11.631078 3.1143205
16.233894 12.749125 3.4670072
10.59018 8.1088524 2.2395654
10.646029 8.0484772 2.2408912
14.63251 10.92175 3.0665886
11.254478 8.2933912 2.3474596
10.923956 7.9468765 2.2682376
10.910031 7.8348308 2.2553103
10.883077 7.7147031 2.2398968
11.084542 7.7557631 2.2715523
14.067858 9.7150745 2.8711858
13.835934 9.183445 2.7888148
11.432731 7.4877391 2.2947555
11.469348 7.411561 2.2929323
14.695314 9.3688183 2.926873
15.222513 9.5740623 3.0201824
15.379855 9.5418253 3.0397394
15.305207 9.3659487 3.0135529
15.994392 9.5198975 3.1260879
15.999774 9.3906298 3.1158123
16.201344 9.3757563 3.1438217
15.84313 9.0391541 3.0634396
17.229738 9.6906052 3.3201649
17.240574 9.5579271 3.3108835
17.399286 9.5068111 3.3301091
17.610657 9.2054939 3.3375671
17.743963 9.1369925 3.3521519
17.782982 9.0194702 3.3490028
17.904158 8.9432364 3.361433
17.933918 8.821023 3.3567924
18.03297 8.7327375 3.3652451
7.5605183 3.6043139 1.4055811
16.994226 7.973773 3.1527712
17.074171 7.8838172 3.1585722
26.186098 11.89666 4.8316784
20.752998 9.2751846 3.818202
18.36204 8.0718069 3.3688912
5.7862058 2.5014584 1.0573695
5.7551579 2.4462349 1.0489169
18.42561 7.6982388 3.3539751
18.927717 7.7719507 3.4366775
6.2418494 2.5184693 1.1291332
18.779634 7.4431682 3.3929231
18.805651 7.3202858 3.3894424
6.4382224 2.460891 1.1563139
7.3174319 2.7455866 1.311443
7.2443738 2.6675839 1.2953665
7.2893581 2.6334698 1.3005043
7.2914362 2.5837529 1.2980183
6.6587958 2.3137026 1.1826659
6.7876897 2.3119068 1.2030516
6.765265 2.2580392 1.1965878
6.8249226 2.2315021 1.2047089
6.5651765 2.1020811 1.1564797
6.3106966 1.9779993 1.1094106
6.2906585 1.9294094 1.1037756
6.2749853 1.882557 1.0989692
16.465832 4.82967 2.8817928
6.1478324 1.7624763 1.072783
23.0289 6.448802 4.0170851
23.209774 6.3461313 4.04178
18.271618 4.7557621 3.1710024
6.9246368 1.7120233 1.1967536
6.881319 1.6565781 1.1874723
7.0536251 1.6523319 1.2154818
7.0020919 1.5950043 1.2048746
7.0955167 1.57055 1.2192937
7.2737484 1.563241 1.2482975
7.4801474 1.5596393 1.2821077
6.9637294 1.4074476 1.1919472
7.0457878 1.3790872 1.2045431
6.9397807 1.3141804 1.1849864
7.2882051 1.3338817 1.2431597
7.3117909 1.2918819 1.2458115
18.831013 3.2078295 3.208293
18.843529 3.0911067 3.2071328
6.865777 1.083169 1.1660924
23.763096 3.5991898 4.0371394
23.894037 3.4691834 4.0557017
23.90999 3.3218288 4.054873
23.935787 3.1758354 4.0558677
22.223089 2.809957 3.7625146
24.571226 2.8009474 4.1541491
22.450476 2.4197645 3.7928443
25.167892 2.5565104 4.2494473
24.585241 2.3450136 4.1485138
24.455755 2.1813266 4.1243167
21.834803 1.812601 3.6801436
7.6421447 0.58733785 1.2860854
7.5631576 0.48799053 1.2716663
24.530804 1.1294088 4.1249795
24.660446 0.98378211 4.1456966
22.810116 0.76982945 3.8336153
22.803564 0.62955546 3.8317924
26.590063 0.57080787 4.4677219
26.837606 0.41139042 4.5088243
24.912731 0.22901157 4.1849761
28.416958 -0.12747473 4.2198319
27.1684 -0.28861746 4.034533
26.319529 -0.44114661 3.908747
26.054274 -0.59663785 3.8698061
29.225914 -0.84863305 4.3417974
26.083542 -0.91767424 3.8755372
29.113482 -1.2030934 4.3269558
24.020147 -1.1404128 3.5706236
28.299406 -1.8660753 4.2114563
30.249592 -2.3677762 4.5057898
26.670429 -2.2524319 3.974432
28.411507 -3.4566352 4.250103
28.29361 -3.6186049 4.2357025
28.564005 -3.8314552 4.2796392
39.068584 -6.9594378 5.8935504
33.956718 -9.1128912 5.221271
47.440941 -16.885822 7.4791007
47.274139 -17.153992 7.469255
47.069656 -17.40737 7.4536786
46.879581 -17.664816 7.4406004
46.731525 -17.937244 7.4344287
28.841045 -11.274038 4.5985126
46.345215 -18.444626 7.4084191
46.086319 -18.669968 7.3852019
45.895905 -18.921484 7.3731523
45.729687 -19.182077 7.3652172
45.519238 -19.423101 7.3503757
45.349297 -19.68038 7.3422937
45.168865 -19.93231 7.3327422
45.0051 -20.190866 7.3261294
44.804764 -20.432159 7.313786
44.593296 -20.667179 7.2998261
44.438797 -20.927767 7.2954178
44.208725 -21.151806 7.2788129
44.056751 -21.412291 7.2752862
43.833183 -21.637119 7.2601504
43.667759 -21.889711 7.2548604
43.49472 -22.137945 7.2485418
43.287766 -22.368082 7.2367859
43.11729 -22.61627 7.231349
42.969849 -22.876225 7.2300267
4.2875338 -2.3171737 0.72221696
4.2385411 -2.3244181 0.71633911
4.2328429 -2.3551896 0.7178086
4.2217584 -2.3830619 0.71839637
4.2164993 -2.4143267 0.72001278
4.197329 -2.4376698 0.71927804
4.1899643 -2.4678953 0.72060055
4.1806874 -2.4971075 0.7216292
4.1407485 -2.5078561 0.71736777
4.2222257 -2.5927267 0.73426658
4.2213535 -2.6279924 0.73691159
4.2268996 -2.6675675 0.74073219
4.2454515 -2.7158353 0.74690396
4.2643986 -2.7649684 0.75322264
43.126724 -28.332483 7.663959
42.93148 -28.582867 7.6602855
42.755291 -28.845749 7.6602855
42.511353 -29.062334 7.6483827
42.282627 -29.288275 7.6394191
41.996056 -29.472731 7.6201692
41.772503 -29.700054 7.6125278
41.58707 -29.954073 7.6120868
41.28743 -30.124729 7.5909266
40.976921 -30.285196 7.5678558
40.712723 -30.477962 7.5534554
40.512333 -30.717638 7.5511041
36.956726 -28.380548 6.9205575
36.693661 -28.538158 6.9039526
36.441711 -28.702791 6.8895521
35.984203 -28.70196 6.8362107
35.782021 -28.901707 6.8313613
35.416416 -28.967291 6.7953596
35.169449 -29.127274 6.7821345
34.958992 -29.316463 6.7761097
34.585423 -29.36652 6.7384911
34.353577 -29.53433 6.7284989
34.094864 -29.677675 6.7133636
33.790421 -29.779064 6.6892643
3.6206119 -3.2313113 0.71913111
3.570622 -3.2262814 0.71310633
3.5522187 -3.249465 0.71340019
32.742401 -30.3151 6.6271062
32.522575 -30.484316 6.6203465
3.6345925 -3.449789 0.74264252
3.6504498 -3.5076582 0.75028372
3.601912 -3.5037861 0.74469978
3.5528555 -3.4987569 0.73896885
3.5138054 -3.5030346 0.73529518
3.4838896 -3.5160983 0.73353183
3.4525621 -3.5275137 0.73147458
3.4246638 -3.5422323 0.73015207
3.3926158 -3.5524504 0.72794789
3.3727913 -3.5753586 0.72838873
3.3770921 -3.6242058 0.73411965
3.4767261 -3.7772996 0.76086384
29.088356 -31.987282 6.4212341
28.888891 -32.16222 6.4206467
28.318789 -31.919348 6.337328
28.065687 -32.027786 6.3245435
27.851162 -32.179199 6.3205762
27.787521 -32.506622 6.3512878
27.639227 -32.737732 6.3631907
27.282001 -32.719822 6.3270416
27.028534 -32.823227 6.3148451
26.784187 -32.936272 6.304853
26.466387 -32.956547 6.2775207
26.341114 -33.215973 6.2960362
26.09717 -33.326351 6.2864847
25.617491 -33.1306 6.2197709
25.377106 -33.239208 6.2108073
25.111347 -33.312935 6.1956716
25.024584 -33.625092 6.2250609
24.915602 -33.911121 6.2496009
24.640848 -33.972084 6.2328491
24.245935 -33.862869 6.1853857
27.984978 -39.595818 7.2013721
23.57028 -34.233356 6.1727481
27.221941 -40.06086 7.193584
23.123619 -34.483055 6.1661358
22.68725 -34.285259 6.1057405
22.461309 -34.400631 6.1016259
22.248737 -34.53614 6.1013322
22.221054 -34.962513 6.1524696
21.968275 -35.037865 6.1418896
21.628521 -34.97094 6.1067691
21.420233 -35.113972 6.1086798
21.196215 -35.231182 6.1063285
20.929672 -35.27636 6.0917807
20.734306 -35.440826 6.0980992
20.494215 -35.528828 6.0914869
20.189276 -35.50172 6.0654774
19.883511 -35.468761 6.0388799
19.669333 -35.597023 6.0400558
19.463789 -35.741367 6.0441704
19.250666 -35.872322 6.0462275
19.032045 -35.993263 6.0468154
18.803524 -36.095329 6.0444641
18.582596 -36.211788 6.0447578
18.372103 -36.348961 6.0487256
18.133297 -36.430012 6.0435824
17.920744 -36.563683 6.0474029
17.690037 -36.660484 6.0453458
17.429958 -36.695072 6.0332961
17.104771 -36.58807 5.998323
16.898552 -36.732773 6.0049353
16.685081 -36.862801 6.0093441
16.516521 -37.094604 6.0305042
16.28146 -37.17894 6.0278592
16.048334 -37.267242 6.0260959
15.831319 -37.393246 6.0306511
15.594739 -37.473244 6.0280061
15.361519 -37.560902 6.0268307
15.135186 -37.665462 6.028594
14.900159 -37.748421 6.0271244
14.651454 -37.795792 6.0202179
14.372117 -37.761105 6.0005269
14.142226 -37.854137 6.0014086
13.915139 -37.955059 6.0037599
13.736225 -38.19051 6.027565
13.51019 -38.298328 6.0313859
13.294989 -38.438461 6.0404963
13.073812 -38.563343 6.0474029
12.827902 -38.615616 6.0431414
12.578476 -38.655975 6.0372639
12.394205 -38.899242 6.063273
12.152934 -38.967003 6.0620975
11.898306 -38.990696 6.0543094
11.613575 -38.91132 6.030798
11.372108 -38.973301 6.0294757
11.192704 -39.252563 6.0619507
11.034986 -39.619705 6.1080918
10.790378 -39.681896 6.107357
10.491891 -39.540852 6.0756168
10.300624 -39.803661 6.1061816
10.059103 -39.877625 6.107945
9.8021898 -39.889606 6.1004505
9.5908508 -40.089451 6.1219049
9.3576937 -40.203423 6.1304278
9.0566854 -40.020824 6.0939851
8.8120136 -40.080475 6.0947199
8.5679836 -40.143463 6.096189
8.3782606 -40.469395 6.1377749
8.1562519 -40.651932 6.1577597
7.9066634 -40.701214 6.1577597
7.6671891 -40.804375 6.1661358
7.4276299 -40.910992 6.1752462
7.1820998 -40.987949 6.1800957
6.9303026 -41.03027 6.1799483
6.7135029 -41.287788 6.2124238
0.82004166 -5.2501397 0.78760809
6.1887193 -41.24968 6.1947899
0.68713802 -4.7839761 0.71619219
0.65601927 -4.7753634 0.71428186
0.6243884 -4.7616458 0.71163684
0.59785974 -4.7869802 0.71486968
0.56859279 -4.7915411 0.7150166
0.54006714 -4.802803 0.71619219
0.51351738 -4.8335667 0.72030669
0.48434255 -4.841548 0.72104138
0.455089 -4.8493528 0.72177613
0.42619056 -4.861907 0.72324562
0.39723557 -4.8752751 0.72486204
0.36917442 -4.9022794 0.72853565
0.33881417 -4.9005055 0.72794789
0.30836502 -4.8965688 0.72706622
0.28000194 -4.9279952 0.73147458
0.25246927 -4.9829655 0.73940969
0.22400768 -5.0318522 0.74646312
0.19419436 -5.0608077 0.75057763
0.16342616 -5.0708017 0.75190014
0.13262039 -5.0835743 0.75366348
0.10120717 -5.0734143 0.75204706
0.070116766 -5.0769067 0.7524879
0.039010491 -5.0831761 0.75336957
0.0078398474 -5.0951891 0.75513297
-0.023635624 -5.1426206 0.76218635
-0.055504166 -5.172051 0.76659477
-0.087635458 -5.1953492 0.77012146
-0.11957972 -5.1976805 0.77056229
-0.15138379 -5.1938825 0.77012146
-0.18050455 -5.1147618 0.75851274
-0.2146195 -5.1797743 0.76835811
-0.24728869 -5.1971326 0.77115011
-0.28054956 -5.2211981 0.77497071
-2.6934235 -45.062263 6.7045469
-2.9794335 -45.189983 6.7261477
-3.2646937 -45.282333 6.7427526
-3.5626972 -45.519814 6.7812529
-3.8518372 -45.614391 6.7987394
-4.142807 -45.713032 6.8171077
-4.433321 -45.791115 6.832684
-4.7302189 -45.918514 6.8559012
-5.0065117 -45.839458 6.8485541
-5.2985706 -45.902206 6.8626609
-5.5889597 -45.941494 6.8735352
-11.783988 -29.608572 4.7323809
-11.963212 -29.530209 4.7314992
-4.2807465 -10.381965 1.6664938
-12.315127 -29.358376 4.7278256
-12.491929 -29.274979 4.7266498
-4.256516 -9.8068838 1.586408
-4.3273916 -9.8050156 1.5903755
-4.4028578 -9.8125734 1.5959595
-4.4982781 -9.862772 1.6085969
-4.6023817 -9.9292183 1.6240263
-13.036754 -27.682114 4.5438485
-13.309755 -27.384823 4.521513
-13.593993 -27.538576 4.5606008
-12.749441 -25.433201 4.2246814
-13.661772 -26.438316 4.4192381
-13.579309 -25.887981 4.341063
-13.589622 -25.525644 4.2941871
-5.0632854 -9.234519 1.5627496
-5.0852337 -9.1410389 1.5521696
-5.1169209 -9.0665922 1.5448222
-5.158206 -9.010129 1.5405607
-41.411537 -71.326942 12.250887
-42.247196 -70.752243 12.240307
-42.681557 -70.493378 12.240601
-43.07914 -70.17453 12.230902
-6.1563816 -9.8907747 1.7289459
-6.4929891 -10.290339 1.8057988
-6.5629349 -10.261137 1.8077091
-44.260002 -68.28109 12.086601
-44.613503 -67.909851 12.069115
-45.017292 -67.616714 12.065882
-45.372692 -67.252304 12.050305
-5.9323225 -8.6766157 1.5596638
-5.9336333 -8.5652447 1.5461447
-5.6622014 -8.0671673 1.4623854
-5.6995578 -8.0153437 1.4592994
-8.2957211 -11.516601 2.1067448
-47.761158 -64.623177 11.935981
-4.6929994 -6.2679725 1.1614394
-6.6365805 -8.7518377 1.6299042
-6.7491946 -8.7878351 1.6443049
-5.1099858 -6.5693693 1.2346187
-4.8723392 -6.1851034 1.167905
-4.8879943 -6.1272521 1.1626149
-4.8739128 -6.0332766 1.1504184
-4.8939319 -5.982584 1.1464509
-5.4384322 -6.565701 1.2647426
-7.6694407 -9.1447802 1.7712665
