# .PCD v0.7 - Point Cloud Data file format
VERSION 0.7
FIELDS x y z
SIZE 4 4 4
TYPE F F F
COUNT 1 1 1
WIDTH 1437
HEIGHT 1
VIEWPOINT 0 0 0 1 0 0 0
POINTS 1437
DATA ascii
1.5174692 -2.8636076 -0.58267677
1.5016924 -2.876354 -0.5833872
1.4759105 -2.8697631 -0.58019042
1.4311366 -2.8252189 -0.5693568
1.4256406 -2.8577211 -0.57415199
1.4046065 -2.859349 -0.5727312
1.3913218 -2.8767724 -0.57450718
1.3639106 -2.8648207 -0.57042241
1.3542436 -2.8900652 -0.57379681
1.3360728 -2.8974266 -0.57361919
1.3109474 -2.8894405 -0.57042241
1.2996138 -2.9118071 -0.573264
1.2730163 -2.899904 -0.5693568
1.2587109 -2.9157915 -0.57095522
1.260414 -2.969656 -0.5800128
1.2433062 -2.9800584 -0.5805456
1.2171535 -2.9685116 -0.57681596
1.1908218 -2.9558437 -0.57290876
1.1719381 -2.9612648 -0.57255358
1.1644468 -2.9959154 -0.57788157
1.1477977 -3.0076005 -0.57876956
1.1310488 -3.0191944 -0.57965761
1.1050276 -3.0057583 -0.57575041
1.0852275 -3.0087795 -0.57503998
1.0572221 -2.9884784 -0.56988961
1.0391879 -2.9958391 -0.57006717
1.0261749 -3.0179973 -0.57308638
1.0088826 -3.027971 -0.57379681
0.98753458 -3.0256851 -0.57219839
0.96595287 -3.0223143 -0.57042241
0.95532882 -3.0535417 -0.5752176
0.9365747 -3.0593457 -0.5752176
0.93077928 -3.1083987 -0.5833872
0.90919876 -3.1055515 -0.58178878
0.88579214 -3.0959346 -0.57894719
0.86306804 -3.0880432 -0.57646078
0.84177059 -3.0847368 -0.57486236
0.82890946 -3.1126654 -0.57912481
0.81548947 -3.1395993 -0.58320957
0.78944111 -3.1178334 -0.57823682
0.76557797 -3.1035104 -0.5746848
0.74859095 -3.116761 -0.57628322
0.73393553 -3.1404605 -0.57983518
0.71181488 -3.1324298 -0.57752639
0.69597912 -3.1521132 -0.58036798
0.67559266 -3.1515133 -0.57947999
0.6510281 -3.1305497 -0.57486236
0.64543211 -3.2020118 -0.5872944
0.6195451 -3.1740389 -0.58143359
0.59859556 -3.1700449 -0.5800128
0.57488883 -3.150424 -0.57575041
0.55964917 -3.1771519 -0.5800128
0.54294831 -3.1970191 -0.58303201
0.51934642 -3.1760111 -0.578592
0.49893081 -3.173305 -0.57752639
0.48062691 -3.1840911 -0.57894719
0.46065739 -3.1840584 -0.57841438
0.44003072 -3.1790268 -0.57699358
0.42206591 -3.1933742 -0.57912481
0.40960649 -3.252533 -0.58942556
0.39011019 -3.2588937 -0.59013599
0.36766118 -3.2397144 -0.58622879
0.34756544 -3.2399521 -0.5858736
0.32797641 -3.2449608 -0.58640641
0.30908406 -3.2576888 -0.58836001
0.28978646 -3.2673659 -0.58978081
0.26802948 -3.248487 -0.58605117
0.2501196 -3.2765634 -0.59084642
0.23021747 -3.2809813 -0.59137917
0.20604649 -3.2194791 -0.5800128
0.18902515 -3.2678404 -0.58853757
0.16999029 -3.2885945 -0.59208959
0.15052798 -3.3053045 -0.59493119
0.13047774 -3.3120661 -0.5959968
0.10972524 -3.3000183 -0.59368801
0.089286655 -3.2937431 -0.59244478
0.068325475 -3.2588091 -0.58605117
0.048712824 -3.2847509 -0.5906688
0.028355956 -3.2623546 -0.58658397
0.0084867785 -3.3165925 -0.59635198
-0.011860278 -3.315598 -0.59617442
-0.032279152 -3.3233354 -0.59759521
-0.052392777 -3.3053629 -0.59439838
-0.072737455 -3.3079312 -0.59493119
-0.093390457 -3.3202107 -0.59723997
-0.11436445 -3.3372788 -0.60043681
-0.13381109 -3.3109481 -0.59581918
-0.15412417 -3.3100648 -0.59581918
-0.17417336 -3.304143 -0.59493119
-0.19490509 -3.3108714 -0.59635198
-0.21203291 -3.2605112 -0.58747202
-0.23231384 -3.2630754 -0.58818239
-0.25331566 -3.274344 -0.59049118
-0.27242103 -3.2609594 -0.58836001
-0.29830429 -3.324899 -0.60025918
-0.3197313 -3.3337817 -0.60221279
-0.33938277 -3.3239248 -0.60079199
-0.35924271 -3.3168879 -0.599904
-0.37701699 -3.2921336 -0.59581918
-0.39438334 -3.2663093 -0.59155679
-0.4206062 -3.3126423 -0.60043681
-0.44377902 -3.3314605 -0.60434401
-0.45973256 -3.2965097 -0.5984832
-0.47314829 -3.2468824 -0.58995837
-0.50458205 -3.3198085 -0.6038112
-0.52064002 -3.2894332 -0.59883839
-0.54656017 -3.321135 -0.605232
-0.56610012 -3.3128686 -0.60434401
-0.57698286 -3.2560356 -0.594576
-0.59499848 -3.2417862 -0.5926224
-0.61469507 -3.2371075 -0.59244478
-0.63568205 -3.2390692 -0.59351039
-0.66120708 -3.2630794 -0.59866077
-0.68886101 -3.2955673 -0.60540962
-0.70782679 -3.285506 -0.60434401
-0.72733402 -3.2782187 -0.6038112
-0.74634075 -3.2688968 -0.60292321
-0.76391202 -3.2537167 -0.60096961
-0.78686023 -3.2614052 -0.6032784
-0.80260015 -3.239321 -0.60008162
-0.82149178 -3.2305202 -0.59937119
-0.8415466 -3.226371 -0.59954882
-0.86437583 -3.2325556 -0.60167998
-0.88003629 -3.2120044 -0.59883839
-0.9045105 -3.2236001 -0.60203522
-0.92698807 -3.2274487 -0.6038112
-0.9362368 -3.1858194 -0.59706241
-0.96539164 -3.21206 -0.60310078
-0.9949035 -3.2380617 -0.6091392
-1.0106285 -3.2187507 -0.6066528
-1.0345646 -3.2256091 -0.6091392
-1.0408676 -3.1780479 -0.6013248
-1.0603482 -3.1716015 -0.6013248
-1.0813766 -3.1696928 -0.60221279
-1.0982188 -3.1555622 -0.60079199
-1.1192052 -3.1534016 -0.60167998
-1.1428838 -3.1585057 -0.60398877
-1.1595198 -3.1440465 -0.60256797
-1.1812115 -3.1433218 -0.6038112
-1.1906301 -3.1102791 -0.59883839
-1.2089775 -3.1010811 -0.5984832
-1.2356036 -3.1128142 -0.60221279
-1.2620503 -3.1234241 -0.60576481
-1.2759541 -3.1028783 -0.6032784
-1.294969 -3.094991 -0.6032784
-1.3208694 -3.103287 -0.60647517
-1.3480926 -3.1140909 -0.61020482
-1.363608 -3.0976534 -0.6086064
-1.3898224 -3.1053982 -0.61180317
-1.4174049 -3.1156244 -0.61553282
-1.4331926 -3.0997219 -0.61411202
-1.4090991 -2.9991205 -0.59581918
-1.4312887 -2.9984117 -0.59741759
-1.4638237 -3.0187967 -0.6032784
-1.4888387 -3.0230019 -0.60594237
-1.51352 -3.0261328 -0.60842878
-1.5124604 -2.9781783 -0.60061437
-1.5388203 -2.9845879 -0.6038112
-1.5876679 -3.0335128 -0.61571038
-1.5919443 -2.9967697 -0.61020482
-1.5944297 -2.9574902 -0.60416639
-1.6106579 -2.9441974 -0.60345602
-1.6420611 -2.958354 -0.60842878
-1.6534244 -2.9362168 -0.60594237
-1.6606743 -2.9072149 -0.60203522
-1.67207 -2.8858995 -0.59972638
-1.7086856 -2.907831 -0.60647517
-1.7325388 -2.9074376 -0.6086064
-1.7483109 -2.8933825 -0.60789597
-1.7608919 -2.8742085 -0.60611999
-1.7821282 -2.8692021 -0.60736322
-1.7960303 -2.8523829 -0.60611999
-1.8134984 -2.8413093 -0.60611999
-1.834639 -2.8359127 -0.60736322
-1.8509264 -2.8229561 -0.60700798
-1.859501 -2.79843 -0.60416639
-1.8931221 -2.8114595 -0.60949439
-1.9059011 -2.7932863 -0.60807359
-1.9252424 -2.7847779 -0.60878402
-1.9400356 -2.7696879 -0.60807359
-1.9427592 -2.7376652 -0.60363358
-1.9417174 -2.7009194 -0.59812802
-1.9617287 -2.693728 -0.59919357
-1.9741317 -2.6760962 -0.5979504
-1.9928703 -2.6670864 -0.59866077
-2.0264161 -2.677568 -0.6038112
-2.0499895 -2.6744578 -0.60594237
-2.0591211 -2.6524992 -0.6038112
-2.0577238 -2.6173756 -0.59866077
-2.0804858 -2.6131706 -0.60061437
-2.1020384 -2.6072519 -0.60221279
-2.113019 -2.5882053 -0.60079199
-2.1501741 -2.6009841 -0.60683042
-2.1402004 -2.5567975 -0.59954882
-2.1615736 -2.550375 -0.60114717
-2.1791039 -2.5393045 -0.60167998
-2.1946437 -2.5258861 -0.60167998
-2.2153001 -2.5182846 -0.60310078
-2.2294014 -2.5031743 -0.60274559
-2.2690971 -2.5164943 -0.60931683
-2.2732184 -2.4901662 -0.60629761
-2.2971363 -2.485568 -0.6086064
-2.3150332 -2.4743013 -0.60931683
-2.3301716 -2.4600499 -0.60931683
-2.3424983 -2.4428642 -0.6086064
-2.3519607 -2.4227951 -0.6071856
-2.345403 -2.3865554 -0.60167998
-2.3558388 -2.3679328 -0.60061437
-2.3661344 -2.349272 -0.59954882
-2.3875294 -2.3416014 -0.6013248
-2.3728786 -2.2988274 -0.5940432
-2.3713002 -2.2692528 -0.59013599
-2.3801742 -2.2499268 -0.58889282
-2.4155097 -2.2554328 -0.59422082
-2.4076052 -2.2205491 -0.58889282
-2.4175479 -2.20242 -0.58800477
-2.4354048 -2.1914952 -0.58907038
-2.461308 -2.1876271 -0.59208959
-2.4916916 -2.1874194 -0.59617442
-2.5020928 -2.1695104 -0.59546399
-2.5086315 -2.1483543 -0.59386557
-2.535289 -2.1443634 -0.59706241
-2.5521746 -2.1319218 -0.5979504
-2.5750749 -2.1243651 -0.60025918
-2.5827212 -2.1041727 -0.59901601
-2.5748847 -2.0716257 -0.59422082
-2.5821545 -2.0515015 -0.59297758
-2.596242 -2.0368342 -0.59333277
-2.6460283 -2.0498009 -0.6018576
-2.6554296 -2.0311344 -0.60114717
-2.6576347 -2.0070908 -0.59883839
-2.6533349 -1.9783897 -0.59510881
-2.6796875 -1.9725758 -0.59830558
-2.7188041 -1.9757713 -0.60434401
-2.7332747 -1.9607732 -0.60487682
-2.7388301 -1.9394143 -0.60345602
-2.7434199 -1.9174973 -0.6018576
-2.7462244 -1.8944793 -0.599904
-2.7634904 -1.881471 -0.60114717
-2.7668154 -1.8589894 -0.59937119
-2.7839108 -1.8457853 -0.60061437
-2.7885966 -1.8243573 -0.59919357
-2.8162723 -1.8178896 -0.60274559
-2.8572526 -1.8196111 -0.6091392
-2.8875272 -1.8140894 -0.61322397
-2.8894036 -1.7906338 -0.61127043
-2.8869033 -1.7646565 -0.60842878
-2.9061036 -1.7519921 -0.61020482
-2.8914249 -1.7190354 -0.60487682
-2.918896 -1.7112191 -0.60842878
-2.9199696 -1.6878577 -0.60647517
-2.9354007 -1.6728338 -0.60754079
-2.9610519 -1.6634699 -0.61073762
-2.9582903 -1.6381166 -0.60807359
-2.9674222 -1.6194625 -0.60789597
-2.9989688 -1.6128814 -0.61233598
-3.0218508 -1.601364 -0.61500001
-3.0237694 -1.5786917 -0.61340159
-3.0517752 -1.5695639 -0.61713117
-3.071882 -1.5561475 -0.6192624
-3.0778506 -1.5355115 -0.61855203
-3.0907471 -1.5183336 -0.6192624
-3.095576 -1.4971973 -0.61837441
-3.105593 -1.4785982 -0.61855203
-3.1226263 -1.4632745 -0.62015039
-3.1440561 -1.4498587 -0.6226368
-3.1358674 -1.422811 -0.6192624
-3.1310599 -1.3975239 -0.61659843
-3.1539922 -1.3846177 -0.61944002
-3.1804974 -1.3730434 -0.62299198
-3.2133191 -1.3638883 -0.62778717
-3.2207191 -1.343767 -0.62760961
-3.2179782 -1.3194975 -0.62547839
-3.2369668 -1.3041426 -0.62760961
-3.2650375 -1.2922274 -0.63151681
-3.2692361 -1.2707424 -0.63080639
-3.2898426 -1.2555736 -0.63329279
-3.284584 -1.2305281 -0.63080639
-3.2800658 -1.2059343 -0.6284976
-3.3031397 -1.1914649 -0.63151681
-3.3215206 -1.1751155 -0.63364798
-3.3314576 -1.155681 -0.63418078
-3.3189213 -1.1285611 -0.6304512
-3.3145804 -1.1044402 -0.62831998
-3.3353269 -1.0886644 -0.63098401
-3.3456936 -1.0693779 -0.63169438
-3.3578269 -1.0505931 -0.63275999
-3.3613873 -1.0291053 -0.63222718
-3.3431284 -1.0011165 -0.62760961
-3.4313715 -1.0046564 -0.6430608
-3.3532698 -0.95947397 -0.62725443
-3.407428 -0.95239967 -0.63631201
-3.3543489 -0.91540009 -0.62530082
-3.3694115 -0.89733529 -0.6270768
-3.4243815 -0.88951868 -0.63631201
-3.4164197 -0.86510599 -0.6338256
-3.4025552 -0.83940929 -0.63027358
-3.4019005 -0.81713569 -0.62920803
-3.4614699 -0.80902267 -0.63933122
-3.4548535 -0.78514916 -0.6372
-3.5028474 -0.77349222 -0.64519203
-3.5075276 -0.7519846 -0.64519203
-3.4995508 -0.72784138 -0.64288318
-3.5454314 -0.71472442 -0.65052003
-3.4995265 -0.68314326 -0.64128482
-3.5355628 -0.66768974 -0.64714563
-3.587997 -0.65482599 -0.65602559
-3.5357368 -0.62288541 -0.64572483
-3.5162079 -0.59721977 -0.64146239
-3.5168927 -0.57515651 -0.64092958
-3.5611851 -0.55999416 -0.6483888
-3.5879073 -0.54166234 -0.65265119
-3.5785022 -0.51780289 -0.6503424
-3.5825868 -0.49597096 -0.65052003
-3.5914159 -0.47475407 -0.65158558
-3.5844977 -0.45147717 -0.6498096
-3.5881777 -0.42959175 -0.64998722
-3.606391 -0.40934554 -0.65282881
-3.6293824 -0.38941771 -0.65655839
-3.6444316 -0.3684299 -0.65886718
-3.6525021 -0.34661999 -0.65993279
-3.6408367 -0.32298234 -0.65744638
-3.6702113 -0.30290762 -0.6624192
-3.6759255 -0.28068233 -0.66312963
-3.6343846 -0.25508288 -0.65531522
-3.6201682 -0.23176917 -0.65247363
-3.61268 -0.2090387 -0.65087521
-3.6620512 -0.18936627 -0.65957761
-3.6483979 -0.1662184 -0.65691364
-3.6355824 -0.14328417 -0.65442723
-3.6383605 -0.12103974 -0.65478241
-3.6724815 -0.099625975 -0.66082078
-3.6562974 -0.076736264 -0.65780163
-3.6793318 -0.054640166 -0.66188639
-3.6638527 -0.031923287 -0.6590448
-3.6826773 -0.0094931088 -0.6624192
-3.6551116 0.013010224 -0.65744638
-3.6067441 0.034978122 -0.64874399
-3.6044936 0.057077207 -0.6483888
-3.6276884 0.079707615 -0.65265119
-3.6300821 0.10204764 -0.653184
-3.6323385 0.12442003 -0.6537168
-3.613807 0.14599335 -0.65052003
-3.6669106 0.17067172 -0.66028804
-3.6883974 0.19435541 -0.6643728
-3.6694522 0.21594572 -0.66117603
-3.6346688 0.23629212 -0.6551376
-3.6174443 0.25747445 -0.65229601
-3.6069658 0.27898437 -0.65069759
-3.5708613 0.2982502 -0.6444816
-3.5277967 0.31646931 -0.63702238
-3.5091348 0.33651549 -0.63400322
-3.5030875 0.3576417 -0.63329279
-3.4841943 0.37733123 -0.63027358
-3.455415 0.3956846 -0.62547839
-3.4421747 0.41558361 -0.62352479
-3.4356546 0.43620148 -0.62281442
-3.4690073 0.4620752 -0.62938559
-3.4563599 0.48199445 -0.62760961
-3.4659975 0.50503564 -0.6299184
-3.4511576 0.52452075 -0.62778717
-3.430378 0.54292089 -0.6245904
-3.4182422 0.56252247 -0.62299198
-3.4360681 0.58712852 -0.62689918
-3.4227104 0.60648549 -0.6251232
-3.3995652 0.62392604 -0.62157118
-3.3366942 0.63358587 -0.61073762
-3.3733041 0.66199958 -0.61819679
-3.3682139 0.68249011 -0.61801922
-3.4082758 0.71239811 -0.62618881
-3.4048026 0.73350453 -0.62636638
-3.3954339 0.75331736 -0.62547839
-3.3811531 0.77194846 -0.62370241
-3.4213831 0.80324364 -0.63204962
-3.3714254 0.81338227 -0.62370241
-3.3969398 0.8416214 -0.62938559
-3.3840811 0.86050999 -0.62796479
-3.3758807 0.88051355 -0.62743199
-3.3837247 0.90476745 -0.6299184
-3.3790588 0.92577249 -0.63009602
-3.3695245 0.94542581 -0.62938559
-3.3778489 0.97015542 -0.63204962
-3.3850517 0.99474537 -0.63453603
-3.3741717 1.0140815 -0.63364798
-3.4045753 1.0460314 -0.6405744
-3.3887033 1.0639555 -0.63879842
-3.3633685 1.0787206 -0.6352464
-3.3482685 1.0965823 -0.63364798
-3.3349433 1.1149234 -0.6324048
-3.3233824 1.1337773 -0.63151681
-3.3191516 1.1551176 -0.63204962
-3.3212762 1.1787517 -0.6338256
-3.3158319 1.1997778 -0.63418078
-3.3259518 1.2265674 -0.63755518
-3.303623 1.2414159 -0.63471359
-3.3032966 1.2644763 -0.63613439
-3.2973096 1.2854358 -0.63648963
-3.2902751 1.3060063 -0.63666719
-3.2876744 1.3283815 -0.6377328
-3.2785516 1.3481553 -0.63755518
-3.2829287 1.3735621 -0.64004159
-3.2871168 1.3990732 -0.642528
-3.2730513 1.4168717 -0.64146239
-3.2534866 1.4321721 -0.63933122
-3.2796721 1.4677801 -0.64625758
-3.2715001 1.4882835 -0.6464352
-3.2962527 1.5240169 -0.653184
-3.3002012 1.5504884 -0.65584803
-3.3030601 1.5766414 -0.65833443
-3.2968662 1.5985959 -0.6590448
-3.2737515 1.6122754 -0.65638083
-3.2629168 1.6318923 -0.65620321
-3.2739029 1.6625731 -0.6604656
-3.3467431 1.7254574 -0.67733759
-3.2750537 1.714028 -0.66490561
-3.3209713 1.7640896 -0.6764496
-3.3256783 1.7928365 -0.67964643
-3.3344741 1.8240682 -0.6837312
-3.3412902 1.8545201 -0.68746084
-3.3710124 1.8981568 -0.69598562
-3.3627205 1.9207569 -0.69669604
-3.3278785 1.928038 -0.69190079
-3.3236227 1.9529067 -0.69349921
-3.2625394 1.944054 -0.68319839
-3.2716088 1.9767559 -0.6876384
-3.2527041 1.9926811 -0.68621761
-3.2880721 2.0421898 -0.6963408
-3.2871394 2.0696654 -0.69882721
-3.2984378 2.1051457 -0.70397764
-3.2614939 2.1098478 -0.69882721
-3.2995176 2.1632659 -0.70983845
-3.3181522 2.2047057 -0.71676481
-3.2661915 2.1991973 -0.70841759
-3.2501969 2.2175331 -0.70788485
-3.2235758 2.2284825 -0.7050432
-3.2195151 2.2549934 -0.70717442
-3.2224739 2.2866623 -0.710904
-3.2019894 2.3017976 -0.70948321
-3.2267907 2.3497815 -0.7181856
-3.2463701 2.3946507 -0.72582245
-3.2812879 2.4516261 -0.73701125
-3.2756011 2.4788382 -0.73914242
-3.2782962 2.5126567 -0.74322724
-3.224721 2.5031619 -0.73452485
-3.2479889 2.5533051 -0.74340481
-3.2453516 2.5836041 -0.74642402
-3.436322 2.7702003 -0.79437602
-3.3552151 2.7389669 -0.77945763
-3.3064847 2.7331736 -0.77199847
-3.3326724 2.7894073 -0.78212166
-3.2246408 2.7328303 -0.76063204
-3.2600973 2.7974164 -0.77306402
-3.2971096 2.864475 -0.78602886
-3.2388253 2.8489099 -0.77626085
-3.2771451 2.9184618 -0.78975844
-3.3556664 3.0254867 -0.81320167
-3.2098265 2.9299338 -0.78212166
-3.215642 2.971611 -0.78798246
-3.17363 2.9691026 -0.78212166
-3.1453476 2.9790473 -0.77963525
-3.1142216 2.9860327 -0.77643842
-3.1120846 3.0208478 -0.78052324
-3.144738 3.0902312 -0.79348803
-3.0852466 3.0692196 -0.78318721
-3.0989506 3.1209087 -0.79153442
-3.0549314 3.1145763 -0.78514081
-3.035763 3.1332624 -0.78514081
-3.0083141 3.1433003 -0.78300965
-2.9889705 3.1616995 -0.78300965
-2.9701865 3.1806993 -0.78318721
-2.9652953 3.214776 -0.78709441
-2.9713664 3.261277 -0.79402083
-2.927597 3.2531168 -0.78762722
-2.9468157 3.315145 -0.79828322
-2.941355 3.3501709 -0.80236804
-2.9774888 3.4335749 -0.81799686
-2.8929787 3.3777928 -0.80041444
-2.8556712 3.3759475 -0.79579687
-2.8235443 3.3798134 -0.79260004
-2.835952 3.4373019 -0.80201286
-2.81916 3.4599779 -0.80325603
-2.8083663 3.4902437 -0.80627525
-2.7789376 3.4973946 -0.80396646
-2.7780836 3.5407009 -0.81000483
-2.7508805 3.5506794 -0.80840647
-2.7248557 3.562021 -0.80716324
-2.7047281 3.5810287 -0.80769604
-2.6868231 3.6030791 -0.80893922
-2.6599963 3.613158 -0.80751842
-2.6360402 3.6270235 -0.80698562
-2.6125879 3.6415308 -0.80663043
-2.5924702 3.6607049 -0.80734086
-2.5778546 3.687834 -0.80982727
-2.5618856 3.7133014 -0.81195843
-2.5457008 3.7387111 -0.81408966
-2.5227127 3.7542608 -0.81408966
-2.4931018 3.7598281 -0.81195843
-2.469985 3.7750549 -0.81195843
-2.4531815 3.8000598 -0.81408966
-2.4298189 3.8150408 -0.81408966
-2.3969381 3.8148801 -0.81089282
-2.3688185 3.8219881 -0.80929446
-2.3566177 3.8549213 -0.81320167
-2.3329198 3.8693087 -0.81320167
-2.3030975 3.8734009 -0.81107044
-2.2962151 3.9163213 -0.81710887
-2.2755902 3.9363 -0.81835204
-2.2465205 3.9416397 -0.81657606
-2.2266321 3.9630709 -0.81817442
-2.2146723 3.9990404 -0.82279205
-2.1768885 3.988369 -0.81781924
-2.1481786 3.9938517 -0.81622082
-2.1250153 4.0095658 -0.81675363
-2.0926275 4.0077004 -0.81373447
-2.0720499 4.0283408 -0.81533283
-2.0530767 4.0523901 -0.81764168
-2.0268545 4.0622697 -0.81710887
-2.0014567 4.0737467 -0.81693125
-1.9708506 4.0744348 -0.81462246
-1.9563934 4.1086626 -0.81906247
-1.9365767 4.1321726 -0.82137126
-1.9012915 4.1225314 -0.81710887
-1.8739264 4.1296396 -0.81622082
-1.8521636 4.149147 -0.81781924
-1.8246913 4.1559286 -0.81693125
-1.8003273 4.1697569 -0.81746405
-1.7716309 4.1734781 -0.81604326
-1.7440941 4.1797295 -0.81515527
-1.7139328 4.1794271 -0.81302404
-1.6794258 4.1679592 -0.80876166
-1.6599795 4.1937399 -0.81178087
-1.6442034 4.2295275 -0.81675363
-1.6140078 4.2285042 -0.81462246
-1.5804327 4.2180552 -0.81071526
-1.563355 4.2516866 -0.81533283
-1.5352333 4.2556453 -0.81426722
-1.5107342 4.2696233 -0.81515527
-1.4748269 4.2509222 -0.80982727
-1.44935 4.261755 -0.81018245
-1.4272195 4.2827044 -0.81249124
-1.4064139 4.3082194 -0.81568807
-1.3733575 4.2961469 -0.81178087
-1.3428546 4.2913446 -0.80929446
-1.3222634 4.3183217 -0.81284642
-1.2960242 4.3272967 -0.81302404
-1.271108 4.3408337 -0.81408966
-1.2447202 4.3494978 -0.81426722
-1.2161533 4.350419 -0.81302404
-1.1889181 4.3559008 -0.81266886
-1.1588739 4.3507519 -0.81036007
-1.1378509 4.3796873 -0.81444484
-1.1143407 4.3999414 -0.81693125
-1.083312 4.3904543 -0.81391203
-1.0547423 4.3903208 -0.81266886
-1.0212839 4.3689208 -0.80751842
-0.99118358 4.3607111 -0.80485445
-0.96950483 4.3897729 -0.80911684
-0.94317085 4.3985257 -0.80964965
-0.9125542 4.386888 -0.80645287
-0.88328391 4.3808289 -0.80432165
-0.85921782 4.4006534 -0.80698562
-0.83750057 4.4338851 -0.81213605
-0.80621141 4.4166746 -0.80805123
-0.77687424 4.4089394 -0.80574244
-0.75310606 4.4330268 -0.80929446
-0.72684532 4.4433913 -0.81036007
-0.69819015 4.4390182 -0.80876166
-0.67167503 4.4480839 -0.80964965
-0.64394623 4.4491997 -0.80911684
-0.61703968 4.4559917 -0.80964965
-0.58800775 4.447011 -0.80734086
-0.55910945 4.4378424 -0.80503201
-0.5303458 4.4284873 -0.80272323
-0.50271851 4.4277472 -0.80201286
-0.47648728 4.4395542 -0.80361122
-0.45171651 4.4668717 -0.80805123
-0.42411351 4.4675999 -0.80769604
-0.397477 4.4789405 -0.80929446
-0.36925724 4.4724684 -0.80769604
-0.3413572 4.4687624 -0.80663043
-0.31393096 4.4707723 -0.80663043
-0.28693423 4.4794893 -0.80787367
-0.26018444 4.4939375 -0.81018245
-0.23250328 4.493484 -0.80982727
-0.20434295 4.4820457 -0.80751842
-0.17629284 4.4694486 -0.80503201
-0.14794454 4.4429069 -0.80005926
-0.1207343 4.4456983 -0.80041444
-0.094515495 4.4965334 -0.80947202
-0.066376589 4.4606214 -0.80290085
-0.03876067 4.4333906 -0.79792804
-0.011551759 4.4315767 -0.79757285
0.015703432 4.4502621 -0.80094725
0.042662688 4.413672 -0.79437602
0.069512524 4.3985672 -0.79171205
0.097100824 4.4256063 -0.79668486
0.12441891 4.430829 -0.79775041
0.14989416 4.3798227 -0.78869283
0.17720051 4.3896365 -0.79064643
0.20417707 4.3894496 -0.79082406
0.23162255 4.3979416 -0.79260004
0.25854582 4.3954554 -0.79242241
0.28506523 4.3869119 -0.79117924
0.31316233 4.4017677 -0.79419845
0.33933225 4.3889704 -0.79224485
0.36723694 4.3985739 -0.79437602
0.39237633 4.3756547 -0.79064643
0.41949874 4.3761034 -0.79117924
0.4493354 4.4028177 -0.79650724
0.47771728 4.4126968 -0.79881603
0.50154239 4.3813286 -0.79366565
0.52947628 4.3869619 -0.79526407
0.55551779 4.3767962 -0.79402083
0.5810653 4.3635502 -0.79224485
0.61122215 4.3842702 -0.79668486
0.63924581 4.3882284 -0.79810566
0.66556865 4.3803315 -0.79739523
0.69012845 4.3615847 -0.79473126
0.71544099 4.3485284 -0.79313284
0.74078494 4.3362961 -0.79171205
0.76909328 4.3413596 -0.79348803
0.79891133 4.353982 -0.79668486
0.82707912 4.3567328 -0.79810566
0.85493195 4.3573704 -0.79917127
0.88438576 4.3655457 -0.80165762
0.91115558 4.3600373 -0.80165762
0.93437082 4.3380094 -0.79863846
0.95884097 4.322587 -0.79686242
0.99016094 4.3377299 -0.80076963
1.0201294 4.3459444 -0.80343366
1.0479295 4.3443866 -0.80432165
1.0669987 4.3073063 -0.79863846
1.0897726 4.2863712 -0.79597443
1.121513 4.3005543 -0.79988164
1.1494038 4.2992964 -0.80094725
1.18018 4.3082986 -0.80396646
1.2028732 4.2877102 -0.80148005
1.2207433 4.2509255 -0.79597443
1.2504083 4.2556305 -0.79828322
1.2745152 4.2412801 -0.79704005
1.2993598 4.2296171 -0.79632962
1.3326534 4.245039 -0.80076963
1.3595766 4.2395935 -0.80130243
1.3800544 4.2143364 -0.79810566
1.4015211 4.1927218 -0.79561925
1.4269031 4.1831117 -0.79544163
1.4476939 4.1603355 -0.79277766
1.4781289 4.1652865 -0.79544163
1.5039934 4.157064 -0.79561925
1.535939 4.1653013 -0.79899365
1.5728859 4.1862006 -0.80485445
1.5992455 4.1783094 -0.80520964
1.6180649 4.1509957 -0.80183524
1.6533027 4.1656876 -0.80663043
1.6589323 4.1061893 -0.79704005
1.6837221 4.0950227 -0.79686242
1.7262821 4.1263785 -0.80503201
1.7550358 4.1238585 -0.80663043
1.7767892 4.1048837 -0.80503201
1.794809 4.0776906 -0.80183524
1.8258232 4.0800757 -0.80449927
1.8520457 4.0714831 -0.80503201
1.8860754 4.0796957 -0.80893922
1.913164 4.0725002 -0.80982727
1.9470155 4.0793366 -0.81355685
1.9668586 4.0566864 -0.81142563
1.9847587 4.0304146 -0.80858403
2.0090115 4.0172801 -0.80840647
2.0242691 3.9864497 -0.80467683
2.0536504 3.9835765 -0.80663043
2.087178 3.9883404 -0.81018245
2.1139181 3.9798043 -0.81107044
2.1359639 3.9624271 -0.81018245
2.1555152 3.9406118 -0.80840647
2.1820409 3.9316144 -0.80929446
2.2046757 3.9155791 -0.80876166
2.2330513 3.9096689 -0.81036007
2.2584782 3.8984485 -0.81089282
2.2793655 3.8794262 -0.80982727
2.294565 3.8509939 -0.80680805
2.3074667 3.8191524 -0.80307847
2.3329129 3.808279 -0.80378884
2.3686941 3.8139586 -0.80805123
2.385237 3.7885253 -0.80574244
2.3962638 3.7547371 -0.80165762
2.4299452 3.7564905 -0.80520964
2.4605012 3.7530329 -0.80769604
2.4867499 3.7427835 -0.80876166
2.5014257 3.7152088 -0.80609763
2.5341558 3.7144244 -0.80929446
2.5585778 3.7012341 -0.80982727
2.5739024 3.6749854 -0.80751842
2.5941257 3.6559124 -0.80680805
2.6193805 3.6439221 -0.80769604
2.6497986 3.6389198 -0.81018245
2.6720765 3.6225924 -0.81018245
2.6860094 3.5950904 -0.80769604
2.7020807 3.5706935 -0.80592006
2.7143626 3.541548 -0.80307847
2.7324221 3.5201616 -0.80201286
2.7557943 3.5056508 -0.80254567
2.7864449 3.5002258 -0.80520964
2.8128095 3.4891925 -0.80663043
2.8354104 3.4733925 -0.80698562
2.8616843 3.4619982 -0.80840647
2.8986609 3.4632428 -0.81284642
2.9166758 3.4416373 -0.81195843
2.9319715 3.4169536 -0.81036007
2.9425573 3.3870113 -0.80751842
2.9541864 3.358546 -0.80503201
2.9609964 3.3249211 -0.80130243
2.9951785 3.322041 -0.80503201
3.0214758 3.3101428 -0.80663043
3.0377231 3.2872038 -0.80556482
3.0484247 3.2584405 -0.80307847
3.0683606 3.2396743 -0.80307847
3.0997579 3.2328634 -0.80609763
3.1222773 3.216608 -0.80680805
3.1357486 3.1910713 -0.80520964
3.1441662 3.1606064 -0.80236804
3.1949201 3.1724622 -0.81036007
3.1869297 3.1259196 -0.80343366
3.1947432 3.0953481 -0.80059206
3.2271824 3.0886173 -0.80396646
3.2417827 3.0647006 -0.80290085
3.2619648 3.0460954 -0.80325603
3.2950592 3.0393696 -0.80680805
3.3238292 3.0283747 -0.80929446
3.3328402 2.9993637 -0.80698562
3.3430915 2.9716644 -0.80503201
3.3723538 2.9608364 -0.80769604
3.3859973 2.9362192 -0.80663043
3.4241281 2.9326749 -0.81142563
3.4255307 2.897625 -0.80751842
3.4296529 2.8651929 -0.80432165
3.4517229 2.8478537 -0.80538726
3.4607408 2.8197815 -0.80343366
3.474911 2.7960258 -0.80272323
2.5998738 2.0655847 -0.59706241
2.60708 2.0453403 -0.59581918
2.613358 2.0244825 -0.59439838
2.6765313 2.0472813 -0.60594237
2.7440066 2.072346 -0.61837441
3.5738926 2.6650524 -0.80236804
3.0655959 2.2567639 -0.68479681
2.6400015 1.9184824 -0.58676159
2.6245396 1.8827391 -0.58072317
2.648891 1.8757015 -0.58356482
2.6595438 1.858849 -0.5833872
3.5982888 2.4825122 -0.78673923
3.6980429 2.5180016 -0.80520964
3.737926 2.5117331 -0.81053764
3.7614684 2.49419 -0.81231368
3.7487054 2.4527395 -0.80627525
3.7719514 2.4350305 -0.80805123
3.7735422 2.4033799 -0.80520964
3.7923837 2.3827989 -0.80609763
3.8052602 2.3584473 -0.80574244
3.811264 2.3299205 -0.80396646
3.8229604 2.3049662 -0.80343366
3.8116574 2.2663734 -0.79810566
3.8602958 2.2633557 -0.80538726
3.8851855 2.2460313 -0.80769604
3.8706815 2.2060652 -0.80183524
3.8970132 2.1895058 -0.80449927
3.9043484 2.162215 -0.80325603
3.917542 2.1382174 -0.80325603
3.9383879 2.1183364 -0.80485445
3.9443557 2.0904431 -0.80343366
3.9518747 2.0634682 -0.80236804
3.9539607 2.033778 -0.80023682
3.9400311 1.9961323 -0.79490882
3.999753 1.9956512 -0.80449927
4.0145721 1.9723738 -0.80503201
4.0026813 1.9361303 -0.80023682
4.0038242 1.9064555 -0.79810566
4.0109916 1.8797638 -0.79721767
4.0170884 1.8526438 -0.79615206
4.041822 1.8340622 -0.79881603
4.0251436 1.7967882 -0.79331046
3.9910417 1.752269 -0.78443044
3.0973816 1.3371438 -0.6066528
3.0955637 1.3138821 -0.60469919
3.0826797 1.2861441 -0.60061437
3.0823195 1.2638433 -0.59901601
3.1119218 1.253737 -0.6032784
3.116811 1.233532 -0.60274559
4.1029563 1.5949793 -0.79224485
3.909488 1.4921894 -0.75299525
3.1629472 1.1849334 -0.60736322
3.1627693 1.1627856 -0.60594237
3.1652162 1.141687 -0.60505438
3.1712341 1.1219157 -0.60487682
3.1696913 1.099532 -0.6032784
3.1754467 1.0797454 -0.60310078
4.1015897 1.3668345 -0.77803683
4.1323504 1.3489746 -0.78229922
4.1396127 1.3232938 -0.78212166
4.1420193 1.2961046 -0.78105605
4.1545987 1.2721065 -0.78194404
4.1858931 1.2536525 -0.78638405
4.2171168 1.2348619 -0.79082406
4.2056928 1.2035451 -0.78727204
4.2092071 1.1766565 -0.78656167
4.2258415 1.1533997 -0.78833765
4.2280841 1.1261816 -0.78744966
4.2425346 1.102198 -0.78887045
4.2463555 1.0754204 -0.78833765
4.2251673 1.0425043 -0.78318721
4.2123475 1.0119593 -0.77963525
4.1887722 0.97914541 -0.77412963
4.1947012 0.95342517 -0.77412963
4.2254562 0.93319046 -0.77874726
4.2320647 0.90745246 -0.77892482
4.2423706 0.88247067 -0.77981281
4.238059 0.85447699 -0.77803683
4.2364612 0.82713562 -0.77679366
4.2462916 0.80203956 -0.77768165
4.269526 0.7793299 -0.78105605
4.2800426 0.75414336 -0.78212166
4.2836194 0.72770238 -0.78194404
4.2744074 0.69917881 -0.77945763
4.2436204 0.66742891 -0.77306402
4.254447 0.64240748 -0.77430725
4.2660999 0.61741942 -0.77572805
4.2688336 0.59109634 -0.77555043
4.2850628 0.56657094 -0.77785921
4.2738128 0.53842038 -0.77519524
4.2701964 0.51136655 -0.77395201
4.2771649 0.48560011 -0.77466244
4.2976761 0.46123961 -0.77785921
4.2269931 0.42742458 -0.76453924
4.2393332 0.40241161 -0.76631522
4.2348609 0.37578207 -0.76507205
4.2233567 0.34865481 -0.76258564
4.199904 0.3207818 -0.75796801
4.2116098 0.29569635 -0.75974405
4.2251301 0.27060539 -0.76187521
4.2011671 0.24319287 -0.75725764
4.2458229 0.21965395 -0.76507205
4.2421751 0.19337314 -0.76418406
4.2344322 0.16698968 -0.76258564
4.2432456 0.14126767 -0.76400644
4.2410812 0.11514838 -0.76347363
4.2279334 0.088831969 -0.76098722
4.2106872 0.062622115 -0.75779045
4.2257533 0.036915801 -0.76045442
3.8220129 -0.011433465 -0.75437456
3.8012717 -0.034695253 -0.75029564
3.777447 -0.057657827 -0.74563402
3.784868 -0.081003182 -0.74718791
3.8127367 -0.10501032 -0.75282067
3.8012362 -0.12803887 -0.75068408
3.7905772 -0.15096936 -0.74874175
3.7660618 -0.17314219 -0.74408013
3.7864799 -0.19737193 -0.7483533
3.7763841 -0.22008735 -0.74660516
3.7416792 -0.24110761 -0.7400012
3.7381723 -0.26392329 -0.73961276
3.728658 -0.28625405 -0.73805887
3.6906607 -0.30612448 -0.73087221
3.6994605 -0.32972288 -0.7330088
3.7051799 -0.35316131 -0.73456264
3.6834245 -0.37390649 -0.73067796
3.6683819 -0.39513391 -0.72815293
3.7087727 -0.42252389 -0.73669922
3.7197454 -0.44691172 -0.73941851
3.7169333 -0.46972722 -0.73941851
3.7062016 -0.49149284 -0.73786461
3.6710525 -0.50976974 -0.73145491
3.6464984 -0.5291844 -0.72718173
3.6228151 -0.54846394 -0.72310281
3.6106608 -0.56930703 -0.72135472
3.6216199 -0.59383291 -0.72426826
3.617908 -0.61604357 -0.72426826
3.5812163 -0.63242853 -0.71766424
3.580163 -0.65492028 -0.718247
3.604028 -0.68216807 -0.72387975
3.5689685 -0.69823986 -0.71766424
3.5540402 -0.71798795 -0.71552771
3.5668535 -0.74338543 -0.71902388
3.5593479 -0.76463896 -0.71844119
3.5268135 -0.78031683 -0.71280843
3.5123947 -0.79976368 -0.71086609
3.4978702 -0.81906313 -0.7089237
3.5623999 -0.85726929 -0.72310281
3.5227904 -0.87063634 -0.71611041
3.4926605 -0.88596261 -0.71106029
3.47102 -0.90317583 -0.70775831
3.4493005 -0.92015707 -0.70445633
3.419934 -0.93483621 -0.69960046
3.4131889 -0.95553839 -0.69940627
3.4261212 -0.9818697 -0.70329094
3.4125016 -1.0006647 -0.70173705
3.4166329 -1.0246851 -0.70387363
3.4177837 -1.047931 -0.70542753
3.4431155 -1.0788572 -0.71203148
3.4140093 -1.0927846 -0.70736986
3.405375 -1.1131023 -0.70698136
3.3528864 -1.1187592 -0.69746387
3.343173 -1.1383622 -0.69688118
3.3713367 -1.1710882 -0.70426208
3.3474445 -1.1858549 -0.70076591
3.2736781 -1.1823747 -0.68678099
3.2829311 -1.2085406 -0.69027722
3.280046 -1.2303845 -0.69124842
3.2770164 -1.2522383 -0.69221956
3.2802408 -1.2765923 -0.6945504
3.2914968 -1.3042858 -0.69862932
3.283432 -1.3244574 -0.69862932
3.2598169 -1.3382449 -0.69532734
3.2343466 -1.3510364 -0.69163686
3.2404406 -1.376996 -0.69474459
3.2238269 -1.3933498 -0.6929965
3.2376671 -1.4229736 -0.69785237
3.2136502 -1.4360083 -0.6945504
3.1708405 -1.4402813 -0.68716949
3.1646152 -1.4609437 -0.68775219
3.1502631 -1.4778337 -0.6865868
3.1181133 -1.4861604 -0.68153667
3.1036384 -1.5026996 -0.68037128
3.0987608 -1.5238796 -0.68134242
3.0744336 -1.5354127 -0.67804044
3.0780776 -1.560904 -0.68095398
3.0518718 -1.5712287 -0.6772635
3.0482588 -1.5931062 -0.67862314
3.0453587 -1.6154579 -0.68017703
3.0207062 -1.6262074 -0.67687505
2.9960368 -1.6367154 -0.67357308
2.9945171 -1.6598243 -0.67551541
2.9765811 -1.6738391 -0.67376733
2.9509182 -1.6833212 -0.6702711
2.9405339 -1.7013961 -0.6702711
2.9258089 -1.7169241 -0.6692999
2.9194336 -1.7373528 -0.6702711
2.9078786 -1.7547265 -0.67007685
2.8669353 -1.7541031 -0.66308439
2.8594525 -1.7737298 -0.66386133
2.8559885 -1.7959418 -0.66560948
2.8374708 -1.808686 -0.66386133
2.8254955 -1.8255299 -0.66366714
2.8093176 -1.839608 -0.66250169
2.7938902 -1.8540984 -0.66153055
2.7971127 -1.8810612 -0.66502678
2.7441781 -1.8700128 -0.65512079
2.7310376 -1.8857008 -0.65473235
2.7210236 -1.9035472 -0.65512079
2.7252979 -1.9315532 -0.65900552
2.6855073 -1.9282123 -0.65220731
2.6871109 -1.9544641 -0.65550929
2.6774371 -1.9726609 -0.65609199
2.6511326 -1.9784904 -0.65259576
2.6287704 -1.9870298 -0.65007073
2.6040666 -1.9935802 -0.64696294
2.5925608 -2.0101223 -0.64715719
2.5909786 -2.0344744 -0.64987648
2.5830531 -2.0539978 -0.65104187
2.5513017 -2.0544257 -0.64618605
2.5363674 -2.0681815 -0.6456033
2.5137963 -2.0755854 -0.64307827
2.4964983 -2.0871952 -0.64191288
2.4836445 -2.102474 -0.64191288
2.4751658 -2.1215045 -0.64307827
2.4739549 -2.14694 -0.64618605
2.4651566 -2.1659646 -0.64735144
2.4444911 -2.1745293 -0.64540911
2.411423 -2.1717613 -0.64016473
2.4212463 -2.2076681 -0.64638025
2.395402 -2.2111709 -0.64307827
2.3810728 -2.2251575 -0.64288402
2.3623869 -2.2350059 -0.64152437
2.328794 -2.230459 -0.63608587
2.3228104 -2.2522182 -0.6382224
2.3026474 -2.2602434 -0.63647431
2.2984762 -2.2840106 -0.63919359
2.2685137 -2.2820685 -0.63472623
2.2510324 -2.2924449 -0.63375503
2.2143872 -2.2829754 -0.62734532
2.2132308 -2.3099787 -0.63103575
2.1821597 -2.3057024 -0.62617987
2.1806982 -2.3326645 -0.62987036
2.1563625 -2.3351901 -0.62695682
2.1320784 -2.3375051 -0.62404329
2.1406746 -2.3760531 -0.63084149
2.1084495 -2.3693559 -0.62559718
2.0854535 -2.3726695 -0.62307215
2.0708559 -2.385421 -0.62307215
2.0440495 -2.3839324 -0.61938167
2.0198755 -2.3851998 -0.61646819
1.9982802 -2.3892708 -0.6143316
1.9842069 -2.4022434 -0.61452585
1.9607497 -2.4037306 -0.61180657
1.961962 -2.4355795 -0.61685663
1.9451487 -2.4452689 -0.61627394
1.92102 -2.445586 -0.6133604
1.8837355 -2.4286458 -0.60617375
1.8640271 -2.4339275 -0.60461986
1.8455082 -2.4406242 -0.60345447
1.8340187 -2.4566188 -0.60461986
1.8194927 -2.4686155 -0.60481411
1.8002717 -2.4741805 -0.60345447
1.78334 -2.4827898 -0.60287178
1.7765819 -2.5056894 -0.60578531
1.7516131 -2.5028799 -0.60248327
1.7278612 -2.5014727 -0.5995698
1.7080601 -2.505543 -0.5980159
1.6893692 -2.5110927 -0.59685051
1.6554849 -2.4936228 -0.59024656
1.6412281 -2.5053751 -0.590635
1.6247598 -2.5137506 -0.59024656
1.6172154 -2.5360796 -0.59316003
1.6021461 -2.5467854 -0.59335428
1.5689055 -2.5282271 -0.58675033
1.563604 -2.5545404 -0.590635
1.5600656 -2.5842426 -0.59529662
1.5316364 -2.5726929 -0.59044075
1.5098631 -2.5718904 -0.58810997
1.4965106 -2.5853515 -0.58908111
1.480619 -2.5944853 -0.58908111
1.4738088 -2.6197662 -0.59277159
1.4486692 -2.6124594 -0.58908111
1.4307307 -2.6178558 -0.58830416
1.4123155 -2.6222668 -0.58733302
1.3948197 -2.6282835 -0.58675033
1.3841199 -2.6472247 -0.58908111
1.377282 -2.6739819 -0.59316003
1.3422116 -2.6456387 -0.58500218
1.3246379 -2.6511919 -0.58441949
1.300552 -2.6434257 -0.58092326
1.2804598 -2.6434102 -0.57917517
1.267171 -2.6574154 -0.58053482
1.2508415 -2.6651406 -0.58053482
1.2266514 -2.6558444 -0.57684433
1.2103324 -2.6633208 -0.57684433
1.201573 -2.6877131 -0.58053482
1.188612 -2.7031174 -0.5822829
1.1630507 -2.6896498 -0.57781553
1.146909 -2.6976385 -0.57800978
1.1337388 -2.7127712 -0.57975787
1.1133459 -2.7106023 -0.57781553
1.0985281 -2.721931 -0.57878673
1.0850592 -2.7368276 -0.58053482
1.0732279 -2.7562318 -0.5832541
1.0587474 -2.7691793 -0.58461374
1.0427699 -2.7783787 -0.58519644
1.0189232 -2.7663143 -0.58131176
0.99826372 -2.7623656 -0.57917517
0.98850358 -2.7887805 -0.58344835
0.97716874 -2.8114724 -0.58694452
0.94598341 -2.7765582 -0.57839823
0.93669325 -2.8055725 -0.5832541
0.90665698 -2.7721071 -0.57509625
0.88963056 -2.7776182 -0.57509625
0.88489312 -2.8223388 -0.5832541
0.86410725 -2.8164611 -0.58092326
0.84821886 -2.8264081 -0.58189446
0.82644254 -2.8164988 -0.57878673
0.80995631 -2.8243458 -0.57936943
0.79631478 -2.8424869 -0.58208871
0.77808237 -2.8444808 -0.58150601
0.75859088 -2.8416193 -0.57995212
0.74633002 -2.8661561 -0.58403105
0.72752321 -2.8659275 -0.58305985
0.70309675 -2.8427212 -0.57742709
0.68701845 -2.852704 -0.57859248
0.66592187 -2.8415844 -0.57548475
0.65065247 -2.8551815 -0.57742709
0.63693708 -2.8763599 -0.58092326
0.61618429 -2.865828 -0.57800978
0.60059065 -2.879158 -0.57995212
0.58582813 -2.8972118 -0.58286566
0.56559056 -2.8882368 -0.58034056
0.54639792 -2.8839421 -0.57878673
0.52798569 -2.8833807 -0.57800978
0.50157905 -2.8373005 -0.56810379
0.4991523 -2.9283237 -0.58577913
0.47831643 -2.9139071 -0.5822829
0.46134526 -2.922601 -0.58344835
0.43708625 -2.8836715 -0.57509625
0.42037091 -2.8930945 -0.57645589
0.40544644 -2.9160233 -0.58053482
0.38586888 -2.9058146 -0.57800978
0.36803189 -2.9081275 -0.57800978
0.35170332 -2.9229922 -0.58053482
0.33631736 -2.9475119 -0.58500218
0.31727916 -2.9407425 -0.5832541
0.29922915 -2.9426339 -0.5832541
0.27734816 -2.9043772 -0.5752905
0.26431632 -2.9597633 -0.58597338
0.24266018 -2.9192929 -0.57762128
0.22624663 -2.9402883 -0.58150601
0.20495011 -2.8956311 -0.57237697
0.18743163 -2.9007499 -0.57315391
0.16900073 -2.8910732 -0.57101732
0.1537133 -2.9390774 -0.58034056
0.13685007 -2.9654429 -0.58539069
0.11786946 -2.9466236 -0.58150601
0.10074718 -2.9757226 -0.58713877
0.080969535 -2.9213724 -0.57626164
0.064201832 -2.9757543 -0.58694452
0.045309424 -2.9348969 -0.57878673
0.027417855 -2.9478714 -0.58131176
0.009362733 -2.9587748 -0.58344835
-0.0087711327 -2.9519098 -0.58208871
-0.027100038 -2.9753423 -0.58675033
-0.045145337 -2.9613883 -0.58403105
-0.063736372 -2.9806702 -0.58791572
-0.082674004 -3.003757 -0.59257734
-0.10007735 -2.9728007 -0.58655608
-0.11937208 -2.9985955 -0.59180039
-0.13858101 -3.0154452 -0.59529662
-0.15748987 -3.0223749 -0.59685051
-0.17477475 -2.9998076 -0.59257734
-0.19191496 -2.9791002 -0.58869267
-0.212542 -3.0111361 -0.59529662
-0.23056303 -3.0039067 -0.59413123
-0.24655563 -2.9731078 -0.58830416
-0.26322487 -2.9539516 -0.58480799
-0.28395313 -2.9796236 -0.59024656
-0.30014855 -2.9573305 -0.58616763
-0.31849897 -2.9573836 -0.58655608
-0.34363881 -3.0167763 -0.59879285
-0.35535204 -2.9581223 -0.58752728
-0.37792614 -2.9909217 -0.59451967
-0.39265823 -2.9613183 -0.58908111
-0.40866128 -2.9433072 -0.58597338
-0.42981431 -2.9621015 -0.59024656
-0.44665921 -2.9506793 -0.58849841
-0.47010562 -2.9817972 -0.59529662
-0.48315251 -2.9469121 -0.58888692
-0.50550836 -2.9690347 -0.59393698
-0.51774329 -2.9320672 -0.58713877
-0.54296446 -2.9683974 -0.59510237
-0.5566054 -2.9409142 -0.59024656
-0.57558209 -2.9422569 -0.5912177
-0.58721209 -2.9069397 -0.58480799
-0.61364686 -2.9445753 -0.59316003
-0.63520664 -2.9570584 -0.59646201
-0.66097027 -2.9875853 -0.60345447
-0.67013931 -2.9433022 -0.59529662
-0.68930513 -2.9439104 -0.59626782
-0.70184577 -2.9167364 -0.5916062
-0.71454996 -2.8914247 -0.58733302
-0.73758578 -2.9079041 -0.5916062
-0.76455683 -2.9384487 -0.59879285
-0.77852583 -2.9185374 -0.59568512
-0.80236965 -2.9354687 -0.60015249
-0.81772101 -2.9210439 -0.59821016
-0.82292396 -2.8716516 -0.58908111
-0.83473051 -2.846781 -0.58500218
-0.84598124 -2.8209345 -0.58072907
-0.87391651 -2.8503907 -0.58791572
-0.89050961 -2.8421667 -0.58733302
-0.91481167 -2.8581367 -0.59180039
-0.92989284 -2.8450105 -0.59024656
-0.95199037 -2.8532088 -0.59316003
-0.97042823 -2.8500993 -0.59374273
-0.98628801 -2.8394582 -0.59277159
-1.0131934 -2.8601673 -0.59840435
-1.0187253 -2.820683 -0.59141195
-1.0302513 -2.7987299 -0.58810997
-1.0491276 -2.796948 -0.58908111
-1.0680206 -2.7950394 -0.59005231
-1.095114 -2.8140295 -0.59549087
-1.1163359 -2.8172884 -0.59762746
-1.1269948 -2.7940111 -0.59413123
-1.1504517 -2.8024697 -0.59743321
-1.1657348 -2.7908323 -0.59646201
-1.1713257 -2.7565429 -0.590635
-1.1862712 -2.744802 -0.5896638
-1.195985 -2.7213073 -0.58616763
-1.2178636 -2.7255599 -0.58869267
-1.2325355 -2.7135706 -0.58772147
-1.2528635 -2.7139721 -0.58946961
-1.281993 -2.7328753 -0.59529662
-1.2810084 -2.6877675 -0.58713877
-1.2974761 -2.6798568 -0.58713877
-1.3156267 -2.6753659 -0.58791572
-1.3504285 -2.7041011 -0.59607357
-1.3732073 -2.7080121 -0.59879285
-1.3951865 -2.7100005 -0.60112363
-1.3817961 -2.644012 -0.58830416
-1.4021313 -2.6432824 -0.59005231
-1.4336709 -2.6631317 -0.59646201
-1.4316407 -2.620712 -0.58888692
-1.4619631 -2.6376164 -0.59471393
-1.4877373 -2.6456964 -0.5985986
-1.4976233 -2.6254416 -0.59607357
-1.5205833 -2.6280892 -0.59879285
-1.5411491 -2.6263237 -0.60054094
-1.5602453 -2.6218755 -0.60170639
-1.5595763 -2.5845377 -0.59529662
-1.5820618 -2.5857971 -0.59782165
-1.5989325 -2.5777082 -0.59821016
-1.6079295 -2.557054 -0.59568512
-1.6172608 -2.537214 -0.59335428
-1.6407846 -2.5396013 -0.59626782
-1.6504246 -2.5204592 -0.59413123
-1.6772506 -2.5274482 -0.59821016
-1.714079 -2.5488539 -0.60578531
-1.7070352 -2.5050545 -0.59782165
-1.736867 -2.5155199 -0.60287178
-1.7337108 -2.4782917 -0.59646201
-1.760798 -2.4844129 -0.60054094
-1.7571265 -2.4472682 -0.59413123
-1.7819197 -2.4499261 -0.59743321
-1.802738 -2.4468434 -0.59937555
-1.8259321 -2.4467416 -0.60209483
-1.8355865 -2.4284494 -0.60034674
-1.8313689 -2.3922169 -0.59413123
-1.8574345 -2.3956635 -0.59782165
-1.872099 -2.3842213 -0.59782165
-1.8720387 -2.3542635 -0.59316003
-1.9061387 -2.3671803 -0.59937555
-1.9076078 -2.3394756 -0.59529662
-1.9150558 -2.3194065 -0.59316003
-1.9474998 -2.3294358 -0.59879285
-1.9655595 -2.3219342 -0.59995824
-1.9759389 -2.3053615 -0.59879285
-1.9842602 -2.2865267 -0.59704477
-1.9833593 -2.2573607 -0.59257734
-1.9893483 -2.2363539 -0.59024656
-2.0030329 -2.2241054 -0.59024656
-2.0258958 -2.2219205 -0.59296584
-2.0208595 -2.1892672 -0.58752728
-2.0489907 -2.1925926 -0.59180039
-2.0529666 -2.1700034 -0.58908111
-2.0818503 -2.1736586 -0.59354854
-2.1047091 -2.1707025 -0.59626782
-2.1186759 -2.1584475 -0.59646201
-2.1097519 -2.1231422 -0.59024656
-2.1596148 -2.1468072 -0.60054094
-2.1706467 -2.131454 -0.59995824
-2.1710086 -2.1058023 -0.59646201
-2.1675963 -2.0768342 -0.59199464
-2.1966867 -2.0790024 -0.59646201
-2.2115517 -2.0674939 -0.59704477
-2.2119436 -2.0425727 -0.59374273
-2.2200861 -2.024996 -0.59257734
-2.2506907 -2.0277495 -0.59743321
-2.2491658 -2.0015121 -0.59374273
-2.2680364 -1.9935018 -0.59549087
-2.2587419 -1.9609003 -0.58985806
-2.3005209 -1.9725423 -0.59762746
-2.3095863 -1.9558541 -0.59685051
-2.3072457 -1.9296898 -0.59316003
-2.3319008 -1.9261153 -0.59646201
-2.336834 -1.9061909 -0.59471393
-2.3568897 -1.8985848 -0.59685051
-2.3869207 -1.8987422 -0.60151213
-2.3992977 -1.8846666 -0.60170639
-2.3960884 -1.8584875 -0.5980159
-2.4386005 -1.8676054 -0.60578531
-2.460969 -1.8608896 -0.60850453
-2.4723411 -1.8457543 -0.60850453
-2.4638774 -1.8160011 -0.60364872
-2.4773536 -1.8025801 -0.60423142
-2.4947414 -1.791923 -0.60578531
-2.5184939 -1.7856588 -0.60889304
-2.5044873 -1.7527379 -0.60287178
-2.516809 -1.7384526 -0.60326022
-2.5217545 -1.7191097 -0.60190058
-2.5379531 -1.7074366 -0.60326022
-2.5696316 -1.7059367 -0.60831034
-2.5570736 -1.6750885 -0.60287178
-2.5771904 -1.6657562 -0.60520256
-2.5923257 -1.6530756 -0.60636801
-2.6074021 -1.6402719 -0.6075334
-2.6299207 -1.6319997 -0.61044693
-2.6499255 -1.6219766 -0.61277771
-2.6379921 -1.592507 -0.60772765
-2.6620438 -1.5848203 -0.61102962
-2.6886377 -1.5783875 -0.6149143
-2.694876 -1.5598952 -0.61413735
-2.7316613 -1.5588866 -0.62035286
-2.7078304 -1.5233412 -0.61277771
-2.7462959 -1.5228693 -0.61938167
-2.7418151 -1.4984639 -0.61627394
-2.7544127 -1.4834725 -0.61705089
-2.7799275 -1.4752795 -0.62074131
-2.79849 -1.4631932 -0.6228779
-2.8117759 -1.44824 -0.62384909
-2.8363566 -1.4389473 -0.62734532
-2.8539078 -1.4259003 -0.62928766
-2.8731661 -1.4135579 -0.63161844
-2.8597138 -1.3852128 -0.62676257
-2.902693 -1.3841033 -0.63433772
-2.8569598 -1.3408481 -0.62248945
-2.8633523 -1.3224704 -0.62210095
-2.8517647 -1.2959493 -0.61782783
-2.8569763 -1.2772261 -0.61724514
-2.842309 -1.2498025 -0.61238927
-2.8841398 -1.2471309 -0.61977017
-2.9459052 -1.2524343 -0.63142419
-2.9390526 -1.228284 -0.62831646
-2.9556081 -1.2139534 -0.6302588
-2.9548137 -1.1924919 -0.62851071
-2.9420125 -1.166387 -0.62423754
-2.9737957 -1.1579212 -0.62948185
-2.9597697 -1.1315972 -0.62501448
-3.004313 -1.127544 -0.63297808
-2.9817181 -1.0982417 -0.62676257
-2.9837875 -1.0782589 -0.62579143
-3.0005183 -1.0635346 -0.62792802
-3.0255198 -1.051543 -0.63181269
-3.064415 -1.0440286 -0.6386109
-3.0568058 -1.0205475 -0.63569736
-3.0592809 -1.0005528 -0.63492042
-3.0466776 -0.97577989 -0.63103575
-3.0591602 -0.95912117 -0.63239539
-3.1034386 -0.95212585 -0.64035898
-3.0979476 -0.92968291 -0.6380282
-3.1337149 -0.91949236 -0.64424366
-3.1487277 -0.90295029 -0.64618605
-3.1636548 -0.88625842 -0.64812839
-3.1633561 -0.86527753 -0.64696294
-3.1733446 -0.84711587 -0.64793414
-3.147155 -0.8194741 -0.64152437
-3.1083865 -0.78904927 -0.63258964
-3.138881 -0.77631861 -0.63783395
-3.1760113 -0.76485032 -0.64443791
-3.1892407 -0.7473619 -0.64618605
-3.2004614 -0.72930413 -0.6475457
-3.1991293 -0.7083807 -0.64638025
-3.2398598 -0.6965704 -0.65376115
-3.2872865 -0.6856882 -0.66250169
-3.2597022 -0.65909189 -0.65609199
-3.2704237 -0.64039731 -0.65745163
-3.2771831 -0.62086594 -0.65803432
-3.2857554 -0.60162884 -0.65900552
-3.2806914 -0.57992035 -0.65725738
-3.2764516 -0.55846155 -0.65570349
-3.2633603 -0.53564727 -0.65240151
-3.2975926 -0.52050537 -0.65861702
-3.2958748 -0.49952734 -0.65764588
-3.3241181 -0.48295996 -0.66269594
-3.3289618 -0.46282446 -0.66308439
-3.3239598 -0.44135728 -0.66153055
-3.3129804 -0.41923055 -0.65881127
-3.3349693 -0.40123656 -0.66269594
-3.3373685 -0.38076603 -0.66269594
-3.3308642 -0.35933489 -0.66094786
-3.3359342 -0.3391878 -0.66153055
-3.3535769 -0.3202031 -0.66463828
-3.3193269 -0.29639465 -0.65745163
-3.3386793 -0.2774832 -0.66094786
-3.3276041 -0.25601494 -0.65842277
-3.3251984 -0.23531565 -0.65764588
-3.360842 -0.21711895 -0.66444403
-3.3934481 -0.19832215 -0.67065954
-3.384805 -0.17698513 -0.66871721
-3.3417308 -0.15418194 -0.65997666
-3.3680987 -0.13469173 -0.66502678
-3.3776851 -0.11432089 -0.66677487
-3.3381195 -0.092482947 -0.65881127
-3.3219516 -0.071640648 -0.65550929
-3.3458686 -0.051617511 -0.66017091
-3.3284659 -0.030924017 -0.65667468
-3.3413455 -0.010539579 -0.65919971
-3.3472328 0.0099807382 -0.66036516
-3.3206239 0.030275235 -0.65512079
-3.3203757 0.050649628 -0.65512079
-3.274889 0.070053495 -0.64618605
-3.2606695 0.089767478 -0.64346677
-3.3198614 0.1117914 -0.65531504
-3.3112714 0.13184674 -0.65376115
-3.3388178 0.15347029 -0.65939397
-3.328017 0.17344269 -0.65745163
-3.2828221 0.19128843 -0.64871109
-3.2610292 0.21010172 -0.64463216
-3.2802274 0.23155931 -0.64871109
-3.2425563 0.24890123 -0.64152437
-3.2067525 0.26595202 -0.63472623
-3.191381 0.28440315 -0.63200694
-3.1798108 0.30304825 -0.63006455
-3.182771 0.32304919 -0.63103575
-3.2421732 0.349195 -0.64327252
-3.2078063 0.36541554 -0.63686275
-3.2542009 0.39094558 -0.6465745
-3.2371428 0.40905973 -0.64366096
-3.2258201 0.42775354 -0.64191288
-3.2231345 0.44753876 -0.64191288
-3.2164447 0.46674332 -0.64113593
-3.198972 0.48426673 -0.6382224
-3.1959405 0.5038861 -0.6382224
-3.1811721 0.52158099 -0.63589162
-3.1924171 0.54356146 -0.63880515
-3.2701657 0.57747519 -0.65512079
-3.260771 0.59647018 -0.6539554
-3.2397008 0.61318159 -0.65045917
-3.2387657 0.63361371 -0.65104187
-3.2271247 0.6519199 -0.64948803
-3.2201831 0.67110825 -0.64890534
-3.2313495 0.69415194 -0.65201306
-3.2528894 0.71968961 -0.65725738
-3.2503252 0.74007112 -0.65764588
-3.2285311 0.75597388 -0.65414965
-3.2362301 0.778754 -0.65667468
-3.2009177 0.79106289 -0.65045917
-3.2188232 0.81647879 -0.65512079
-3.1643879 0.82336491 -0.6450206
-3.1905534 0.85111183 -0.65143037
-3.1824324 0.86989653 -0.65084767
-3.198761 0.89549124 -0.65531504
-3.1837764 0.91239852 -0.6533727
-3.1715291 0.92998391 -0.65201306
-3.1873736 0.95590949 -0.65648043
-3.1927023 0.97890043 -0.65881127
-3.1660423 0.99201775 -0.65453809
-3.1692386 1.0144167 -0.65648043
-3.1638868 1.0341485 -0.65667468
-3.2095897 1.0709335 -0.66755182
-3.1983154 1.0890257 -0.66658062
-3.2091787 1.1147467 -0.6702711
-3.1902583 1.1301576 -0.66774607
-3.1509728 1.138046 -0.66094786
-3.1439304 1.1573586 -0.66094786
-3.0926847 1.1600871 -0.65162456
-3.1056671 1.1867465 -0.65589774
-3.1120391 1.2111177 -0.65881127
-3.1528819 1.2493465 -0.66910571
-3.1615314 1.2752753 -0.67260188
-3.1291463 1.2845898 -0.66735756
-3.0623717 1.2791848 -0.65473235
-3.0689099 1.3040905 -0.65784007
-3.0959668 1.3380769 -0.66541523
-3.0454915 1.3384944 -0.65628624
-3.0748355 1.3739672 -0.66444403
-3.0627747 1.391185 -0.66366714
-3.0728836 1.4185876 -0.66774607
-3.0801065 1.4449159 -0.67124224
-3.0835793 1.4696976 -0.67396152
-3.0903952 1.4962864 -0.67745775
-3.077635 1.5134887 -0.6766808
-3.0366983 1.5165635 -0.6696884
-2.987967 1.5152001 -0.66094786
-2.9751251 1.531709 -0.66017091
