# .PCD v0.7 - Point Cloud Data file format
VERSION 0.7
FIELDS x y z
SIZE 4 4 4
TYPE F F F
COUNT 1 1 1
WIDTH 1460
HEIGHT 1
VIEWPOINT 0 0 0 1 0 0 0
POINTS 1460
DATA ascii
-5.1843209 -6.8055449 -0.42829067
-5.2223206 -6.7688618 -0.42799023
-5.2625256 -6.735117 -0.42789009
-5.3316417 -6.7379436 -0.43014324
-5.3728848 -6.705102 -0.43014324
-5.4214768 -6.6813149 -0.43074408
-5.4611025 -6.6463804 -0.43064395
-5.5075302 -6.6196561 -0.43109459
-5.5757146 -6.6185818 -0.4332476
-5.6285357 -6.5986824 -0.43419892
-5.6871972 -6.585186 -0.43560088
-5.7597113 -6.5870066 -0.43805429
-5.8178949 -6.5717316 -0.43940619
-5.8841071 -6.5649147 -0.44135892
-5.9242778 -6.528687 -0.44135892
-5.9621987 -6.4900069 -0.44120872
-6.0121112 -6.4642711 -0.44195977
-6.0913734 -6.4694333 -0.44486383
-6.1399126 -6.4413333 -0.44551474
-6.1945786 -6.4193497 -0.44661629
-6.2408295 -6.3883634 -0.44711697
-6.2876353 -6.3577614 -0.44766775
-6.3533807 -6.345881 -0.44957042
-6.4149499 -6.3292241 -0.45117265
-6.4586711 -6.2946224 -0.45152313
-6.5130024 -6.2701135 -0.45262468
-6.5585899 -6.2369146 -0.45312539
-6.5974636 -6.1972384 -0.45317546
-6.6456151 -6.1661501 -0.45387644
-6.7238216 -6.1623707 -0.45663029
-6.7911239 -6.1478086 -0.45863307
-6.8369083 -6.1133461 -0.45918384
-6.8817763 -6.0778918 -0.45968455
-6.9437776 -6.0572166 -0.46133685
-6.9974599 -6.0288377 -0.4624384
-7.043448 -5.9935555 -0.46303925
-7.0907955 -5.9592209 -0.46374023
-7.1387553 -5.925168 -0.46449128
-7.1958327 -5.8983483 -0.46584317
-7.2396517 -5.8603683 -0.46634385
-7.2832756 -5.822072 -0.46684456
-7.3368926 -5.7915058 -0.46799618
-7.3738661 -5.7476058 -0.46809632
-7.4192834 -5.7101712 -0.46874723
-7.4653134 -5.6729999 -0.46944821
-7.5047755 -5.6306829 -0.46974862
-7.5704832 -5.6077123 -0.47170135
-7.6152301 -5.568819 -0.47235227
-7.6492562 -5.5219879 -0.47235227
-7.6797409 -5.4726305 -0.47215196
-7.7148099 -5.4265547 -0.47225213
-7.7963662 -5.4127192 -0.47520626
-7.8459096 -5.37607 -0.47620764
-7.9010873 -5.3429327 -0.47755954
-7.9802451 -5.3253961 -0.48036346
-8.0302877 -5.2878642 -0.48141494
-8.0650949 -5.2401242 -0.48156515
-8.1206398 -5.2056303 -0.48296711
-8.1802835 -5.1733208 -0.48461941
-8.2483101 -5.1457605 -0.48677242
-8.3163042 -5.1175594 -0.48892543
-8.3663321 -5.0778351 -0.49002698
-8.4144716 -5.0366635 -0.49102837
-8.4753208 -5.0027061 -0.49278083
-8.5472908 -4.9747229 -0.49518418
-8.6149035 -4.9435577 -0.49733719
-8.6607218 -4.899456 -0.49823844
-8.6880054 -4.8447638 -0.49808824
-8.7201939 -4.7928071 -0.49823844
-8.7415342 -4.7349296 -0.49778783
-8.7580872 -4.6746197 -0.49708685
-8.7645054 -4.6091719 -0.4958351
-8.8236609 -4.5713868 -0.49758753
-8.8043938 -4.4930992 -0.49493384
-8.8344755 -4.4403377 -0.49508405
-8.9260025 -4.417944 -0.49868909
-9.0202789 -4.395905 -0.50244433
-9.1326275 -4.3815145 -0.50720096
-9.237009 -4.362071 -0.51150697
-9.2880545 -4.3166766 -0.51285887
-9.3107328 -4.2579432 -0.5126586
-9.3221102 -4.1941772 -0.51185751
-9.3723297 -4.1478119 -0.5132094
-9.429656 -4.1041756 -0.51496184
-9.4519062 -4.0450602 -0.51481164
-9.4360418 -3.9699473 -0.51260853
-9.4380732 -3.9028151 -0.51140684
-9.4340839 -3.8335516 -0.50990474
-9.5882158 -3.8278027 -0.51696461
-9.6626625 -3.7889502 -0.51971847
-9.6969137 -3.7338965 -0.52031934
-9.7149715 -3.6725612 -0.520069
-9.7120399 -3.6035023 -0.51871711
-9.6551352 -3.5151436 -0.51451123
-9.6360769 -3.4413912 -0.51235819
-9.6711512 -3.3871524 -0.51310927
-9.6823063 -3.3245044 -0.51260853
-9.7810898 -3.2914693 -0.51676434
-9.8551674 -3.2492158 -0.51961833
-9.9290934 -3.2061765 -0.52247232
-9.9876232 -3.1575348 -0.52452523
-10.028754 -3.1029823 -0.52567679
-10.080107 -3.0512257 -0.52737921
-10.134073 -2.9998059 -0.52923179
-10.22904 -2.9597743 -0.5332374
-10.250853 -2.8980412 -0.53343767
-10.326206 -2.8510354 -0.53644186
-10.367614 -2.7941182 -0.53769362
-10.411609 -2.7375617 -0.53909558
-10.453364 -2.6800742 -0.54039741
-10.537439 -2.6328287 -0.54390228
-10.590272 -2.5770955 -0.54580498
-10.648647 -2.5221939 -0.54800802
-10.700907 -2.465327 -0.54991072
-10.738248 -2.4046404 -0.55106229
-10.790862 -2.3469839 -0.55301505
-10.815809 -2.2829969 -0.5535658
-10.865817 -2.2239988 -0.55541837
-10.954694 -2.1722419 -0.55927378
-10.992338 -2.1096902 -0.56052554
-11.042391 -2.0491266 -0.56242818
-11.102926 -1.9899657 -0.56488162
-11.257629 -1.9464724 -0.57214177
-11.352116 -1.8911446 -0.57634765
-11.404925 -1.8280919 -0.57845062
-11.504766 -1.7717578 -0.58295691
-11.532218 -1.7036135 -0.58380806
-11.650244 -1.6480671 -0.5892657
-11.69082 -1.5806994 -0.59081787
-11.801334 -1.5219643 -0.59592503
-11.884799 -1.4586475 -0.5996803
-11.986776 -1.396559 -0.60438687
-12.082479 -1.3326168 -0.60879302
-12.262284 -1.2763395 -0.61745512
-12.256963 -1.199811 -0.61680424
-12.351617 -1.1326048 -0.6212104
-12.476753 -1.0669196 -0.62716872
-12.536828 -0.99460787 -0.6298725
-12.560623 -0.91897613 -0.63077378
-12.66468 -0.84849608 -0.63573068
-12.687593 -0.77186239 -0.63663197
-12.740955 -0.69666934 -0.63908535
-12.790878 -0.62070519 -0.6413886
-12.835358 -0.54394317 -0.64344144
-12.912313 -0.46785146 -0.64714664
-12.955872 -0.38984504 -0.64919949
-13.020923 -0.31184739 -0.65235394
-13.183364 -0.23480731 -0.66041517
-13.217513 -0.15429543 -0.66206753
-13.252168 -0.073378831 -0.6637699
-13.312293 0.0079732491 -0.66677409
-13.36093 0.089986235 -0.66922754
-13.375107 0.17215873 -0.66997856
-13.377792 0.25429961 -0.67017883
-13.332049 0.33527386 -0.66797578
-13.211946 0.41338381 -0.66206753
-13.112351 0.49081752 -0.65721071
-13.036253 0.56808871 -0.65355563
-13.018557 0.64737225 -0.65285462
-12.98642 0.7256797 -0.65145266
-12.955804 0.80374086 -0.65015084
-12.945646 0.88288122 -0.6499005
-12.969865 0.96452016 -0.65140259
-12.969676 1.0445648 -0.651703
-12.961032 1.123953 -0.65160286
-12.936987 1.2018882 -0.65075171
-12.937319 1.2820336 -0.65115225
-13.020589 1.3710148 -0.65575868
-13.05759 1.4559739 -0.65806192
-13.070232 1.5386356 -0.65916348
-13.067483 1.6196642 -0.65951395
-13.087011 1.7036827 -0.66101605
-13.10105 1.7873265 -0.6622678
-13.12642 1.8728997 -0.66412038
-13.179878 1.9631188 -0.66742498
-13.161664 2.0430329 -0.66712457
-13.237617 2.138087 -0.67163086
-13.343431 2.239274 -0.67768937
-13.416025 2.3361847 -0.68209553
-13.457462 2.428571 -0.68494952
-13.608224 2.5420959 -0.69341135
-13.690432 2.6444902 -0.69841832
-13.943292 2.782192 -0.71218759
-14.042366 2.8916671 -0.71814591
-14.077115 2.9889777 -0.72084969
-14.233155 3.1135035 -0.7298122
-14.22645 3.2036304 -0.73046315
-14.217227 3.2933412 -0.73101389
-14.219098 3.3858361 -0.73216552
-14.281488 3.4934289 -0.73647153
-14.347933 3.6031306 -0.74102789
-15.345901 3.9540181 -0.79385173
-15.554062 4.1095934 -0.80591863
-15.647127 4.2370648 -0.81207722
-15.779632 4.3770437 -0.82033879
-15.947509 4.5291762 -0.83050299
-16.005733 4.6520319 -0.83500928
-16.089851 4.783741 -0.84091759
-16.171041 4.9160762 -0.8467257
-16.221643 5.0403981 -0.85098165
-16.470276 5.2286882 -0.86570221
-16.503437 5.3509049 -0.86915702
-16.567005 5.4840822 -0.87426418
-16.611578 5.6121664 -0.87842
-16.698633 5.7559748 -0.88487905
-16.738379 5.884829 -0.8888846
-16.786568 6.0177574 -0.89339095
-16.957579 6.1967478 -0.90450644
-16.954803 6.3139262 -0.90640914
-16.950293 6.4309492 -0.90826172
-16.9543 6.5517535 -0.91061503
-16.967684 6.6768723 -0.91351908
-17.04043 6.8265433 -0.91967767
-17.07868 6.9637809 -0.92403376
-17.138027 7.1109309 -0.92959154
-17.188845 7.2559614 -0.93474877
-17.242195 7.4034581 -0.94010621
-17.244038 7.5298986 -0.94270986
-17.23311 7.651371 -0.94466263
-17.240458 7.781621 -0.94766682
-17.25956 7.9180784 -0.95137197
-17.331043 8.0799618 -0.9580313
-17.49415 8.2870588 -0.9698478
-17.514969 8.4288931 -0.97385341
-17.493427 8.5511169 -0.97555578
-17.492516 8.6840525 -0.97845984
-17.520948 8.8325844 -0.98306632
-17.532213 8.9735985 -0.98677146
-17.566334 9.1275167 -0.99182856
-17.522366 9.2416534 -0.99252951
-17.540174 9.3890591 -0.99678546
-17.54981 9.5332155 -1.0006409
-17.553087 9.6749506 -1.0041958
-17.546566 9.8122082 -1.0072501
-17.578978 9.9724188 -1.0126076
-17.594501 10.124427 -1.0170639
-17.538086 10.235719 -1.0174143
-17.50675 10.36196 -1.019267
-17.519054 10.51493 -1.0237231
-17.501131 10.650784 -1.026477
-17.502598 10.7994 -1.0304326
-17.48596 10.937841 -1.0333867
-17.447195 11.063111 -1.035089
-17.506691 11.252039 -1.0426997
-17.497572 11.398498 -1.0463047
-17.447306 11.518853 -1.0475065
-17.420294 11.655127 -1.0501602
-17.374079 11.779171 -1.0517123
-17.353336 11.921183 -1.0548667
-17.38315 12.099327 -1.0611755
-17.353474 12.237419 -1.0639293
-17.343885 12.390695 -1.0679851
-17.31122 12.528502 -1.0706888
-17.287182 12.67346 -1.0739934
-17.284466 12.835265 -1.0787001
-17.249285 12.974098 -1.0814539
-17.244032 13.136587 -1.0861604
-17.19236 13.26472 -1.0880131
-17.170456 13.416698 -1.0918183
-17.134018 13.558366 -1.0947725
-17.120646 13.719454 -1.0992788
-17.116796 13.889695 -1.1044861
-17.055943 14.014751 -1.1060883
-17.043331 14.180465 -1.110895
-17.018633 14.337541 -1.1150007
-17.009363 14.509105 -1.120208
-16.986532 14.670647 -1.1246142
-16.940554 14.813388 -1.1275684
-16.936085 14.993851 -1.1333765
-16.918137 15.164148 -1.1383835
-16.865452 15.304585 -1.1411374
-16.821976 15.454406 -1.1445922
-16.851156 15.672966 -1.1531041
-16.809933 15.828103 -1.1569093
-16.781174 15.996414 -1.161666
-16.70714 16.122662 -1.1633683
-16.720774 16.335146 -1.1712794
-16.662127 16.47887 -1.1742336
-16.621397 16.641571 -1.1785396
-16.582104 16.807232 -1.1830459
-16.620863 17.054575 -1.1932602
-16.615648 17.25985 -1.2004702
-16.590643 17.44688 -1.2063786
-16.531826 17.600037 -1.2099335
-16.483301 17.765572 -1.2143396
-16.49477 17.998177 -1.2233021
-16.480543 18.205669 -1.2305123
-16.439754 18.386114 -1.2358698
-16.429106 18.602674 -1.2436306
-16.377678 18.775385 -1.2484373
-16.335176 18.96027 -1.2540451
-16.377104 19.246502 -1.2663124
-16.272194 19.362684 -1.2673638
-16.245569 19.573603 -1.274624
-16.236591 19.808861 -1.2834363
-16.222193 20.040863 -1.2919983
-16.159407 20.215696 -1.296855
-16.088278 20.381887 -1.3011611
-16.056852 20.600744 -1.3088218
-16.023342 20.819977 -1.3164824
-15.933362 20.968 -1.3196368
-15.970429 21.286669 -1.3335062
-15.895396 21.459702 -1.3382128
-15.891937 21.732582 -1.3491281
-15.809147 21.900137 -1.3534842
-15.902829 22.317196 -1.3732117
-15.860975 22.549961 -1.3815234
-15.786102 22.738745 -1.3871312
-15.73717 22.967827 -1.3951925
-15.702801 23.221981 -1.4047558
-15.754045 23.608664 -1.4222804
-15.707753 23.85503 -1.431293
-15.599718 24.010426 -1.434848
-15.610559 24.352898 -1.4495685
-15.517423 24.537699 -1.4548759
-15.531498 24.896835 -1.4704978
-15.476841 25.151579 -1.479911
-15.42275 25.411709 -1.4896245
-15.352709 25.649832 -1.4980363
-15.226509 25.796879 -1.5011406
-15.177455 26.077999 -1.5120559
-15.184172 26.4617 -1.5288794
-15.146914 26.776041 -1.5416473
-15.039731 26.971409 -1.5475556
-14.967277 27.232985 -1.5572691
-1.3506085 2.4931197 -0.14153974
-1.330583 2.4925489 -0.14103904
-1.3166585 2.5033181 -0.14118925
-1.3012736 2.5113499 -0.14118925
-1.2867476 2.5210662 -0.1412894
-1.2793274 2.5449772 -0.14219065
-14.057442 30.248184 -1.6715789
-13.882792 30.358393 -1.6729308
-11.906394 26.464563 -1.4542251
-11.731662 26.509724 -1.4527229
-11.519359 26.467651 -1.4465142
-11.347702 26.516716 -1.4453627
-11.163871 26.536133 -1.4426589
-11.037094 26.691814 -1.4474155
-11.094544 27.791775 -1.4995885
-10.91433 27.83515 -1.4982866
-12.652515 32.860069 -1.764659
-12.400151 32.80349 -1.7574991
-12.181617 32.833076 -1.7550457
-11.978561 32.90345 -1.7548454
-11.760656 32.932121 -1.7524921
-11.547805 32.973503 -1.7508898
-11.319969 32.970055 -1.7469844
-11.08433 32.940445 -1.7417771
-10.817272 32.811493 -1.7314125
-10.59917 32.825928 -1.7287089
-10.36775 32.796066 -1.7237519
-10.127063 32.732166 -1.7170925
-9.937026 32.830013 -1.7189952
-9.6965637 32.759167 -1.7121357
-9.4440222 32.640556 -1.7028726
-9.208518 32.57391 -1.6964136
-8.9906673 32.565296 -1.693059
-4.5737267 16.971441 -0.88057303
-4.4585857 16.957649 -0.87842
-4.3465147 16.95373 -0.87681776
-4.2457962 16.993647 -0.87751871
-4.1142902 16.907778 -0.87176067
-3.9883726 16.839407 -0.86695397
-3.882731 16.853828 -0.86645329
-3.7737889 16.85297 -0.86520153
-3.6654286 16.853363 -0.86404991
-3.540293 16.772928 -0.85879254
-3.4268968 16.743454 -0.85618889
-3.3130245 16.708324 -0.8533349
-3.2023482 16.686163 -0.85118192
-3.0973527 16.69175 -0.85048091
-2.9841287 16.650471 -0.84742665
-2.87323 16.618277 -0.84487307
-2.7661211 16.605055 -0.84332091
-2.6580184 16.583254 -0.8413682
-2.5525675 16.57556 -0.84016651
-2.4443924 16.547438 -0.8379634
-2.3355398 16.5107 -0.83535981
-2.224822 16.455441 -0.83185488
-2.1201074 16.440056 -0.83040285
-2.0170035 16.434912 -0.82950163
-1.9121938 16.413248 -0.8277992
-1.8076164 16.389925 -0.82604676
-1.7031907 16.363955 -0.82419419
-1.5996383 16.342289 -0.82259196
-1.49596 16.314999 -0.82073933
-1.3942086 16.304962 -0.81978804
-1.2870296 16.223604 -0.81528175
-1.1843992 16.18936 -0.81317878
-1.0858419 16.208281 -0.81377959
-0.98582363 16.205666 -0.81332898
-0.88767725 16.235344 -0.81453067
-0.78499365 16.177637 -0.81137627
-0.68584162 16.185143 -0.81152648
-0.58655465 16.190046 -0.81157655
-0.48915473 16.25823 -0.81483108
-0.39115515 16.33481 -0.81853628
-0.29429525 16.526636 -0.8280496
-0.19515409 16.722872 -0.8378132
-0.09333463 16.867573 -0.84502327
0.015161598 24.975643 -1.2514915
0.10278582 15.256507 -0.76426041
0.19658911 15.270569 -0.76501143
0.28902993 15.20317 -0.76170683
0.37748522 15.009411 -0.75209337
0.46616772 14.898002 -0.74663574
0.54613429 14.58946 -0.7313143
0.62589937 14.362327 -0.72009861
0.71009308 14.279412 -0.71614313
0.79457504 14.218946 -0.71333921
1.1060419 17.827303 -0.89484298
0.9738977 14.279866 -0.71694422
1.3373958 17.982704 -0.90340495
1.4498757 18.001038 -0.90475684
1.2762777 14.717224 -0.73997641
1.6928445 18.220562 -0.91677362
1.4737277 14.871401 -0.7485885
1.5664136 14.875985 -0.74928945
1.6579936 14.869071 -0.74943966
1.7503651 14.868537 -0.74994034
2.2101679 17.830994 -0.90015036
2.3094773 17.739847 -0.89624494
2.4209838 17.745132 -0.8972463
2.5310903 17.738844 -0.89769697
3.6000743 24.168669 -1.2244037
3.7562699 24.197447 -1.2270074
3.9038756 24.169014 -1.226757
4.0521007 24.144604 -1.226757
4.2056561 24.15077 -1.2283592
4.3674216 24.200193 -1.2322147
4.5200477 24.195518 -1.2333663
4.6777062 24.215378 -1.2358197
4.8365598 24.238131 -1.2384734
4.9996953 24.278429 -1.2420784
5.1684871 24.341085 -1.2468852
5.3363132 24.393795 -1.2512412
5.4983978 24.416132 -1.2540952
5.6663661 24.460745 -1.2581509
5.8737268 24.666468 -1.2705683
6.0786023 24.849215 -1.2818841
6.3236465 25.180511 -1.3009608
6.5346031 25.360779 -1.3123267
6.7076955 25.386833 -1.3157815
7.02807 25.953495 -1.3473756
7.180244 25.884861 -1.3460739
7.1637516 25.223516 -1.3139288
7.5076647 25.830284 -1.3479264
7.7334747 26.010618 -1.3597931
7.8856649 25.938787 -1.3585413
8.0328188 25.851765 -1.3565384
8.1900816 25.798182 -1.3563381
8.3654737 25.800646 -1.3591421
8.3874044 25.337336 -1.3374118
8.5407963 25.279718 -1.3371114
8.0135336 23.247747 -1.2321646
7.9811168 22.700657 -1.2057276
8.3100128 23.180565 -1.233917
8.4459181 23.112255 -1.2330158
8.6008186 23.095562 -1.2349185
8.7257175 22.998465 -1.2325652
8.4418478 21.845203 -1.1734825
7.9708152 20.25581 -1.0906668
8.0849237 20.181488 -1.0893148
8.053236 19.750475 -1.068686
7.8929338 19.022663 -1.0318846
7.904243 18.724524 -1.0183156
7.8822455 18.357224 -1.0009413
7.880424 18.046741 -0.98662126
7.9208927 17.840132 -0.97795916
7.8790016 17.456202 -0.95953339
8.0301075 17.503752 -0.96484083
8.0238323 17.210651 -0.95137197
8.1258631 17.153873 -0.95097142
8.2292318 17.100092 -0.95077115
8.3063679 16.992746 -0.94761676
8.3540745 16.82785 -0.94125783
8.2728357 16.410624 -0.92072916
8.2814512 16.179966 -0.91061503
8.3506413 16.071241 -0.90736043
8.3992405 15.925178 -0.90200299
8.4062977 15.70428 -0.89238954
8.4600697 15.574296 -0.88793331
8.4720659 15.370774 -0.87927121
8.5145473 15.226101 -0.87396377
8.4900293 14.965952 -0.86199701
8.5318851 14.827012 -0.85699004
8.5079174 14.577715 -0.84557408
8.5229321 14.399753 -0.83826387
8.5628119 14.26669 -0.83355725
8.531805 14.01936 -0.82214129
8.5159206 13.801852 -0.8124277
8.5225868 13.62487 -0.80506742
7.908052 12.4716 -0.73972607
7.9471669 12.36487 -0.73627126
7.9073129 12.138465 -0.72565639
7.9739408 12.07805 -0.72495544
8.0290174 12.000672 -0.72325307
8.0755987 11.911502 -0.72084969
8.1191263 11.818919 -0.71824604
8.1395712 11.694284 -0.71368968
8.1559162 11.565765 -0.70888299
8.1889906 11.462681 -0.7056284
8.2363329 11.380664 -0.70367569
8.2528629 11.257421 -0.6991694
8.3086815 11.18893 -0.69806784
8.377779 11.138536 -0.69811791
8.4477825 11.089305 -0.69826812
8.5144453 11.03568 -0.69816798
8.5721598 10.970636 -0.69736683
8.6455107 10.925664 -0.69786757
8.7030182 10.86072 -0.69711649
8.7638302 10.800135 -0.69666588
8.8464203 10.766221 -0.69796771
8.9346714 10.738608 -0.69972014
9.0254908 10.713373 -0.70167285
9.101428 10.66995 -0.702474
9.1765175 10.625241 -0.70322508
9.2487726 10.577005 -0.70377582
9.3293867 10.538004 -0.70497751
9.4092026 10.497666 -0.70612913
9.4808216 10.447871 -0.70667988
9.5501556 10.395385 -0.70708042
9.613081 10.335859 -0.70703036
9.6783733 10.278861 -0.70718056
9.7460842 10.224342 -0.70753109
9.8218145 10.178004 -0.70848238
9.8791943 10.112546 -0.70813191
9.9621267 10.073042 -0.70963401
10.040707 10.028665 -0.7108357
10.10063 9.9654646 -0.71073556
10.155149 9.8970261 -0.71028495
10.232234 9.850461 -0.71143651
10.296825 9.7916212 -0.71173698
10.359624 9.7309923 -0.71193725
10.418406 9.666564 -0.71188718
10.487094 9.611228 -0.71253806
10.56216 9.5614452 -0.71363962
10.632541 9.5071077 -0.7144407
10.679446 9.4317722 -0.71368968
10.702496 9.3358669 -0.71138644
10.751255 9.2628508 -0.7108357
10.807888 9.1967087 -0.7108357
10.866408 9.1321468 -0.7109859
10.903025 9.0493536 -0.70973414
10.952166 8.9772186 -0.7093336
11.010924 8.9129906 -0.70958394
0.89624941 0.7166996 -0.056921434
0.90141404 0.71180564 -0.056971505
0.90103823 0.70257735 -0.056671083
0.91562158 0.70495415 -0.057321992
0.92231542 0.70113558 -0.057472203
0.93618709 0.70265555 -0.058073044
0.93727052 0.69452018 -0.057872765
0.94232064 0.68934566 -0.057922833
0.94005424 0.67887419 -0.057522275
0.94501537 0.67367291 -0.057572342
0.94994807 0.66843635 -0.057622414
0.95567256 0.66373408 -0.057722554
0.96549445 0.66180927 -0.058073044
0.97698325 0.66090775 -0.058523674
0.9918201 0.66210735 -0.059174582
1.012547 0.66699421 -0.060175985
1.0208081 0.6634894 -0.060426332
1.03495 0.66368109 -0.061027173
1.0423793 0.65945351 -0.061227456
1.0557272 0.65885991 -0.061778225
1.0393354 0.63980788 -0.060576543
1.0466568 0.63549137 -0.060776822
1.0762455 0.64444512 -0.062278923
1.0560967 0.62361473 -0.060876966
1.0780303 0.62767279 -0.061928432
1.087059 0.62402868 -0.062228855
1.0795666 0.61095417 -0.061577942
1.0388079 0.57951218 -0.059024375
1.0300903 0.56639272 -0.058323395
1.0247642 0.55530494 -0.057822693
1.0307956 0.55041742 -0.057972904
1.0323855 0.54315251 -0.057872765
1.0374724 0.53772652 -0.057972904
1.0416418 0.53180456 -0.058022972
1.0422082 0.52405763 -0.057872765
1.0489846 0.51942497 -0.058073044
1.0485607 0.51122868 -0.057872765
1.0543793 0.50608122 -0.058022972
1.0547553 0.49832276 -0.057872765
1.0596046 0.49268335 -0.057972904
1.0589746 0.48451105 -0.057772625
1.059195 0.47677487 -0.057622414
1.0383545 0.4597584 -0.056320593
1.0301666 0.44859582 -0.055719752
11.722624 5.0167813 -0.63863474
11.731091 4.935463 -0.63743305
11.665166 4.8236995 -0.63222581
11.637177 4.7287226 -0.62912142
11.640928 4.6472321 -0.62776953
11.617153 4.5553002 -0.62496561
11.597351 4.465631 -0.62241209
11.574085 4.3753166 -0.6197083
11.577305 4.2955322 -0.61845654
11.55558 4.2069902 -0.61590296
11.555781 4.1269379 -0.61455107
11.529042 4.0377994 -0.61179721
11.502591 3.9494693 -0.60909343
11.480225 3.863209 -0.60664004
11.492331 3.7889423 -0.60603917
11.480197 3.7070012 -0.60418659
11.373214 3.5955486 -0.59737706
11.345448 3.5103464 -0.59477341
11.325668 3.4282246 -0.59262043
11.314887 3.3493128 -0.59096807
11.297809 3.2689972 -0.58901536
11.284016 3.190105 -0.58726293
11.260056 3.1088469 -0.58500975
11.257703 3.0339806 -0.5839082
11.204629 2.9460554 -0.58020306
11.187667 2.8683207 -0.57840055
11.136259 2.7824333 -0.57484555
11.112364 2.7041326 -0.57274264
11.035448 2.6138012 -0.56793588
11.022081 2.5393138 -0.56643379
10.96046 2.4543958 -0.56247824
10.901143 2.3709671 -0.55867296
10.903759 2.3015594 -0.55807209
10.884408 2.2278035 -0.55636972
10.850848 2.1516523 -0.55396634
10.826574 2.0778799 -0.5520637
10.81457 2.006855 -0.55081195
10.752949 1.9272469 -0.54705673
10.712412 1.8522143 -0.54440302
10.676288 1.7785726 -0.54199964
10.649526 1.7070247 -0.540097
10.641043 1.6387603 -0.53914565
10.633114 1.5708104 -0.53824437
10.648485 1.5063764 -0.53854483
10.634765 1.4379328 -0.53739321
10.61169 1.3685648 -0.53579098
10.573296 1.2977096 -0.53343767
10.521537 1.2258749 -0.53043348
10.503049 1.1584467 -0.52913165
10.448371 1.0875698 -0.52602732
10.437949 1.0217856 -0.52517611
10.417169 0.95525843 -0.52382421
10.392981 0.88876963 -0.52232212
10.389277 0.82427198 -0.52187151
10.340351 0.75657475 -0.51916772
10.287001 0.68924212 -0.51626366
10.278076 0.62532109 -0.51561272
10.285708 0.56246227 -0.51581305
10.287969 0.49929136 -0.51576293
10.189057 0.43184471 -0.51065582
10.187524 0.36917311 -0.51045555
10.125707 0.30473533 -0.50725102
10.006573 0.23970813 -0.50119257
9.9549294 0.17736274 -0.49853888
9.8699446 0.11527599 -0.49423286
9.8335123 0.054509021 -0.49238026
11.810287 -0.026217889 -0.82293928
11.742072 -0.098120853 -0.81820768
11.660453 -0.16900046 -0.81257147
11.633265 -0.24001093 -0.81076235
11.612627 -0.3108806 -0.80944026
11.566631 -0.38068706 -0.80637866
11.514236 -0.44970763 -0.80289954
11.535178 -0.52142894 -0.80456948
11.465012 -0.58877361 -0.79990751
1.4460714 -0.083725356 -0.10018726
1.4385614 -0.092153415 -0.099700183
1.4359788 -0.10083965 -0.099561021
1.4293647 -0.10919551 -0.099143527
1.4286678 -0.11796387 -0.099143527
1.4308982 -0.12699102 -0.09935227
1.4330715 -0.13604997 -0.099561021
1.4361799 -0.14524028 -0.099839345
1.4342698 -0.15394376 -0.099769764
1.4392457 -0.16341399 -0.10018726
1.4411877 -0.1725965 -0.10039601
1.4440606 -0.18193324 -0.10067434
1.4448951 -0.19105107 -0.1008135
1.4931061 -0.2067329 -0.10429262
1.4997083 -0.21703018 -0.10484928
1.5003214 -0.22652516 -0.10498844
1.5028453 -0.23634493 -0.10526677
1.4472158 -0.23672849 -0.10143974
1.5126181 -0.25693575 -0.10617134
1.5061005 -0.26534876 -0.10582343
1.5073884 -0.27512112 -0.10603218
1.5046915 -0.2841804 -0.1059626
1.5420865 -0.30103692 -0.10874589
1.496201 -0.30164021 -0.10561468
1.4992057 -0.3118287 -0.1059626
1.4806808 -0.3174735 -0.1047797
1.4728597 -0.3252646 -0.1043622
1.4649991 -0.33297172 -0.1039447
1.450299 -0.33900818 -0.10304014
1.4462515 -0.34743544 -0.10290097
1.4402179 -0.35534877 -0.10262264
1.4254375 -0.36100078 -0.10171807
1.4309206 -0.37174362 -0.10227473
1.4257205 -0.37974754 -0.10206598
1.4079636 -0.38429251 -0.10095266
1.4151878 -0.39560586 -0.10164849
1.4568568 -0.41688761 -0.10484928
9.7452536 -2.8496335 -0.70736295
9.7380981 -2.9125195 -0.70812833
9.7085962 -2.9687166 -0.70729339
9.6511583 -3.0160341 -0.70444047
9.6115627 -3.0685225 -0.70290965
9.5688429 -3.1197114 -0.70117015
9.5457344 -3.1771057 -0.70089179
9.4797745 -3.2198999 -0.69748223
9.4438152 -3.2724543 -0.69629937
9.4122705 -3.3263507 -0.69546437
9.3794823 -3.3796453 -0.69455981
9.3538866 -3.4354138 -0.6942119
9.3242226 -3.4895971 -0.69358563
9.2970428 -3.5446119 -0.69316816
9.2397795 -3.5878716 -0.69052404
9.2036753 -3.6389968 -0.6894803
9.1709938 -3.6913047 -0.68871486
9.1444788 -3.7459948 -0.68843657
9.101985 -3.7939751 -0.6869753
9.0509806 -3.8380706 -0.68488783
9.0052757 -3.8840535 -0.68321788
8.9556932 -3.9280181 -0.68126959
8.8995342 -3.968677 -0.6788342
8.8741064 -4.0227971 -0.67876458
8.8112011 -4.0596418 -0.67584217
8.7725735 -4.107286 -0.67479843
8.7246847 -4.1503243 -0.67305887
8.6604309 -4.1851182 -0.67006677
8.6283197 -4.2351022 -0.66957974
8.5646715 -4.2692757 -0.66665727
8.515173 -4.3100357 -0.66484815
8.5151854 -4.3758798 -0.66693562
8.4510269 -4.408669 -0.66401315
8.4079475 -4.4520392 -0.66276067
8.3637753 -4.4945745 -0.66143858
8.308013 -4.5305276 -0.65921193
8.2599802 -4.5703125 -0.65761155
8.2117739 -4.6096787 -0.65601116
8.162529 -4.6481328 -0.65434116
8.1105309 -4.6846595 -0.65246248
8.0781898 -4.7323198 -0.65218413
8.0267019 -4.7685518 -0.65037501
7.964819 -4.7981544 -0.64773089
7.912241 -4.8328967 -0.64585215
7.8561454 -4.8650742 -0.64369512
7.8227663 -4.9110661 -0.64341676
7.7680769 -4.9434428 -0.64139885
7.7283769 -4.9850659 -0.64063346
7.7043233 -5.0367589 -0.64119011
7.6391759 -5.0613494 -0.63833725
7.5640788 -5.0786581 -0.6346494
7.5171027 -5.1143141 -0.63332731
7.4798307 -5.1563787 -0.63284022
7.4267859 -5.1873269 -0.6310311
7.3712015 -5.2160897 -0.62901318
7.300139 -5.233325 -0.62567323
7.2517457 -5.2662969 -0.62428159
7.2040272 -5.2994633 -0.62295955
7.1569748 -5.3328385 -0.62170708
7.088285 -5.3496127 -0.61857587
6.9871635 -5.340909 -0.61259174
6.917973 -5.3555927 -0.60939097
6.828454 -5.3536282 -0.60438102
6.7665677 -5.3724771 -0.60180652
6.7373629 -5.4170198 -0.60215443
6.7179236 -5.469594 -0.60340691
6.6927032 -5.5176911 -0.60417229
6.6587219 -5.5586524 -0.60417229
6.5993457 -5.5781555 -0.60187608
6.5558987 -5.6107607 -0.60104108
6.5024996 -5.6345506 -0.59930152
6.4888024 -5.6927624 -0.60124987
6.4365945 -5.7172346 -0.59964943
6.3761716 -5.733943 -0.59728366
6.3482461 -5.7796736 -0.59797949
6.2862544 -5.7941794 -0.59547448
6.2090073 -5.7938523 -0.59150833
6.1472325 -5.8071809 -0.58900332
6.1078796 -5.8413429 -0.58865541
6.0769401 -5.8835673 -0.5891425
6.0157881 -5.8963056 -0.58670712
5.929214 -5.8832235 -0.58176678
5.8944116 -5.9209075 -0.58190596
5.833488 -5.9320707 -0.57947057
5.7573566 -5.9269686 -0.57550436
5.7105198 -5.9513874 -0.57446063
5.6821313 -5.9950023 -0.57529563
5.6431937 -6.0275698 -0.57508689
5.5586877 -6.010818 -0.57021612
5.502861 -6.0241909 -0.56826782
5.4657936 -6.0578418 -0.56826782
5.4119263 -6.0726485 -0.56652826
5.3679719 -6.0982537 -0.56583244
5.3245611 -6.124301 -0.56520617
5.2803831 -6.1492887 -0.56451035
5.2193217 -6.1541853 -0.5620054
5.1660876 -6.1677418 -0.5603354
5.1147914 -6.1831837 -0.55887419
5.0584517 -6.1920481 -0.55685627
4.9934258 -6.1895862 -0.55386424
4.9242706 -6.1810989 -0.55038512
4.8547916 -6.1712136 -0.54683644
4.7984734 -6.1772532 -0.54474896
4.7495503 -6.1923327 -0.54349649
4.7036352 -6.2110209 -0.54259193
4.6212268 -6.1806469 -0.5374428
4.5524054 -6.1671534 -0.53382456
4.4909754 -6.1627235 -0.53104126
4.4420071 -6.1747785 -0.52971917
4.3988371 -6.1945982 -0.52909297
4.3080611 -6.1463227 -0.52269137
4.2657261 -6.1660776 -0.52213472
4.2255611 -6.1888404 -0.52185637
4.1925254 -6.2220964 -0.52248263
4.1907282 -6.3025274 -0.52707505
4.149241 -6.3239527 -0.52672714
4.0995164 -6.3325453 -0.52533549
4.0514536 -6.3432884 -0.52415258
4.0188379 -6.3781562 -0.52498758
3.9817336 -6.4060841 -0.52526593
3.9387014 -6.4244418 -0.52477884
3.8966265 -6.4442201 -0.52443093
3.8498578 -6.4560137 -0.52345675
3.7944944 -6.452858 -0.52129972
3.7383139 -6.4475417 -0.51900351
3.687789 -6.4513054 -0.51747268
3.6422572 -6.4633832 -0.51663768
3.5967164 -6.4751458 -0.51580268
3.565063 -6.5119677 -0.5169856
3.5311978 -6.5451326 -0.51789016
3.4876926 -6.5605111 -0.51740313
3.4492245 -6.5853224 -0.51768142
3.40555 -6.6001573 -0.51719433
3.364084 -6.6191502 -0.51705521
3.3167076 -6.6262865 -0.51601148
3.2693703 -6.6330919 -0.51496774
3.217283 -6.629694 -0.51315856
3.166651 -6.6286077 -0.51155818
3.1229472 -6.6415939 -0.51107109
3.0825553 -6.6615362 -0.5111407
3.0308731 -6.6567211 -0.50933152
2.9712088 -6.6333151 -0.50613075
2.9228084 -6.6340766 -0.50480866
2.8780806 -6.6427326 -0.5041129
2.8306193 -6.6446657 -0.50292999
2.7897954 -6.6619091 -0.50292999
2.7484863 -6.677979 -0.50286037
2.698107 -6.671598 -0.50112081
2.6526992 -6.6769032 -0.50028586
2.6091416 -6.6865487 -0.49979877
2.5641372 -6.6921859 -0.49903336
2.5152981 -6.687252 -0.49750254
2.4711089 -6.6941376 -0.4968763
2.4306676 -6.71105 -0.49701548
2.3834307 -6.7089181 -0.49576297
2.3369684 -6.708344 -0.49464968
2.2935057 -6.7159491 -0.49416259
2.2503541 -6.7242193 -0.49374509
2.2015917 -6.7151513 -0.49207512
2.1600418 -6.7275834 -0.49200553
2.1244066 -6.7587919 -0.49332762
2.0796683 -6.7612114 -0.4925622
2.0341179 -6.7604713 -0.49158806
1.9866836 -6.7527285 -0.49012682
1.9410758 -6.750411 -0.48908308
1.8953013 -6.7468281 -0.48796976
1.853076 -6.7554445 -0.48776102
1.806687 -6.7483788 -0.48643896
1.7763407 -6.8018055 -0.48950058
1.7370346 -6.8222442 -0.49019641
1.6939399 -6.8279324 -0.48984849
1.6522468 -6.8391676 -0.48991808
1.610023 -6.848206 -0.48984849
1.5564065 -6.8073878 -0.48623019
1.508114 -6.7875953 -0.48414272
1.4599127 -6.7664924 -0.48198569
1.4157083 -6.7626295 -0.4810811
1.372996 -6.7653232 -0.48066363
1.3262614 -6.7471919 -0.47878489
1.2807336 -6.7336431 -0.47725409
1.2365052 -6.725677 -0.47614077
1.1957372 -6.736084 -0.4763495
1.156067 -6.7531266 -0.47704533
1.1149337 -6.7620616 -0.4771845
1.0702946 -6.7490711 -0.47579286
1.0267588 -6.741704 -0.47481871
0.98494047 -6.7449155 -0.47460994
0.94243056 -6.742929 -0.47405329
0.89786822 -6.7248535 -0.47238332
0.8539415 -6.7094555 -0.47092208
0.81035757 -6.6947618 -0.46953043
0.7696057 -6.7025809 -0.46973917
0.72900397 -6.7121358 -0.47008708
0.68465203 -6.685719 -0.46793005
0.64055622 -6.6580181 -0.4657034
0.59888548 -6.6528816 -0.46507716
0.55496573 -6.6196504 -0.46250263
0.51263648 -6.6010504 -0.4609718
0.4709838 -6.588151 -0.45985848
0.43081135 -6.5948982 -0.46013683
0.39063278 -6.602397 -0.46048474
0.35111904 -6.6235971 -0.4618068
0.31019005 -6.6196475 -0.4613893
0.26863128 -6.5985012 -0.45978892
0.22682534 -6.56214 -0.45714477
0.18630056 -6.5544338 -0.45651853
0.14625838 -6.5634322 -0.45707518
0.10603178 -6.5671983 -0.45728394
0.065653555 -6.5597453 -0.4567273
0.02528365 -6.5300975 -0.45463982
-0.014771789 -6.5241437 -0.45422232
-0.054662127 -6.5069723 -0.45303941
-0.094241492 -6.4825749 -0.45136943
-0.13321571 -6.4429774 -0.44865572
-0.17298633 -6.451014 -0.44928196
-0.2127623 -6.4558134 -0.44969946
-0.25213718 -6.4484057 -0.44928196
-0.29223901 -6.4586959 -0.45011696
-0.32976797 -6.4159341 -0.44726408
-0.36867145 -6.4058223 -0.44670743
-0.40866649 -6.4143906 -0.44747284
-0.44815564 -6.413753 -0.44761199
-0.48651922 -6.3979511 -0.44670743
-0.52348119 -6.3670073 -0.4447591
-0.56069595 -6.3428073 -0.44329789
-0.59838426 -6.3263369 -0.4423933
-0.63509214 -6.301702 -0.4409321
-0.67268658 -6.2877674 -0.44023627
-0.70979762 -6.2706347 -0.43933168
-0.74542373 -6.2423887 -0.43766171
-0.7811029 -6.2169108 -0.4362005
-0.82171065 -6.230793 -0.43752256
-0.85979021 -6.2246456 -0.43745297
-0.89882243 -6.2251768 -0.43787047
-0.93462634 -6.2037611 -0.43675715
-0.96973765 -6.1791844 -0.43543509
-1.00121 -6.1337352 -0.43265179
-1.0384938 -6.1255097 -0.43251261
-1.0741601 -6.1082149 -0.43174723
-1.1134062 -6.1113234 -0.43244302
-1.1479281 -6.0886908 -0.43132973
-1.180307 -6.0560746 -0.42952058
-1.2156736 -6.0399165 -0.42889434
-1.2567655 -6.0518785 -0.43028599
-1.2913709 -6.0323472 -0.42945099
-1.339525 -6.0749683 -0.43306929
-1.3827333 -6.0929017 -0.434948
-1.4237189 -6.0998468 -0.43606132
-1.4664698 -6.113308 -0.43766171
-1.5037143 -6.1032262 -0.43759212
-1.5401567 -6.0900164 -0.4373138
-1.57424 -6.0678983 -0.43640924
-1.6081098 -6.0455914 -0.43550467
-1.6462237 -6.0394607 -0.435783
-1.6929033 -6.0638366 -0.43828794
-1.7380257 -6.081152 -0.44030586
-1.7716672 -6.0579257 -0.43940127
-1.8119483 -6.0574541 -0.44016668
-1.8414992 -6.0214186 -0.43835753
-1.8858486 -6.0338106 -0.44009709
-1.9185892 -6.0088205 -0.43912295
-1.9653157 -6.0272865 -0.44134957
-2.0025761 -6.0160604 -0.44141915
-2.0397732 -6.0046043 -0.44148874
-2.0667815 -5.963697 -0.43940127
-2.0990148 -5.9386759 -0.43849671
-2.138119 -5.9331927 -0.43905336
-2.1755157 -5.922771 -0.43926212
-2.2142634 -5.9158511 -0.43974918
-2.2519422 -5.9058819 -0.44002751
-2.3007739 -5.9245014 -0.44246289
-2.3403831 -5.918622 -0.44308913
-2.3841035 -5.9226594 -0.44448078
-2.4377916 -5.9503837 -0.44768158
-2.425904 -5.8192921 -0.43891421
-2.4568923 -5.7932758 -0.43807921
-2.4991081 -5.7936645 -0.43926212
-2.5554435 -5.8257275 -0.44288039
-2.6130779 -5.8591385 -0.44663784
-2.668335 -5.8856993 -0.4499082
-2.7002249 -5.8601551 -0.44921237
-2.7276726 -5.8254066 -0.44782075
-2.7762194 -5.8355865 -0.4499082
-2.8345411 -5.86515 -0.4535265
-2.8871763 -5.8816781 -0.45617062
-2.9254363 -5.8683157 -0.45651853
-2.980758 -5.8885293 -0.45951056
-3.0241275 -5.8843255 -0.46062389
-3.0800138 -5.9036922 -0.46361592
-3.1189806 -5.8899722 -0.46403342
-3.1616721 -5.8830266 -0.46500757
-3.2091713 -5.8845363 -0.46667755
-3.2587392 -5.8891759 -0.46862587
-3.3509622 -5.969111 -0.47662783
-3.3909802 -5.9545059 -0.47711492
-3.4339378 -5.9448171 -0.47801948
-3.4859796 -5.9503198 -0.48017654
-3.522934 -5.9296761 -0.48024613
-3.5587368 -5.9070935 -0.48017654
-3.6115532 -5.9123898 -0.48240316
-3.6503885 -5.8943591 -0.48275107
-3.6912603 -5.8794541 -0.48337734
-3.7754636 -5.9324422 -0.48963973
-3.805305 -5.8991051 -0.48880476
-3.8305132 -5.8589444 -0.48741311
-3.875757 -5.8494687 -0.48859599
-3.9365966 -5.8628488 -0.4917272
-3.9753015 -5.8427081 -0.49207512
-4.0116429 -5.8190274 -0.4921447
-4.0626941 -5.8163853 -0.49402344
-4.1034918 -5.798677 -0.49464968
-4.1616602 -5.8050113 -0.49736339
-4.2001314 -5.7834024 -0.4977113
-4.2355385 -5.7575221 -0.4977113
-4.2707863 -5.7314248 -0.4977113
-4.3148866 -5.7170563 -0.49875504
-4.3607879 -5.70474 -0.50000751
-4.3993731 -5.6826081 -0.50042498
-4.4870863 -5.7230263 -0.50640911
-4.5134339 -5.6844478 -0.50543493
-4.5732293 -5.687747 -0.50821823
-4.6099324 -5.6619 -0.50842696
-4.6293578 -5.6150327 -0.50675702
-4.6694765 -5.5934148 -0.50738323
-4.6992016 -5.5593247 -0.50689614
-4.7306304 -5.5273542 -0.50661784
-4.7814403 -5.5178266 -0.50842696
-4.8204699 -5.4943838 -0.50898361
-4.8282576 -5.4356132 -0.50626993
-4.8715234 -5.4170122 -0.50731367
-4.9248157 -5.4091501 -0.50940114
-4.9653497 -5.3868995 -0.51016653
-5.0194063 -5.3789425 -0.51232362
-5.0495763 -5.3451424 -0.51204526
-5.0898619 -5.3219891 -0.51281065
-5.1453185 -5.314311 -0.51510686
-5.1834149 -5.2883401 -0.51566356
-5.2312231 -5.2720156 -0.51719433
-5.2620592 -5.2384105 -0.51705521
-5.2720547 -5.1843395 -0.51489812
-5.3037658 -5.1518931 -0.51489812
-5.3475132 -5.1309953 -0.51608104
-5.3897557 -5.1083817 -0.51712477
-5.4290085 -5.0827146 -0.51789016
-5.4666843 -5.0554037 -0.51851642
-5.5358982 -5.0567541 -0.52213472
-5.5757089 -5.0307117 -0.52296966
-5.5848756 -4.9771557 -0.52095181
-5.6452599 -4.9691615 -0.52373511
-5.692205 -4.9488297 -0.52526593
-5.7421398 -4.9307089 -0.52707505
-5.773807 -4.8966732 -0.52721423
-5.8045087 -4.8617945 -0.52728379
-5.848835 -4.8381691 -0.52860588
-5.8845911 -4.80724 -0.52916253
-5.9357152 -4.7885823 -0.53111082
-5.9688864 -4.7551799 -0.53145874
-5.9987354 -4.7190828 -0.53152829
-6.0299416 -4.6840224 -0.53173709
-6.0506535 -4.6408634 -0.53104126
-6.0583396 -4.5879893 -0.52923208
-6.0616117 -4.5322094 -0.52707505
-6.094924 -4.4990788 -0.52756214
-6.1232214 -4.462184 -0.5276317
-6.1739688 -4.4414244 -0.52964962
-6.2360773 -4.428297 -0.53264165
-6.2802849 -4.4019752 -0.53410286
-6.3063564 -4.3627892 -0.5340333
-6.3659596 -4.3465152 -0.5368166
-6.3933368 -4.3079305 -0.53688616
-6.4611821 -4.2962418 -0.54036528
-6.4999323 -4.2647257 -0.54140902
-6.538538 -4.2328954 -0.54245275
-6.6677909 -4.2587523 -0.55101138
-6.6997046 -4.2214823 -0.55149847
-6.7305641 -4.1834545 -0.55191594
-6.7799187 -4.1566792 -0.55386424
-6.8368793 -4.1341014 -0.5564388
-6.8903899 -4.1089363 -0.55873501
-6.9189115 -4.0686035 -0.55901337
-6.9394312 -4.0235705 -0.55866545
-6.9657207 -3.9819057 -0.55880463
-7.0065336 -3.9483967 -0.56012666
-7.0349889 -3.9077532 -0.56047457
-7.0483341 -3.8587644 -0.55963957
-7.1026053 -3.8320251 -0.56207496
-7.1576934 -3.8052328 -0.56457996
-7.1870928 -3.764483 -0.56506699
-7.2162614 -3.7235153 -0.56555408
-7.2514224 -3.6854959 -0.56652826
-7.2837114 -3.6458452 -0.56729364
-7.3095245 -3.602849 -0.567572
-7.3557239 -3.5696921 -0.56945074
-7.3801889 -3.5257814 -0.56965947
-7.4025865 -3.4808557 -0.56972903
-7.4419117 -3.443749 -0.57112068
-7.4692574 -3.4009156 -0.57160777
-7.5182061 -3.3676653 -0.5737648
-7.5697651 -3.3351488 -0.57613063
-7.6120543 -3.2981589 -0.57780057
-7.6431613 -3.2560828 -0.57863557
-7.6657572 -3.2102802 -0.57884431
-7.6834655 -3.1624241 -0.57870519
-7.7054992 -3.1163418 -0.57891393
-7.7402358 -3.0752661 -0.58009678
-7.7617474 -3.0288033 -0.58030558
-7.8053365 -2.9907601 -0.58218426
-7.8319435 -2.9459727 -0.58281052
-7.8554869 -2.8999348 -0.58322799
-7.9022083 -2.8622136 -0.58538508
-7.933722 -2.8186831 -0.58642882
-7.9819541 -2.7807825 -0.58872503
-8.0243549 -2.7404609 -0.59060377
-8.0410185 -2.6911728 -0.59060377
-8.0611725 -2.6430268 -0.59088206
-8.119978 -2.6072416 -0.59401327
-8.166276 -2.5669444 -0.59623992
-8.2257318 -2.5302835 -0.59944069
-8.2516098 -2.4829264 -0.60020614
-8.2858295 -2.4378815 -0.60159779
-8.3303518 -2.3955438 -0.60375482
-8.3717842 -2.3519413 -0.60570312
-8.4178047 -2.3092401 -0.60799932
-8.4539785 -2.2634816 -0.60959971
-8.4754295 -2.2135837 -0.61015642
-8.5255871 -2.1708946 -0.61280054
-8.5668249 -2.1255105 -0.61481839
-8.5787354 -2.0726709 -0.61474884
-8.5912924 -2.0199938 -0.61474884
-8.628809 -1.9730239 -0.61655796
-8.6699667 -1.9265351 -0.61864543
-8.6835747 -1.873722 -0.61878461
-8.7115068 -1.8238816 -0.61996752
-8.7499075 -1.7759526 -0.62191582
-8.7811947 -1.7262732 -0.62337703
-8.8229818 -1.6783279 -0.62560368
-8.868434 -1.6306566 -0.62810862
-8.9136314 -1.5824903 -0.63061363
-8.9615211 -1.5343359 -0.63332731
-8.9727354 -1.4796449 -0.63346648
-8.9895277 -1.4258121 -0.63402313
-9.0326233 -1.3758867 -0.63645852
-9.0803795 -1.3262072 -0.63924181
-9.1160088 -1.274335 -0.64119011
-9.1681519 -1.2243214 -0.64432132
-9.2051792 -1.1718251 -0.6464088
-9.2310123 -1.1176004 -0.64773089
-9.2535524 -1.0627612 -0.64884418
-9.2906437 -1.0093045 -0.65100121
-9.322464 -0.95492393 -0.65281039
-9.3708448 -0.90181655 -0.65580243
-9.4288607 -0.84904647 -0.65949029
-9.4607334 -0.7934289 -0.66136903
-9.4723854 -0.73590529 -0.66185606
-9.514533 -0.68047678 -0.66450024
-9.560338 -0.62481922 -0.66742265
-9.5958586 -0.56803483 -0.6696493
-9.6031485 -0.50935662 -0.66992766
-9.6100788 -0.4506104 -0.67020595
-9.6246233 -0.3921237 -0.67104095
-9.6447945 -0.33368284 -0.67229342
-9.6905355 -0.27574861 -0.67535508
-9.6900511 -0.21623877 -0.6752159
-9.6991739 -0.15690728 -0.67577255
-9.7288828 -0.09768369 -0.67779046
-9.7692022 -0.038144983 -0.68057376
-9.7642641 0.021787629 -0.68022585
-9.7749195 0.081790708 -0.68099123
-9.7881975 0.14196856 -0.68196541
-9.8080873 0.20245612 -0.68342662
-9.8276024 0.26319304 -0.68488783
-9.8766518 0.32515985 -0.68843657
-9.8993912 0.38672766 -0.69017613
-9.9127769 0.44818175 -0.69128942
-10.006477 0.51395428 -0.69803894
-10.003136 0.57534319 -0.69803894
-10.035257 0.63899022 -0.70054388
-10.065979 0.70298368 -0.70297927
-10.090322 0.76692474 -0.70499712
-10.122213 0.83184415 -0.70757169
-10.166604 0.89832425 -0.71105081
-10.199634 0.96434814 -0.71376455
-10.247122 1.0323099 -0.71752197
-10.210837 1.0919851 -0.71543449
-10.28721 1.1640337 -0.72127944
-10.316525 1.2315055 -0.72385395
-10.38004 1.3037299 -0.72886389
-10.384703 1.3690903 -0.72976846
-10.350413 1.4292376 -0.72795933
-10.397728 1.5008396 -0.73192555
-10.428768 1.5706997 -0.7347784
-10.4485 1.6392965 -0.73686588
-10.511102 1.7152613 -0.74201494
-10.555459 1.7890561 -0.7459116
-10.598322 1.8632865 -0.74973863
-10.602392 1.9311407 -0.75085193
-10.607008 1.9992996 -0.75203484
-10.621959 2.0696859 -0.75398314
-10.621774 2.1373796 -0.7548877
-10.685622 2.2185292 -0.76038474
-10.669858 2.2836359 -0.76024556
-10.672206 2.3527117 -0.76142842
-10.701347 2.4280813 -0.76455963
-10.72025 2.5016305 -0.76699501
-10.730891 2.5736415 -0.76887375
-10.761392 2.650887 -0.7722137
-10.90934 2.7584305 -0.78404272
-10.910556 2.8300748 -0.78536475
-10.952758 2.9128602 -0.78967887
-10.954891 2.9855175 -0.79114014
-10.96231 3.0599191 -0.79301882
-11.003757 3.1443896 -0.7974025
-11.007237 3.2185662 -0.7990725
-11.012131 3.2934754 -0.80088162
-11.092838 3.391897 -0.8082574
-11.182271 3.4944069 -0.81632894
-11.208136 3.5781209 -0.81980807
-11.227702 3.6604285 -0.82286966
-11.316724 3.766418 -0.83108038
-11.333073 3.8492577 -0.83400285
-11.378994 3.9428895 -0.83915192
-11.454289 4.0478635 -0.8465277
-11.485548 4.1383557 -0.85070264
-11.486159 4.21838 -0.85265094
-11.578718 4.3331771 -0.86148787
-11.604113 4.4240398 -0.86538452
-11.649284 4.5233188 -0.87081194
-11.65007 4.606081 -0.87296897
-11.66416 4.6946092 -0.87616974
-11.718217 4.8001189 -0.88243216
-11.706961 4.8796058 -0.88382381
-11.78793 4.9984627 -0.89224327
-11.996123 5.1737986 -0.91040426
-12.032671 5.2773561 -0.91562295
-12.160419 5.4225845 -0.92786944
-12.198698 5.5296307 -0.93336648
-12.2932 5.6636448 -0.94324714
-12.329593 5.7723799 -0.94874418
-12.482224 5.9374747 -0.96328688
-12.508433 6.0443316 -0.96815765
-12.500664 6.1354713 -0.97045386
-12.547601 6.2543316 -0.97706419
-12.683446 6.4194927 -0.99070233
-12.73521 6.5441542 -0.99786931
-12.743464 6.6475458 -1.0016963
-12.781782 6.7676215 -1.0079588
-12.79538 6.8756676 -1.0123425
-12.828273 6.9951177 -1.0183265
-12.861926 7.1161947 -1.0244498
-12.92937 7.2574763 -1.0333563
-12.939211 7.3677688 -1.03774
-12.923131 7.4639854 -1.0401058
-12.922711 7.5698614 -1.0437937
-12.94978 7.6928244 -1.0497777
-12.947625 7.799418 -1.0534656
-12.930174 7.8974338 -1.0559705
-12.897588 7.9866009 -1.0572927
-12.875378 8.0825605 -1.0595193
-12.902131 8.2101421 -1.0658513
-12.969719 8.3653898 -1.0756624
-12.964906 8.475378 -1.079559
-13.052375 8.6473255 -1.0912489
-13.086865 8.7861891 -1.0986246
-13.120964 8.9263592 -1.1060699
-13.162046 9.072938 -1.114211
-13.158471 9.1900835 -1.1186643
-13.142553 9.2994576 -1.1221434
-13.067408 9.3671389 -1.1206126
-13.156601 9.5538177 -1.1332766
-13.116215 9.6479597 -1.134877
-13.078368 9.7443495 -1.1367557
-13.046999 9.8460455 -1.1392606
-13.037066 9.9646826 -1.143714
-13.006444 10.068303 -1.1464276
-12.980536 10.17623 -1.1496284
-12.953792 10.284218 -1.1528293
-12.90133 10.372256 -1.1538033
-12.877674 10.483973 -1.1574217
-12.838505 10.58373 -1.1597179
-12.818508 10.700021 -1.1638232
-12.831853 10.84544 -1.1710598
-12.834796 10.983641 -1.1774614
-12.819938 11.107913 -1.1823322
-12.811535 11.238992 -1.1878988
-12.766201 11.338589 -1.1901253
-12.693421 11.414039 -1.189847
-12.620195 11.489023 -1.1895688
-12.597145 11.610186 -1.1940916
-12.53661 11.697471 -1.1951354
-12.402231 11.715263 -1.1891512
-12.301274 11.763564 -1.1863679
-12.237464 11.847149 -1.1872029
-12.156704 11.914332 -1.1864375
-12.076996 11.982377 -1.1858113
-12.0131 12.066152 -1.1867855
-11.948631 12.149592 -1.1877595
-11.890541 12.239851 -1.1894295
-11.804853 12.301784 -1.1883858
-11.736698 12.381949 -1.1891512
-11.635956 12.427516 -1.1866462
-11.550678 12.489159 -1.1857417
-11.436148 12.518554 -1.1818451
-11.312338 12.536647 -1.1769743
-11.194711 12.560396 -1.1727297
-11.087109 12.594406 -1.169529
-10.935654 12.577134 -1.1616662
-10.869975 12.657619 -1.1629187
-10.785651 12.716471 -1.1622229
-10.713829 12.790057 -1.1629187
-10.640871 12.862473 -1.1635449
-10.491687 12.841774 -1.1558213
-10.385131 12.871749 -1.1527597
-10.241303 12.854088 -1.1455231
-10.1425 12.891598 -1.1432965
-10.06382 12.954376 -1.143366
-9.9720001 13.000052 -1.1419743
-9.8926468 13.06179 -1.1420439
-9.8069391 13.115054 -1.1414177
-9.7114697 13.154918 -1.1396781
-9.6088285 13.18443 -1.1371036
-9.5271673 13.242332 -1.1370341
-9.4497776 13.306232 -1.1375211
-9.3748255 13.373768 -1.1383561
-9.3050766 13.449085 -1.1398869
-9.2482576 13.543823 -1.1430877
-9.1688843 13.606105 -1.1435748
-9.0841208 13.660446 -1.1434356
-9.0160027 13.740116 -1.1454535
-8.9450808 13.816113 -1.1471931
-8.8912868 13.919497 -1.1512288
-8.8275175 14.008393 -1.1540817
-8.7524576 14.080086 -1.155543
-8.6747646 14.147982 -1.1567259
-8.6161842 14.247891 -1.1605529
-8.5449505 14.327908 -1.1627795
-8.4700251 14.402425 -1.1645887
-8.419528 14.519711 -1.1698769
-8.35355 14.611801 -1.1731473
-8.3156576 14.754901 -1.180523
-8.2375631 14.82832 -1.1823322
-8.1095314 14.811212 -1.1769743
-1.380875 2.5603013 -0.20205584
-1.3529621 2.5458252 -0.20024669
-1.3178726 2.5169654 -0.19732423
-1.2982864 2.5170262 -0.196698
-1.2769411 2.5133843 -0.19579342
-1.2753396 2.548825 -0.19795048
-7.7258978 15.67277 -1.2179583
-7.6618209 15.78629 -1.2231075
-7.5648141 15.833005 -1.2231075
-7.5214419 15.99377 -1.2319443
-7.4822459 16.167267 -1.2417555
-7.4176345 16.289133 -1.2476004
-7.3281517 16.358011 -1.2494096
-7.2505732 16.4547 -1.2533758
-7.2609382 16.756084 -1.2729284
-7.1826239 16.858139 -1.277312
-7.1014032 16.955259 -1.2813479
-7.0181212 17.04925 -1.2851748
-6.92834 17.128983 -1.2879581
-6.8732123 17.297251 -1.2974213
-6.8547263 17.563988 -1.3142604
-6.8289375 17.819963 -1.3302642
-6.7816453 18.026791 -1.3425803
-6.5883212 17.844402 -1.3259501
-6.5171037 17.990477 -1.333813
-6.4142761 18.051746 -1.3354133
-6.3122549 18.116199 -1.3372921
-6.2135544 18.191406 -1.3400058
-6.2598405 18.701231 -1.3747274
-6.1574087 18.777205 -1.3775107
-6.133287 19.098619 -1.3983158
-6.0387249 19.20822 -1.403604
-5.9594765 19.370768 -1.412789
-5.8545957 19.453775 -1.4161985
-5.7562428 19.561108 -1.4214171
-5.6540346 19.658375 -1.42594
-5.5276394 19.672529 -1.4244788
-5.4324336 19.799393 -1.4312283
-5.4308496 20.280434 -1.4635841
-5.4043989 20.688829 -1.4906516
-4.8491559 19.040493 -1.3696479
-4.6603861 18.780394 -1.3488427
-4.0496478 16.758778 -1.2017456
-3.9465134 16.782339 -1.201676
-3.8399057 16.79068 -1.2005627
-3.7456827 16.853851 -1.2034156
-4.2309194 19.603922 -1.3980374
-4.0847859 19.506487 -1.3892701
-3.7629457 18.535959 -1.3184352
-3.6083307 18.351187 -1.3036838
-3.4904401 18.345543 -1.3017355
-3.3751013 18.351898 -1.3006917
-3.4325202 19.32991 -1.3685346
-3.3089654 19.322094 -1.3665167
-3.184824 19.308569 -1.3641509
-3.0553451 19.258781 -1.3592801
-2.9243429 19.193338 -1.3533655
-2.8023369 19.182295 -1.3513477
-2.6733916 19.119104 -1.3457116
-2.5519331 19.104494 -1.3435545
-2.437561 19.142555 -1.3451549
-2.2930655 18.934324 -1.3294989
-2.17206 18.906414 -1.3265764
-2.0478182 18.844015 -1.3212881
-1.9198467 18.736149 -1.3128687
-1.7890688 18.583731 -1.3013875
-1.6728586 18.570515 -1.2997175
-0.77448869 9.2350769 -0.64557379
-0.71316856 9.1799812 -0.64139885
-0.65497577 9.1583128 -0.63958973
-0.59863889 9.1601677 -0.63945055
-0.54147762 9.1477356 -0.63833725
-0.48507342 9.1459055 -0.63798934
-0.42847818 9.1387444 -0.63729352
-0.37292463 9.1541595 -0.63819808
-0.31844217 9.2051277 -0.64160764
-0.26280779 9.2368231 -0.64369512
-0.20472047 9.1754303 -0.63931137
-0.14415601 8.9141855 -0.62101126
-0.089104012 8.8799887 -0.61857587
-0.034928657 8.9591761 -0.62407285
0.020001268 8.93927 -0.6226812
0.075588234 9.0277605 -0.62887406
0.13288112 9.1587925 -0.6380589
0.19030723 9.2176476 -0.64223385
0.24454428 9.1295481 -0.63618022
0.29996786 9.1099291 -0.63492769
0.34672374 8.8736649 -0.61857587
0.40188482 8.8873158 -0.61968917
0.45814645 8.9185553 -0.62205499
0.52201593 9.0749254 -0.63318813
0.58680803 9.2149124 -0.64320803
0.64535224 9.2399988 -0.64522588
0.70316875 9.2507849 -0.64626962
0.76522404 9.3109217 -0.65079248
0.82339323 9.317975 -0.65162748
0.87886274 9.2948713 -0.65037501
0.95326602 9.4620085 -0.66248232
1.0159707 9.4996262 -0.66554397
1.0965484 9.6904726 -0.67939085
1.1721783 9.8192692 -0.6889236
1.2945348 10.306794 -0.72371483
1.3770404 10.445033 -0.73401302
1.5163938 10.981878 -0.77242243
1.6383092 11.350523 -0.7990725
1.7613879 11.695382 -0.82412213
1.9312626 12.310165 -0.86830693
2.1935441 13.44313 -0.94923127
2.4729609 14.591985 -1.0314776
2.5935307 14.75339 -1.0440024
2.7100971 14.880489 -1.0541614
2.9057176 15.417463 -1.0934755
2.9996905 15.396407 -1.0932667
3.0970557 15.392382 -1.0943105
3.1835365 15.334993 -1.0915967
3.2625425 15.244936 -1.0865868
