# .PCD v0.7 - Point Cloud Data file format
VERSION 0.7
FIELDS x y z
SIZE 4 4 4
TYPE F F F
COUNT 1 1 1
WIDTH 1438
HEIGHT 1
VIEWPOINT 0 0 0 1 0 0 0
POINTS 1438
DATA ascii
-2.0848389 -1.5743353 -0.56886768
-2.1477067 -1.6012316 -0.58340013
-2.1606376 -1.5903405 -0.58425498
-2.163244 -1.5718832 -0.58233154
-2.1831658 -1.5659846 -0.58510983
-2.1951246 -1.5542537 -0.58575094
-2.2062213 -1.5418749 -0.58617836
-2.2172487 -1.5294185 -0.58660579
-2.2491984 -1.5311829 -0.59258974
-2.2374713 -1.5031843 -0.58703321
-2.257236 -1.4964468 -0.5898115
-2.2622886 -1.4798937 -0.58874291
-2.2688644 -1.4643949 -0.5881018
-2.2811027 -1.4525453 -0.58895665
-2.2866638 -1.4364421 -0.5881018
-2.2829807 -1.414663 -0.58489609
-2.2941182 -1.4021572 -0.58553725
-2.3645813 -1.4253894 -0.60135198
-2.3514533 -1.3978697 -0.59579545
-2.3591435 -1.3829211 -0.59558171
-2.3828068 -1.3772223 -0.59942853
-2.3971529 -1.3659626 -0.60092455
-2.412302 -1.3550574 -0.60263425
-2.4103167 -1.3345494 -0.6000697
-2.4467549 -1.3351836 -0.60712218
-2.4721067 -1.3294029 -0.61139643
-2.495753 -1.3224459 -0.61524326
-2.4934299 -1.30168 -0.61267871
-2.5083191 -1.2899318 -0.61438841
-2.5222864 -1.277608 -0.61588442
-2.5370708 -1.2655976 -0.61759412
-2.5588162 -1.2569009 -0.62101352
-2.5664802 -1.2411767 -0.62101352
-2.5828671 -1.2296067 -0.62315065
-2.5983241 -1.2174675 -0.62507403
-2.5942137 -1.1961814 -0.6222958
-2.5739288 -1.1677234 -0.61567068
-2.5783694 -1.1507131 -0.61502957
-2.6014812 -1.1419421 -0.6188764
-2.607542 -1.1255709 -0.61866266
-2.5811298 -1.0954219 -0.61075532
-2.634681 -1.0991324 -0.62186837
-2.6666818 -1.0933275 -0.62785232
-2.6615613 -1.0721966 -0.62507403
-2.6844392 -1.0623193 -0.62892085
-2.7245941 -1.058929 -0.63682824
-2.7438171 -1.0470701 -0.63982022
-2.7447016 -1.0281574 -0.63853794
-2.7564597 -1.0133204 -0.63982022
-2.75895 -0.99506152 -0.63896537
-2.7576363 -0.97550631 -0.63725567
-2.7746446 -0.96241134 -0.63982022
-2.7962196 -0.95071757 -0.6434533
-2.7908797 -0.92983466 -0.64088875
-2.7668164 -0.9029873 -0.63404995
-2.7713745 -0.88569582 -0.63383627
-2.7730279 -0.86750686 -0.63298142
-2.8025839 -0.85791534 -0.63853794
-2.8106024 -0.84154409 -0.63917905
-2.8354006 -0.83005065 -0.64366704
-2.8432577 -0.81344408 -0.64430815
-2.8510177 -0.7967723 -0.64494932
-2.8200424 -0.76948404 -0.63682824
-2.8247106 -0.75216609 -0.63682824
-2.8217089 -0.73285365 -0.63511854
-2.8185768 -0.71360642 -0.63340884
-2.8399739 -0.7005133 -0.63725567
-2.8318708 -0.68010604 -0.63447738
-2.8369417 -0.66293973 -0.63469112
-2.8638177 -0.65071988 -0.63982022
-2.8305552 -0.62491399 -0.6314854
-2.8410223 -0.60896897 -0.63298142
-2.8982635 -0.60267425 -0.64494932
-2.8789246 -0.58024234 -0.63982022
-2.8747606 -0.56106794 -0.63811052
-2.8810287 -0.54396248 -0.63875163
-2.9121809 -0.53136575 -0.64494932
-2.9259694 -0.5153532 -0.64730012
-2.9310024 -0.49771759 -0.64772755
-2.9166481 -0.47688282 -0.64388072
-2.9446094 -0.46292758 -0.64943725
-2.9406331 -0.44382912 -0.64794129
-2.918164 -0.42213562 -0.64238477
-2.9226348 -0.40449044 -0.64281219
-2.9618626 -0.39142114 -0.65093327
-2.9545164 -0.37201765 -0.64879614
-2.9567435 -0.35388207 -0.64879614
-2.9559472 -0.33540216 -0.64815497
-2.9890313 -0.32059887 -0.65499377
-2.9744194 -0.30057925 -0.65136069
-2.9674551 -0.28149077 -0.64943725
-2.9876146 -0.26492083 -0.65349782
-2.9833426 -0.24610107 -0.65221554
-3.0013552 -0.22905821 -0.65584862
-2.9871125 -0.2095409 -0.65242922
-2.9698191 -0.19001928 -0.64836872
-2.9670279 -0.17156684 -0.64751387
-2.9680247 -0.15335827 -0.64751387
-2.9435372 -0.13398357 -0.64195734
-2.9745638 -0.11711769 -0.6485824
-2.9888957 -0.099321008 -0.65157437
-3.0255804 -0.081965983 -0.65948176
-2.9889126 -0.062614508 -0.65136069
-3.0126832 -0.044625863 -0.65648979
-3.0158312 -0.026165586 -0.6571309
-2.9836972 -0.0075716823 -0.65007842
-3.0188558 0.010855199 -0.65777206
-3.0265472 0.029452767 -0.65948176
-3.0438914 0.048298098 -0.66332859
-3.0552578 0.067229621 -0.66589314
-3.0538113 0.085947789 -0.6656794
-3.0542026 0.10471728 -0.66589314
-3.0281239 0.1224347 -0.66033661
-3.0146296 0.14042434 -0.65755832
-2.9961512 0.15799682 -0.6537115
-3.0263324 0.17820904 -0.6605503
-3.0398049 0.197723 -0.66375601
-2.9985821 0.21353452 -0.65499377
-3.0098774 0.23290659 -0.65777206
-3.0327299 0.25339895 -0.66311485
-3.0320909 0.27208978 -0.66332859
-3.0196671 0.28966531 -0.66097772
-3.0479608 0.31125861 -0.66760284
-3.0372524 0.32900962 -0.6656794
-2.9585011 0.33887354 -0.64879614
-2.9709144 0.35877392 -0.6520018
-3.0132372 0.3826482 -0.66183257
-2.998244 0.39945531 -0.65905434
-3.0063798 0.41932693 -0.66140515
-3.0066502 0.4381879 -0.66204631
-2.9884517 0.45428228 -0.65862691
-2.9663098 0.46955982 -0.65435266
-2.9893997 0.49203014 -0.66012287
-3.0123246 0.51480138 -0.66589314
-3.0158427 0.53446686 -0.66738909
-3.0125065 0.55296171 -0.66738909
-3.0167351 0.57289219 -0.66909879
-3.0150805 0.59176761 -0.66952622
-3.0056479 0.60909367 -0.66824394
-3.0219355 0.63171822 -0.67273194
-3.0189574 0.65045416 -0.67294562
-3.0225394 0.67065716 -0.67465532
-3.0345588 0.69288409 -0.67828846
-2.9969625 0.70368201 -0.67080849
-3.0058839 0.72526294 -0.67380047
-3.0051703 0.74463201 -0.67465532
-3.0024385 0.76353854 -0.67508274
-2.9967515 0.78170043 -0.67486906
-2.977742 0.79629076 -0.67166334
-3.0161424 0.82641309 -0.68149412
-2.9780929 0.83567345 -0.67401421
-2.9531906 0.84827131 -0.66952622
-2.9732375 0.87380791 -0.67529649
-2.9584639 0.88922477 -0.67315936
-2.9473488 0.90564036 -0.67187709
-2.9501255 0.9263401 -0.67380047
-2.9257803 0.93846071 -0.66952622
-2.9496768 0.96611953 -0.67636502
-2.9399869 0.98296195 -0.67551017
-2.9357495 1.0016134 -0.67593759
-2.9240124 1.0176824 -0.67465532
-2.9250786 1.0382173 -0.67636502
-2.8901744 1.0458468 -0.66973996
-2.882786 1.063223 -0.66952622
-2.8917551 1.0867305 -0.67315936
-2.8941565 1.1079443 -0.67529649
-2.9291749 1.1419961 -0.68512726
-2.9066756 1.1538236 -0.68149412
-2.9067879 1.1745634 -0.68320382
-2.8688052 1.1797507 -0.67593759
-2.8867476 1.2078843 -0.68192154
-2.8693936 1.2213677 -0.67957073
-2.8717077 1.2432182 -0.68192154
-2.866708 1.2619956 -0.68256271
-2.8491013 1.2751737 -0.68021184
-2.8634553 1.3027406 -0.68555468
-2.8607287 1.3227447 -0.68683696
-2.8534429 1.3406882 -0.68705064
-2.8240023 1.3480754 -0.68192154
-2.8394129 1.3768816 -0.68769181
-2.8519461 1.4046329 -0.69282091
-2.841526 1.421232 -0.69239348
-2.8292677 1.4368718 -0.69153863
-2.8125827 1.4501772 -0.68961519
-2.8088253 1.4701246 -0.69089746
-2.7937124 1.4841247 -0.68940151
-2.7742336 1.4956775 -0.68683696
-2.7590041 1.509391 -0.68534094
-2.7676294 1.536244 -0.68982893
-2.7632589 1.5560721 -0.69111121
-2.7570527 1.5749353 -0.69196606
-2.7608628 1.5996561 -0.69538546
-2.7484684 1.615082 -0.69474429
-2.7317924 1.6279165 -0.69303459
-2.728442 1.6486882 -0.69474429
-2.7232728 1.6684597 -0.69602656
-2.7370527 1.7000813 -0.70222425
-2.7488925 1.7308935 -0.70799446
-2.7250431 1.7393208 -0.70457506
-2.6724832 1.7289546 -0.69367576
-2.6642754 1.7469264 -0.69431686
-2.6746638 1.7772943 -0.69987339
-2.6296706 1.7707621 -0.69089746
-2.6615298 1.8160375 -0.70222425
-2.6294415 1.8178942 -0.69666773
-2.6222389 1.8367954 -0.69773626
-2.6196837 1.8590679 -0.70008713
-2.6272666 1.8887889 -0.70521623
-2.622736 1.9100486 -0.70713961
-2.6141117 1.9284246 -0.70799446
-2.5990992 1.9420898 -0.70713961
-2.5941455 1.9633054 -0.70906305
-2.6076396 1.9987929 -0.71611553
-2.5976415 2.0165522 -0.7167567
-2.5529594 2.0071006 -0.70778078
-2.5390673 2.0215111 -0.70735335
-2.513685 2.0266314 -0.70372021
-2.5261786 2.0623996 -0.71077275
-2.52176 2.0847063 -0.71312356
-2.5141656 2.1045287 -0.71461958
-2.5116401 2.1287565 -0.71761155
-2.4829602 2.1307704 -0.71312356
-2.4816401 2.156215 -0.71654296
-2.4852359 2.1862385 -0.72145838
-2.4593711 2.1904035 -0.71782523
-2.4582202 2.2165716 -0.72145838
-2.4366357 2.22437 -0.71910751
-2.4437504 2.2585032 -0.7253052
-2.4248521 2.268784 -0.72380918
-2.4144325 2.2869782 -0.72487777
-2.4067013 2.3078341 -0.72680116
-2.4023104 2.3320823 -0.72979313
-2.3775024 2.3365097 -0.72658747
-2.3464973 2.3345208 -0.72145838
-2.3376362 2.3544195 -0.72316808
-2.3279347 2.3735998 -0.72466403
-2.3174059 2.3920484 -0.72594631
-2.3006585 2.4041054 -0.7253052
-2.2757957 2.4075301 -0.72209948
-2.2649815 2.4257321 -0.72338176
-2.2222321 2.4094291 -0.71440583
-2.225173 2.4425137 -0.7201761
-2.2094905 2.4553952 -0.71996236
-2.1911373 2.4652557 -0.71889383
-2.177259 2.4801221 -0.71932125
-2.16136 2.4926968 -0.71910751
-2.1485667 2.5088792 -0.71996236
-2.1293459 2.5175409 -0.71868008
-2.1163642 2.5335574 -0.71953493
-2.0902081 2.5336869 -0.71590185
-2.0925205 2.5684247 -0.72209948
-2.0767217 2.5812156 -0.72209948
-2.0663149 2.6007924 -0.72402292
-2.028605 2.585757 -0.71632928
-2.0073154 2.5912061 -0.71440583
-1.9741621 2.5809751 -0.7082082
-1.9512217 2.5836864 -0.70564365
-1.9505183 2.6159694 -0.71120018
-1.929796 2.6215954 -0.70949048
-1.8602512 2.5599027 -0.68961519
-1.8883663 2.632381 -0.70607108
-1.8145796 2.5626092 -0.68427241
-1.8200939 2.6041179 -0.69239348
-1.804081 2.6152365 -0.69239348
-1.7962492 2.6383681 -0.69559914
-1.7947408 2.6712306 -0.7013694
-1.7745367 2.6764941 -0.69987339
-1.7484512 2.6726191 -0.69602656
-1.736789 2.6906829 -0.69795001
-1.7197214 2.7004652 -0.69773626
-1.6958418 2.6993868 -0.69474429
-1.6895417 2.726347 -0.69901854
-1.6656462 2.7249947 -0.69602656
-1.6367861 2.7150869 -0.69089746
-1.6290846 2.7401919 -0.69474429
-1.6325037 2.7846851 -0.70350653
-1.6163645 2.7963409 -0.70393395
-1.583693 2.7790489 -0.69709516
-1.565654 2.7870107 -0.69666773
-1.5400027 2.7811835 -0.69282091
-1.5313352 2.8060141 -0.69666773
-1.5113119 2.8101954 -0.69538546
-1.4725338 2.7788501 -0.68534094
-1.4663101 2.8086147 -0.69047004
-1.4369813 2.7941053 -0.68469983
-1.4405661 2.8438246 -0.69474429
-1.4309423 2.8683434 -0.69859111
-1.3978034 2.8455071 -0.69089746
-1.3837215 2.8610651 -0.69260716
-1.3552176 2.846571 -0.68705064
-1.3497516 2.8804839 -0.69324833
-1.3398277 2.9055653 -0.69730884
-1.3207629 2.911063 -0.69666773
-1.2980961 2.9084084 -0.69410318
-1.2817973 2.9198961 -0.69495803
-1.2607582 2.9205315 -0.69324833
-1.2458693 2.935406 -0.69495803
-1.2124052 2.9060335 -0.68619579
-1.2045624 2.9378204 -0.69196606
-1.1898009 2.9533107 -0.69388944
-1.1677009 2.9505646 -0.69153863
-1.1499287 2.9585843 -0.69175231
-1.1303595 2.9619339 -0.69089746
-1.1025634 2.9432011 -0.68491352
-1.0854952 2.9526615 -0.68555468
-1.0696791 2.9656985 -0.68705064
-1.046572 2.9583926 -0.68384498
-1.011102 2.9149227 -0.67230451
-0.99288255 2.9201472 -0.67209077
-0.99194026 2.9771554 -0.68384498
-0.96910477 2.9692564 -0.68063927
-0.94461811 2.9556069 -0.67615134
-0.92909199 2.969738 -0.67807472
-0.91342783 2.9837892 -0.67999816
-0.89650452 2.9940166 -0.68106669
-0.88196194 3.0125861 -0.68405867
-0.86426723 3.0207584 -0.68469983
-0.83676922 2.9940178 -0.67743361
-0.83022106 3.0424457 -0.68726438
-0.80449331 3.0210519 -0.68128043
-0.78987378 3.0410588 -0.68469983
-0.76951957 3.0392194 -0.68320382
-0.74921763 3.037245 -0.68170786
-0.72737074 3.0284872 -0.67871588
-0.70499212 3.0167224 -0.67508274
-0.68820179 3.0286119 -0.67679244
-0.65990841 2.9888992 -0.66696167
-0.6423763 2.9967127 -0.66781652
-0.62019402 2.9824262 -0.66375601
-0.60091645 2.9813876 -0.66268742
-0.57867759 2.9648848 -0.65819949
-0.56174463 2.9750986 -0.65969545
-0.5452348 2.9880993 -0.66183257
-0.52858645 3.0010092 -0.6639697
-0.50721514 2.9868608 -0.66012287
-0.48698449 2.978348 -0.65755832
-0.4705236 2.9928601 -0.66012287
-0.45127493 2.9898953 -0.6588406
-0.44258538 3.0593174 -0.67358679
-0.42058629 3.0387521 -0.66845769
-0.40295842 3.0490232 -0.67016739
-0.38619834 3.0669456 -0.67358679
-0.36702377 3.0663476 -0.67294562
-0.34467107 3.0374815 -0.66610682
-0.32602698 3.0395391 -0.66610682
-0.30992961 3.0667524 -0.67166334
-0.29147637 3.0724864 -0.67251819
-0.27209952 3.0683787 -0.67123592
-0.24916075 3.0203383 -0.66033661
-0.23069815 3.0227842 -0.6605503
-0.21221492 3.0251174 -0.66076404
-0.19258523 3.0097895 -0.6571309
-0.17694394 3.0596774 -0.66781652
-0.15872356 3.0714369 -0.67016739
-0.13956219 3.0655217 -0.66867137
-0.12159996 3.0877953 -0.67337304
-0.10294517 3.0972705 -0.67529649
-0.084045365 3.1017499 -0.67615134
-0.065177135 3.1100206 -0.67786103
-0.045755696 3.0878959 -0.67294562
-0.026729748 3.0793269 -0.67102224
-0.0077945688 3.0647793 -0.66781652
0.01104049 3.0735617 -0.66973996
0.029927209 3.0763667 -0.67038107
0.048695806 3.0692875 -0.66888511
0.067250915 3.0562344 -0.66610682
0.086875372 3.0870128 -0.67294562
0.10588184 3.0883741 -0.67337304
0.12471196 3.084738 -0.67273194
0.14246066 3.0585427 -0.66717541
0.16086619 3.0507822 -0.6656794
0.17981128 3.0536385 -0.66653425
0.19835506 3.0495534 -0.66589314
0.21789327 3.059972 -0.66845769
0.23704064 3.0634475 -0.66952622
0.25404808 3.040518 -0.66482455
0.27452889 3.059335 -0.66931254
0.28854838 3.0079978 -0.65841317
0.30709872 3.0071425 -0.65862691
0.32648948 3.0139427 -0.6605503
0.34653002 3.0254707 -0.66354227
0.36578894 3.0291069 -0.66482455
0.3847369 3.0297127 -0.66546571
0.40744156 3.0582826 -0.67230451
0.42700765 3.0615306 -0.67358679
0.44873917 3.0791538 -0.67807472
0.46322566 3.0473676 -0.67166334
0.47840691 3.022275 -0.66674799
0.50819242 3.0877237 -0.68192154
0.52712882 3.0845473 -0.68192154
0.54468316 3.0735593 -0.68021184
0.55983233 3.0499809 -0.67572391
0.57981056 3.0532069 -0.67721987
0.59759402 3.0447984 -0.67615134
0.61723441 3.0458617 -0.67721987
0.63251698 3.0257604 -0.67358679
0.65682656 3.0485632 -0.67957073
0.67023432 3.020632 -0.67422789
0.68506247 3.0002713 -0.67059481
0.70568997 3.0055223 -0.67273194
0.71953946 2.9821417 -0.66845769
0.74134535 2.9918947 -0.67166334
0.7726804 3.0384173 -0.68320382
0.78662801 3.0156579 -0.67914331
0.80385602 3.0060556 -0.67807472
0.82847679 3.02368 -0.68320382
0.85149771 3.0345302 -0.68683696
0.86794519 3.0217366 -0.68512726
0.88536882 3.0126047 -0.68427241
0.90411812 3.0080512 -0.68448609
0.92857975 3.022058 -0.68897408
0.95441699 3.0396059 -0.69431686
0.96798062 3.0178776 -0.69068378
0.98678362 3.01281 -0.69089746
1.0015365 2.9955797 -0.68833292
1.0211591 2.9930766 -0.68918777
1.0356541 2.9756825 -0.68662322
1.0519335 2.9637475 -0.68534094
1.0800655 2.9847975 -0.69175231
1.104103 2.9936965 -0.69538546
1.1121471 2.95943 -0.68897408
1.1355211 2.9662361 -0.69217974
1.1554735 2.963764 -0.69324833
1.1822829 2.9784114 -0.69837743
1.2063887 2.9855943 -0.70179683
1.2206002 2.9681966 -0.69944596
1.2353978 2.9525399 -0.69752258
1.2561679 2.9511967 -0.69901854
1.2649422 2.9219158 -0.69388944
1.3056655 2.9659612 -0.70628476
1.322244 2.9543269 -0.70542991
1.329833 2.9230368 -0.69987339
1.3448747 2.9086149 -0.69837743
1.3726623 2.92153 -0.70350653
1.3909833 2.9139342 -0.70372021
1.3990371 2.8851254 -0.69880486
1.4296572 2.9027805 -0.70521623
1.4452572 2.8895845 -0.70414764
1.4541167 2.8632405 -0.69987339
1.4680778 2.8473172 -0.69816369
1.4809926 2.8295996 -0.69602656
1.5051988 2.8334014 -0.69923228
1.5466539 2.8688314 -0.71034533
1.552979 2.8387165 -0.70521623
1.5836381 2.8530524 -0.71120018
1.5953642 2.833066 -0.70863563
1.6156238 2.8283138 -0.7099179
1.6388227 2.8284917 -0.71248245
1.6601052 2.8251214 -0.71419215
1.6764086 2.8132036 -0.71376473
1.6921234 2.8003557 -0.71312356
1.7118251 2.7940857 -0.71419215
1.7232691 2.7744002 -0.71184129
1.7418212 2.7662547 -0.71248245
1.7540329 2.7481027 -0.71055901
1.7671486 2.7315464 -0.70906305
1.8004761 2.7459803 -0.71568811
1.8210747 2.7405775 -0.71718413
1.8389474 2.7309728 -0.71761155
1.8595227 2.725287 -0.71910751
1.8689898 2.7033784 -0.71632928
1.9073942 2.723069 -0.72466403
1.9178494 2.7025495 -0.72231323
1.9543488 2.7184966 -0.72979313
1.9836411 2.723829 -0.73449481
1.9991574 2.7100339 -0.73406738
2.001718 2.678932 -0.72893828
2.0016153 2.6447852 -0.72295433
2.0154293 2.6293521 -0.72209948
2.0411069 2.6292846 -0.72551888
2.0584087 2.6182473 -0.72594631
2.0634854 2.5918093 -0.72209948
2.0738328 2.5722535 -0.7201761
2.0834 2.5519116 -0.71803898
2.111465 2.554141 -0.72231323
2.1032748 2.5126672 -0.71419215
2.1350713 2.5190935 -0.71974868
2.1225019 2.4733212 -0.71034533
2.1651831 2.4919658 -0.71953493
2.1604347 2.4558918 -0.71290988
2.1514282 2.4155929 -0.70500249
2.195642 2.4349999 -0.71461958
2.2454417 2.4597273 -0.72594631
2.2604918 2.4459031 -0.72594631
2.2474306 2.4020212 -0.71697038
2.2916801 2.4193981 -0.72637373
2.2949901 2.393302 -0.72274065
2.3245988 2.3945987 -0.72744232
2.3406172 2.3816838 -0.72786975
2.3310764 2.3430338 -0.72038978
2.3363988 2.319737 -0.71761155
2.3561668 2.3108306 -0.71932125
2.3674958 2.2936106 -0.7184664
2.3977544 2.2945786 -0.72338176
2.4586351 2.3241227 -0.73748678
2.489269 2.3243306 -0.7424022
2.5113816 2.3162999 -0.744753
2.5183265 2.2942662 -0.74261588
2.5229177 2.2702744 -0.73983765
2.5221994 2.2417688 -0.7355634
2.5623319 2.2494574 -0.74325705
2.5273809 2.1914454 -0.72915202
2.5585847 2.1911502 -0.73428112
2.6517773 2.2429278 -0.75714833
2.6737354 2.233505 -0.75949919
2.6979377 2.2257628 -0.76249117
2.7077579 2.2060807 -0.76142257
2.7151549 2.1845245 -0.75971287
2.7338612 2.1720784 -0.76120889
2.7386842 2.1486285 -0.75885803
2.7464111 2.1275949 -0.75736207
2.7710514 2.1196079 -0.76056772
2.7956967 2.1113985 -0.76377344
2.8085992 2.0942047 -0.76377344
2.8151033 2.0722978 -0.76206374
2.8293462 2.0561347 -0.76249117
2.8292103 2.0296218 -0.75907177
2.8703077 2.0325532 -0.76676542
2.8707166 2.0065062 -0.7635597
2.8556376 1.9699882 -0.75629348
2.8652492 1.9507794 -0.75565237
2.9306753 1.9691297 -0.76975739
2.9402604 1.9494904 -0.76911622
2.9603407 1.9367625 -0.77125335
2.9992504 1.9360501 -0.77830589
3.0176647 1.9218096 -0.78001559
3.0145118 1.8939004 -0.77616876
2.983732 1.8491155 -0.7652694
3.0258582 1.8496299 -0.77317679
3.0346408 1.8295152 -0.77253562
3.0592432 1.8188506 -0.77595502
3.0568633 1.7921379 -0.77253562
3.0449691 1.7601433 -0.76676542
3.0709875 1.7501358 -0.77061224
3.0893326 1.7355673 -0.77253562
3.0939422 1.7132651 -0.77103966
3.1001091 1.691908 -0.76997107
3.1104321 1.6728543 -0.76997107
3.1292691 1.6583134 -0.7721082
3.141983 1.6404382 -0.77274936
3.1459088 1.6179998 -0.77125335
3.1557775 1.5986663 -0.77125335
3.1602829 1.5766551 -0.76997107
3.1672676 1.5559416 -0.76932997
3.184669 1.540308 -0.77125335
3.2002339 1.5236789 -0.77274936
3.1874101 1.4936469 -0.76740652
3.1947408 1.4732426 -0.7669791
3.2152841 1.4588618 -0.76975739
3.2197151 1.437114 -0.7686888
3.2096896 1.4090812 -0.76420087
3.2048228 1.3835502 -0.76099515
3.208756 1.3619505 -0.75992662
3.2224612 1.3444941 -0.76120889
3.2378807 1.3276625 -0.76291859
3.227845 1.3004657 -0.75864434
3.2566543 1.2889076 -0.7635597
3.259949 1.2671306 -0.76249117
3.2831774 1.2530284 -0.76612425
3.2505553 1.2177727 -0.7567209
3.2451305 1.193083 -0.75372893
3.2716866 1.1801131 -0.75821692
3.2807078 1.1606683 -0.75864434
3.2702329 1.1344301 -0.75458378
3.2604852 1.1086788 -0.75073695
3.2737138 1.0908149 -0.75223297
3.2840598 1.0719205 -0.75308782
3.3147674 1.0594869 -0.75864434
3.3128152 1.036501 -0.7567209
3.3163106 1.0152961 -0.75607979
3.3177989 0.99352646 -0.7550112
3.3022704 0.96683282 -0.75009584
3.3137755 0.94816571 -0.75137812
3.3411694 0.93386716 -0.75629348
3.3421245 0.91206163 -0.75522494
3.3712566 0.89782697 -0.76056772
3.3483379 0.8697511 -0.75415635
3.3233087 0.84151071 -0.74731755
3.3331516 0.82227415 -0.74838614
3.3637798 0.80797184 -0.75415635
3.372479 0.78820682 -0.7550112
3.3886826 0.77009875 -0.75757575
3.4009752 0.75097817 -0.75928545
3.412205 0.73153073 -0.76078147
3.3812428 0.70321381 -0.75287408
3.2983527 0.66487098 -0.73342627
3.2899063 0.64218479 -0.73064798
3.2899449 0.62126034 -0.72979313
3.300422 0.60229087 -0.73128915
3.3002074 0.58134991 -0.7304343
3.4269857 0.58204937 -0.75778949
3.2868476 0.53749287 -0.72594631
3.2852585 0.51655543 -0.72487777
3.2729115 0.49405181 -0.72145838
3.2758813 0.47396031 -0.72145838
3.400651 0.47075161 -0.74838614
3.3308418 0.44026232 -0.73235768
3.3877566 0.42666221 -0.74432558
3.4077699 0.40796065 -0.7481724
3.4189448 0.3880364 -0.75009584
3.413491 0.36621577 -0.74838614
3.4127579 0.3449688 -0.74774498
3.423563 0.32485414 -0.74966842
3.4361954 0.30479285 -0.75201923
3.3990581 0.28048229 -0.74347073
3.417274 0.26088798 -0.74710387
3.4246573 0.24032648 -0.74838614
3.4533644 0.22106101 -0.75437009
3.4039423 0.19692415 -0.74325705
3.3904529 0.175275 -0.74005133
3.4148855 0.15553936 -0.74518043
3.4226086 0.13485357 -0.74667645
3.4682839 0.11535221 -0.75650722
3.4786916 0.094335631 -0.75864434
3.4469745 0.072307013 -0.7515918
3.4356318 0.050979342 -0.74902725
3.4329495 0.029871704 -0.74838614
3.1338196 0.0082666874 -0.73850691
3.1250529 -0.010930839 -0.73643494
3.1628778 -0.030474463 -0.74541348
3.1344137 -0.049433507 -0.73873711
3.118485 -0.068322606 -0.7350536
3.110225 -0.087237038 -0.73321182
3.1125488 -0.10641939 -0.73390251
3.1205885 -0.12586935 -0.73597449
3.1139247 -0.14474294 -0.73459315
3.1129782 -0.1638469 -0.73459315
3.1119142 -0.1829447 -0.73459315
3.1223862 -0.20279343 -0.73735577
3.121083 -0.22194824 -0.73735577
3.1157813 -0.24079439 -0.73643494
3.1064873 -0.25925979 -0.73459315
3.1048381 -0.27831596 -0.73459315
3.1214771 -0.29912698 -0.7389673
3.0721457 -0.31343052 -0.72768658
3.0730672 -0.33258933 -0.72837722
3.099973 -0.35476086 -0.73528379
3.0571609 -0.36887565 -0.72561461
3.0915248 -0.39228526 -0.73436296
3.0842364 -0.41060457 -0.73321182
3.0556359 -0.42589203 -0.72699589
3.0433357 -0.44322973 -0.72469372
3.0155444 -0.45809278 -0.71870798
3.0213273 -0.47795641 -0.72077996
2.9924119 -0.49221903 -0.71456403
3.0382564 -0.51893085 -0.72630525
3.0158508 -0.53416741 -0.72170085
2.9962449 -0.54967564 -0.71778715
3.0186291 -0.57295179 -0.72400308
2.9930935 -0.58715248 -0.71870798
3.0008795 -0.60782593 -0.72147065
2.9923308 -0.62523192 -0.72031951
2.9808276 -0.64194113 -0.71847779
2.9796827 -0.66085142 -0.71916842
2.9765205 -0.67933857 -0.71939868
2.9637697 -0.69558752 -0.7173267
2.9509318 -0.71170557 -0.71525472
2.9483986 -0.73026681 -0.71571517
2.9391468 -0.74714494 -0.71456403
2.9297988 -0.76393706 -0.71341294
2.9325769 -0.78391069 -0.71525472
2.9080024 -0.79648972 -0.71042007
2.8805735 -0.80800807 -0.70489484
2.9167156 -0.83748841 -0.71502447
2.8937826 -0.85015589 -0.71065032
2.8866477 -0.86733562 -0.71018988
2.9063873 -0.89274859 -0.71640581
2.8655739 -0.8994872 -0.70765746
2.8711205 -0.92061967 -0.71042007
2.8598688 -0.93640184 -0.70903879
2.845763 -0.95115495 -0.70696682
2.8444784 -0.97016937 -0.7081179
2.8191714 -0.98088729 -0.70328331
2.8121829 -0.99784142 -0.70305306
2.8023469 -1.0137534 -0.70213217
2.7769003 -1.0238578 -0.69729757
2.7860518 -1.0466969 -0.70121133
2.779577 -1.0637721 -0.70121133
2.7693708 -1.0793933 -0.70029044
2.7599821 -1.0952884 -0.6995998
2.7541118 -1.1125673 -0.69983
2.7382333 -1.1257441 -0.69752783
2.7267859 -1.1406463 -0.69637668
2.7277942 -1.1607862 -0.69844866
2.7161551 -1.1755687 -0.69729757
2.6884058 -1.1831946 -0.69200253
2.669548 -1.1945002 -0.68900967
2.6701405 -1.2144846 -0.69108164
2.6617551 -1.2304369 -0.69085145
2.6497514 -1.2446768 -0.68970031
2.6482117 -1.2638465 -0.6913119
2.6272728 -1.2737029 -0.68785858
2.6054399 -1.2829201 -0.68417507
2.5983896 -1.299318 -0.68440527
2.5816915 -1.3108305 -0.6821031
2.5537062 -1.3163897 -0.67680806
2.5421321 -1.330229 -0.67588717
2.5124371 -1.3343887 -0.67013168
2.5110548 -1.353474 -0.67197341
2.5018492 -1.368389 -0.67174321
2.4797921 -1.3761578 -0.66805971
2.4696057 -1.3903925 -0.66759926
2.449198 -1.398762 -0.6643762
2.4380431 -1.4123001 -0.6636855
2.4066784 -1.4139215 -0.65746957
2.3929417 -1.425673 -0.65608829
2.368324 -1.4307666 -0.65171409
2.3603301 -1.4457798 -0.65194434
2.3324015 -1.4484257 -0.6466493
2.3102946 -1.4544133 -0.64296573
2.3070691 -1.4722266 -0.64457732
2.2832851 -1.47684 -0.64043337
2.2570906 -1.4796168 -0.63559872
2.2552638 -1.4982853 -0.6376707
2.2419922 -1.5093775 -0.63651961
2.2270617 -1.5192664 -0.63490808
2.2000875 -1.5207278 -0.62984324
2.1500654 -1.5057249 -0.61810201
2.1280882 -1.509878 -0.61441851
2.1037712 -1.5121145 -0.61004436
2.1054664 -1.5330149 -0.61326742
2.1038516 -1.5516819 -0.61556965
2.0950704 -1.5651441 -0.61579984
2.0869794 -1.5791444 -0.61626029
2.0818846 -1.5954721 -0.61764163
2.0497637 -1.5909107 -0.61096525
2.0453186 -1.6076682 -0.61257678
2.038461 -1.6226122 -0.61349767
2.0602849 -1.6607428 -0.62316686
2.0146263 -1.644428 -0.61234653
1.9864976 -1.6418774 -0.6068213
1.9674314 -1.6465397 -0.60405862
1.9520948 -1.6541762 -0.60244709
1.9470778 -1.6705592 -0.60405862
1.9353215 -1.6811982 -0.60359824
1.9366599 -1.7033257 -0.60728174
1.9174516 -1.70741 -0.60451907
1.899712 -1.7126263 -0.6022169
1.8855742 -1.7209699 -0.60106581
1.8706911 -1.7285442 -0.59968448
1.8429954 -1.7240332 -0.59415919
1.8224913 -1.7259401 -0.59093612
1.8027357 -1.7283342 -0.58794326
1.7760375 -1.7237728 -0.58264822
1.7522399 -1.7216779 -0.57827407
1.7381936 -1.7289653 -0.57712299
1.7371511 -1.7492661 -0.58034605
1.7059433 -1.739049 -0.57343942
1.691855 -1.7459892 -0.57228833
1.6622711 -1.7366511 -0.56584221
1.6495785 -1.7446964 -0.56515151
1.6448194 -1.7611867 -0.56722349
1.6326625 -1.7698152 -0.5667631
1.6204616 -1.778361 -0.56630266
1.6049628 -1.7832067 -0.56469113
1.5901122 -1.7886569 -0.56330979
1.5746133 -1.7932607 -0.56169826
1.5559303 -1.7940657 -0.55893558
1.5417279 -1.7998831 -0.5577845
1.5331687 -1.8122811 -0.55870539
1.5213962 -1.8209076 -0.5584752
1.5145295 -1.835463 -0.56008673
1.5056974 -1.8477393 -0.56100756
1.4900614 -1.8516359 -0.55939603
1.4744345 -1.8554102 -0.5577845
1.4594182 -1.8598285 -0.55640322
1.4461912 -1.8664403 -0.55571252
1.4335293 -1.8737329 -0.55525208
1.4126217 -1.8700687 -0.55156857
1.4034474 -1.8818216 -0.55248946
1.3849516 -1.8809931 -0.54972684
1.3762443 -1.8933918 -0.55087793
1.3577939 -1.8923119 -0.54811531
1.3472822 -1.902196 -0.54857576
1.3394876 -1.9160104 -0.55018729
1.3326792 -1.9314026 -0.55225927
1.3229939 -1.9427609 -0.5531801
1.3039931 -1.9403414 -0.55018729
1.2990535 -1.9588499 -0.5531801
1.2752892 -1.948868 -0.54811531
1.2643627 -1.9582916 -0.54857576
1.2554593 -1.9709376 -0.54995704
1.2366124 -1.9678917 -0.54696417
1.2199008 -1.9679978 -0.54489219
1.2057724 -1.9721247 -0.54397136
1.1871175 -1.9686518 -0.54097849
1.1789942 -1.9825904 -0.54282022
1.1668071 -1.9897873 -0.54282022
1.159933 -2.0061769 -0.54535264
1.1529014 -2.0225568 -0.54788506
1.1299838 -2.0109272 -0.54282022
1.1228092 -2.0271876 -0.54535264
1.1140789 -2.0408726 -0.54719442
1.0932387 -2.032243 -0.54305047
1.0798372 -2.0371931 -0.54259002
1.0655155 -2.0403297 -0.54166913
1.0511959 -2.0433676 -0.54074824
1.0412767 -2.0549879 -0.54212958
1.0321233 -2.0683048 -0.54397136
1.0176967 -2.071105 -0.54305047
1.0096302 -2.0869472 -0.54558289
0.99345934 -2.0860736 -0.54374111
0.97940207 -2.0894866 -0.54305047
0.9653402 -2.0928056 -0.54235983
0.95167673 -2.0969169 -0.54189938
0.93760252 -2.1000509 -0.54120868
0.92587268 -2.1084378 -0.54189938
0.9102183 -2.107825 -0.54028785
0.89308554 -2.1035166 -0.53775543
0.89140272 -2.1359 -0.544662
0.87495768 -2.1332259 -0.54259002
0.8596701 -2.1331387 -0.54120868
0.84728146 -2.1401827 -0.54166913
0.83307594 -2.1426203 -0.54097849
0.81817853 -2.1431458 -0.53982741
0.80398887 -2.1453917 -0.53913671
0.79148144 -2.1521113 -0.53959715
0.7762804 -2.1514347 -0.53821588
0.76501215 -2.1616621 -0.53959715
0.74982047 -2.160799 -0.53821588
0.73686123 -2.1662805 -0.53844607
0.72324771 -2.1698377 -0.53821588
0.70750463 -2.1668336 -0.53637409
0.69064081 -2.1600108 -0.53361148
0.67766476 -2.1651366 -0.53384167
0.66550642 -2.1729758 -0.53476256
0.64881104 -2.1658316 -0.53199995
0.63222843 -2.1585646 -0.52923727
0.61790109 -2.1586609 -0.52831638
0.60202473 -2.1530392 -0.52601421
0.58726543 -2.1510599 -0.52463287
0.57530785 -2.1593246 -0.52578402
0.55960119 -2.1533952 -0.52348179
0.54733312 -2.1605616 -0.52440268
0.5324344 -2.1572657 -0.52279115
0.52146035 -2.1699543 -0.52509332
0.50725007 -2.1693227 -0.52417248
0.49867386 -2.1932712 -0.52923727
0.48184985 -2.1810856 -0.52555376
0.47580108 -2.2182558 -0.53384167
0.45584083 -2.1906455 -0.52647465
0.4421984 -2.1924472 -0.5262444
0.42705962 -2.1865232 -0.52417248
0.41652435 -2.2044022 -0.52785599
0.40124363 -2.1973431 -0.52555376
0.38809106 -2.2016807 -0.52601421
0.37538916 -2.2088175 -0.52716529
0.36135793 -2.2081981 -0.52647465
0.34734842 -2.2074897 -0.52578402
0.33278027 -2.2028439 -0.52417248
0.32246238 -2.2269957 -0.52946752
0.30385497 -2.1932664 -0.52094936
0.29549199 -2.2336793 -0.53015816
0.27801159 -2.2055197 -0.52302134
0.26250732 -2.1907578 -0.51910764
0.25125474 -2.2116659 -0.52371204
0.23591498 -2.196717 -0.51979828
0.22341028 -2.2078052 -0.52210051
0.2108703 -2.2197912 -0.52463287
0.19767576 -2.2258899 -0.52578402
0.18457438 -2.2338498 -0.52739555
0.17116052 -2.2388217 -0.52831638
0.15755637 -2.2417712 -0.52877682
0.14379816 -2.2426956 -0.52877682
0.12958498 -2.2357638 -0.5269351
0.11581393 -2.2355449 -0.52670485
0.10138643 -2.2206593 -0.52302134
0.087797113 -2.2222121 -0.52325159
0.073869221 -2.2139554 -0.52117962
0.060230531 -2.2124217 -0.52071917
0.04671542 -2.2156682 -0.52140981
0.033105031 -2.2149401 -0.52117962
0.019691342 -2.2355368 -0.52601421
0.0059665251 -2.2326961 -0.52532357
-0.0077401269 -2.2346368 -0.52578402
-0.021385249 -2.2277358 -0.52417248
-0.035192832 -2.2363195 -0.5262444
-0.048849773 -2.2331429 -0.52555376
-0.062633261 -2.2357194 -0.5262444
-0.077116936 -2.2576621 -0.5315395
-0.090732418 -2.2513123 -0.53015816
-0.10472558 -2.2546015 -0.53107905
-0.11881374 -2.2587755 -0.53223014
-0.13249952 -2.2550895 -0.5315395
-0.14639714 -2.2552052 -0.53176969
-0.15884985 -2.2348506 -0.52716529
-0.17225938 -2.2299531 -0.5262444
-0.18658701 -2.2366123 -0.52808619
-0.19995922 -2.2315483 -0.52716529
-0.21327634 -2.2264047 -0.5262444
-0.22821838 -2.2376394 -0.52923727
-0.24204877 -2.2371645 -0.52946752
-0.25477466 -2.2269356 -0.52739555
-0.26936734 -2.2330594 -0.52923727
-0.28318667 -2.2323301 -0.52946752
-0.29636461 -2.226692 -0.52854663
-0.31136596 -2.2344697 -0.5308488
-0.32675454 -2.2440727 -0.53361148
-0.34095648 -2.2449119 -0.53430212
-0.35396388 -2.2379715 -0.53315103
-0.37037572 -2.2520814 -0.53706473
-0.3792696 -2.2209895 -0.53015816
-0.39136198 -2.2099967 -0.52808619
-0.40596893 -2.2132964 -0.52946752
-0.4189972 -2.2078958 -0.52877682
-0.43628499 -2.2243817 -0.53338122
-0.45050508 -2.224524 -0.53407192
-0.46195576 -2.2112398 -0.5315395
-0.47940919 -2.2264385 -0.53591365
-0.48863471 -2.2035043 -0.53107905
-0.49997979 -2.1909776 -0.52877682
-0.51474857 -2.1935527 -0.53015816
-0.52614409 -2.181839 -0.52808619
-0.54186213 -2.1880155 -0.53038836
-0.56175286 -2.2101138 -0.53660429
-0.5721103 -2.1943839 -0.53361148
-0.58204454 -2.1776707 -0.53038836
-0.59693843 -2.1796896 -0.53176969
-0.61082733 -2.1778598 -0.53223014
-0.62391031 -2.1731355 -0.53199995
-0.63613504 -2.1655319 -0.53107905
-0.65557295 -2.1820908 -0.5361439
-0.66523397 -2.1659343 -0.53315103
-0.67734534 -2.158098 -0.53223014
-0.6994909 -2.1817005 -0.53913671
-0.70741224 -2.1607208 -0.53499275
-0.71695411 -2.1452646 -0.53223014
-0.7294752 -2.138983 -0.53176969
-0.74322581 -2.1363049 -0.53223014
-0.75827289 -2.137207 -0.53361148
-0.78594166 -2.1727772 -0.54374111
-0.79252416 -2.1496534 -0.53913671
-0.79953742 -2.1283531 -0.53499275
-0.81780028 -2.1370394 -0.53844607
-0.82736278 -2.1229146 -0.5361439
-0.83965504 -2.115989 -0.53568345
-0.85481018 -2.1162107 -0.53706473
-0.86444795 -2.1028259 -0.53499275
-0.87846124 -2.1001754 -0.53568345
-0.89056885 -2.0929549 -0.53522301
-0.90378088 -2.0883441 -0.5354532
-0.91696978 -2.0836499 -0.53568345
-0.93212283 -2.0833137 -0.53706473
-0.94247037 -2.0722404 -0.53568345
-0.96496946 -2.0876174 -0.54120868
-0.97279477 -2.0710881 -0.53844607
-0.98590368 -2.0659583 -0.53867626
-1.0006846 -2.0642481 -0.53982741
-1.0086021 -2.0484662 -0.53729498
-1.0194111 -2.0387576 -0.53637409
-1.0226479 -2.0142434 -0.5315395
-1.0407853 -2.0191748 -0.53453231
-1.0567652 -2.0196481 -0.53637409
-1.0741596 -2.0225792 -0.53890651
-1.0800844 -2.003958 -0.53568345
-1.0965636 -2.0049767 -0.53775543
-1.1102622 -2.0007632 -0.53844607
-1.1239501 -1.9964569 -0.53913671
-1.1410059 -1.9979728 -0.54143894
-1.1542195 -1.9926181 -0.54189938
-1.1683964 -1.9888544 -0.54282022
-1.1840649 -1.9874997 -0.54443181
-1.1947278 -1.9776982 -0.54374111
-1.2103989 -1.9761388 -0.54535264
-1.223015 -1.9695014 -0.54558289
-1.2376691 -1.9660774 -0.54673398
-1.2434267 -1.9486028 -0.54397136
-1.2617028 -1.9507413 -0.54673398
-1.2688462 -1.9356387 -0.544662
-1.2785448 -1.9245747 -0.54374111
-1.2957652 -1.9247655 -0.54604334
-1.30426 -1.9119555 -0.544662
-1.315967 -1.9039167 -0.544662
-1.3387907 -1.9117472 -0.5492664
-1.3454269 -1.8963541 -0.54719442
-1.3615819 -1.8943841 -0.54903615
-1.3846377 -1.9017267 -0.55364054
-1.3835709 -1.8759665 -0.54857576
-1.395638 -1.8682214 -0.54880595
-1.4111859 -1.8650545 -0.55041748
-1.4344434 -1.8718073 -0.55502188
-1.4482886 -1.8660452 -0.55594277
-1.4705373 -1.870894 -0.56008673
-1.4892628 -1.8709716 -0.56284934
-1.4927745 -1.8519498 -0.55985647
-1.5096487 -1.8495399 -0.56192845
-1.5079479 -1.8244913 -0.55709386
-1.5209882 -1.8174431 -0.5577845
-1.5509872 -1.8303472 -0.56469113
-1.5577526 -1.8156266 -0.56307954
-1.581629 -1.8207259 -0.56768394
-1.5979131 -1.8168322 -0.56952572
-1.6012641 -1.798273 -0.5667631
-1.6155264 -1.7920276 -0.56791419
-1.6238673 -1.7792064 -0.5669933
-1.6360747 -1.7706382 -0.56745374
-1.6508976 -1.7648299 -0.56883508
-1.670395 -1.7638515 -0.57182789
-1.68186 -1.7542711 -0.57205814
-1.6803913 -1.7313503 -0.56791419
-1.6923473 -1.7223951 -0.56837463
-1.7083746 -1.7174976 -0.57021636
-1.7216432 -1.7097255 -0.57113725
-1.7404386 -1.7073061 -0.57389987
-1.75857 -1.7040431 -0.57643229
-1.7457911 -1.6710178 -0.56883508
-1.7758129 -1.678992 -0.5752812
-1.7917718 -1.6733773 -0.57712299
-1.8062978 -1.6663103 -0.57850426
-1.8121717 -1.6512635 -0.57712299
-1.8309501 -1.6479243 -0.5798856
-1.8359357 -1.6321335 -0.57827407
-1.8466469 -1.6214797 -0.57850426
-1.8749425 -1.626056 -0.58425975
-1.8686234 -1.6005954 -0.57919496
-1.8836104 -1.5934985 -0.58080649
-1.9000742 -1.5875258 -0.58287847
-1.8850071 -1.5554013 -0.5752812
-1.9096045 -1.5560988 -0.5798856
-1.9213914 -1.5461826 -0.58057624
-1.9376997 -1.5398122 -0.58264822
-1.9425176 -1.5242897 -0.58126694
-1.9602963 -1.5188974 -0.5837993
-1.9610766 -1.5003372 -0.58126694
-1.9803411 -1.4959002 -0.58425975
-1.993383 -1.4866292 -0.58541089
-1.9977652 -1.4709088 -0.58402956
-2.0240719 -1.4712086 -0.5890944
-2.0385962 -1.462732 -0.59070593
-2.0515039 -1.4530078 -0.59185702
-2.0643687 -1.4431801 -0.5930081
-2.06918 -1.4277233 -0.59185702
-2.0803146 -1.4166431 -0.59254766
-2.0970454 -1.409279 -0.59484988
-2.1007867 -1.3931587 -0.59346855
-2.1149957 -1.3839717 -0.59508008
-2.1267183 -1.3730793 -0.59600097
-2.1342824 -1.3594813 -0.59577072
-2.146704 -1.3489485 -0.59692186
-2.1557679 -1.3362637 -0.59715205
-2.1705689 -1.3270712 -0.59899384
-2.1861715 -1.3182497 -0.60106581
-2.2025836 -1.3097838 -0.60336798
-2.2240112 -1.3041189 -0.60705149
-2.2328136 -1.290935 -0.60728174
-2.2618299 -1.2892559 -0.61303723
-2.2747886 -1.278213 -0.61441851
-2.2893994 -1.2680024 -0.61626029
-2.3039703 -1.2576604 -0.61810201
-2.3099298 -1.242578 -0.61764163
-2.3304088 -1.2352159 -0.62109488
-2.3250041 -1.214138 -0.61764163
-2.3479874 -1.2078605 -0.62178558
-2.3397284 -1.1855153 -0.61764163
-2.3521833 -1.1737431 -0.61902291
-2.3794303 -1.1691568 -0.62431794
-2.3769226 -1.1498742 -0.62178558
-2.3821762 -1.1344314 -0.62132514
-2.3979039 -1.1239225 -0.62362731
-2.4188943 -1.115708 -0.62731081
-2.4327841 -1.1040616 -0.6291526
-2.4430673 -1.0907 -0.63007349
-2.4523871 -1.0768626 -0.63076413
-2.4535878 -1.0594805 -0.62938279
-2.4716876 -1.0493484 -0.63237566
-2.4789777 -1.0345372 -0.63260585
-2.4978845 -1.0244756 -0.63582897
-2.5140526 -1.0131297 -0.63836139
-2.5211265 -0.99804282 -0.63859159
-2.5525999 -0.99242592 -0.64503771
-2.5450034 -0.97154015 -0.64158446
-2.5545621 -0.95727164 -0.64250535
-2.5576475 -0.94057167 -0.64181465
-2.5624552 -0.92453045 -0.64158446
-2.5662451 -0.90814096 -0.64112401
-2.5469453 -0.88376683 -0.63490808
-2.557848 -0.87000203 -0.63628942
-2.5714474 -0.8570596 -0.63836139
-2.5720322 -0.83975559 -0.63721025
-2.5669401 -0.82069927 -0.63467783
-2.5830722 -0.80842012 -0.6374405
-2.591706 -0.79369491 -0.63836139
-2.6133077 -0.78280228 -0.64250535
-2.612458 -0.76511204 -0.64112401
-2.6255238 -0.75147712 -0.64319599
-2.637583 -0.73744857 -0.64503771
-2.6176493 -0.71458989 -0.63905203
-2.625746 -0.69951653 -0.63997293
-2.6186862 -0.68045634 -0.63721025
-2.6020579 -0.65912062 -0.63214546
-2.6145568 -0.64523989 -0.63421744
-2.636445 -0.63350326 -0.63859159
-2.6526012 -0.62019336 -0.64158446
-2.68957 -0.611453 -0.64964211
-2.6847188 -0.5930503 -0.64757013
-2.6645191 -0.57146657 -0.64181465
-2.6679754 -0.55510664 -0.64181465
-2.6684694 -0.53814888 -0.64112401
-2.6803174 -0.52344322 -0.64319599
-2.6748724 -0.50536215 -0.64112401
-2.6673923 -0.48701829 -0.63859159
-2.6875813 -0.473681 -0.64273554
-2.6971531 -0.45832196 -0.64434707
-2.6903105 -0.4401935 -0.6420449
-2.7198782 -0.42790988 -0.64849102
-2.7157168 -0.41019624 -0.64687949
-2.740334 -0.39672998 -0.65217453
-2.7513924 -0.381109 -0.65424651
-2.7334192 -0.3615419 -0.64941192
-2.753931 -0.34707329 -0.65378606
-2.7589073 -0.33051592 -0.65447676
-2.7579827 -0.31325218 -0.65378606
-2.7666261 -0.29705021 -0.65539759
-2.7645237 -0.27967748 -0.65447676
-2.765219 -0.2626175 -0.65424651
-2.7347903 -0.24280857 -0.6466493
-2.7575653 -0.22778404 -0.65171409
-2.7608516 -0.21100777 -0.65217453
-2.7785974 -0.19522142 -0.65608829
-2.7826562 -0.17835505 -0.65677893
-2.7487235 -0.15925469 -0.64849102
-2.7515926 -0.1424863 -0.64895147
-2.779635 -0.12683962 -0.65539759
-2.7424378 -0.108288 -0.64641905
-2.7780643 -0.092622682 -0.65470695
-2.7814987 -0.075654157 -0.65539759
-2.801369 -0.05899369 -0.66000199
-2.8026514 -0.041818127 -0.66023225
-2.8057745 -0.02464596 -0.66092288
-2.7883563 -0.0073848753 -0.65677893
-2.7883492 0.0097242966 -0.65677893
-2.7999141 0.026946599 -0.65954155
-2.7860739 0.043910038 -0.65631849
-2.7847791 0.060982846 -0.65608829
-2.7619791 0.077439316 -0.65079319
-2.7906289 0.095385134 -0.65769982
-2.7627656 0.11140582 -0.65125364
-2.7873042 0.12953272 -0.65723938
-2.7689648 0.14571068 -0.65309542
-2.7553897 0.16195446 -0.65010256
-2.7591996 0.17917393 -0.65125364
-2.7988167 0.19900337 -0.66092288
-2.7878406 0.21542217 -0.65862072
-2.8145895 0.2348735 -0.66529703
-2.7743256 0.2486604 -0.65608829
-2.8076205 0.26902351 -0.6643762
-2.7952676 0.28515828 -0.66184378
-2.7750833 0.30031329 -0.65746957
-2.7673874 0.31667086 -0.65608829
-2.7914774 0.33679503 -0.66230422
-2.7864623 0.35354912 -0.66161352
-2.7842405 0.37063986 -0.66161352
-2.7934794 0.3893297 -0.6643762
-2.8006678 0.40786618 -0.66667837
-2.791378 0.42401943 -0.66506684
-2.7916071 0.44159544 -0.66575748
-2.7907655 0.45903215 -0.66621792
-2.7725487 0.47352454 -0.66253442
-2.7791731 0.49222577 -0.66483665
-2.7694004 0.50803936 -0.66322505
-2.7451978 0.52102846 -0.65816027
-2.7390842 0.53730065 -0.65746957
-2.7414587 0.55525678 -0.65885091
-2.7437153 0.57326233 -0.66023225
-2.7468052 0.59152138 -0.66184378
-2.7621248 0.61258012 -0.66644818
-2.7583141 0.62951672 -0.66644818
-2.7742944 0.6511007 -0.67128277
-2.764571 0.66674173 -0.66990143
-2.7755413 0.68743694 -0.67358494
-2.7778728 0.70613325 -0.67519653
-2.7574801 0.71898919 -0.67128277
-2.7727587 0.7411744 -0.67611736
-2.7437565 0.75148779 -0.67013168
-2.7269135 0.76489121 -0.66713881
-2.7305868 0.78402668 -0.66921079
-2.7397294 0.80488223 -0.67266411
-2.7300794 0.82027727 -0.67151296
-2.7240648 0.83672744 -0.67128277
-2.7411621 0.86042285 -0.67680806
-2.7321246 0.87603724 -0.67588717
-2.730397 0.89399636 -0.67680806
-2.6888661 0.89869887 -0.66782945
-2.7155366 0.92617822 -0.67588717
-2.7006118 0.93962443 -0.67358494
-2.6892931 0.95422429 -0.67220366
-2.6687465 0.96540964 -0.66852015
-2.6764679 0.98681754 -0.67197341
-2.6594312 0.99911356 -0.66921079
-2.6696093 1.021675 -0.67335474
-2.6777971 1.0436919 -0.67703825
-2.6695337 1.0593848 -0.67657781
-2.6810284 1.0830364 -0.68118221
-2.6815326 1.1024274 -0.68302399
-2.6774111 1.1199871 -0.68371463
-2.6758609 1.1386809 -0.68509597
-2.6500697 1.1469595 -0.68026131
-2.6376383 1.1608459 -0.67888004
-2.634907 1.1789961 -0.68003112
-2.6152222 1.1894996 -0.67680806
-2.6334898 1.2173678 -0.68348438
-2.6189244 1.230193 -0.68164265
-2.6227436 1.2516892 -0.68463552
-2.592248 1.2567189 -0.67864978
-2.606313 1.28335 -0.68440527
-2.5775013 1.2888705 -0.67888004
-2.5842946 1.3121524 -0.68279374
-2.5640855 1.3217412 -0.67957067
-2.5835171 1.3518896 -0.68693769
-2.5682981 1.364064 -0.68509597
-2.5881472 1.3950367 -0.69269317
-2.569294 1.4052863 -0.68993056
-2.549562 1.414885 -0.68693769
-2.5484638 1.4347997 -0.68900967
-2.5421472 1.4518578 -0.68970031
-2.5365589 1.4693803 -0.6906212
-2.519944 1.4804795 -0.68854922
-2.5149925 1.4984045 -0.68970031
-2.5057509 1.513808 -0.68970031
-2.508862 1.5367802 -0.69315362
-2.5101318 1.5588205 -0.69614649
-2.5013433 1.5747114 -0.69637668
-2.5006573 1.5957891 -0.6989091
-2.4883673 1.6095169 -0.69821846
-2.460541 1.6130159 -0.69315362
-2.4514079 1.6286217 -0.69338387
-2.4454048 1.6463503 -0.69453496
-2.4360609 1.6618726 -0.69476515
-2.4338224 1.6823226 -0.69706738
-2.4457715 1.7128574 -0.7035135
-2.4177561 1.7154418 -0.69844866
-2.4087653 1.7313808 -0.6989091
-2.3886566 1.7392535 -0.69614649
-2.4022162 1.771786 -0.70328331
-2.3757086 1.7748424 -0.69867891
-2.395036 1.8122895 -0.70765746
-2.3599284 1.8085985 -0.70052063
-2.3157325 1.7973846 -0.6906212
-2.3497965 1.8470457 -0.70420414
-2.3513615 1.8717332 -0.7081179
-2.3118019 1.8635262 -0.6995998
-2.3395226 1.9096785 -0.71157122
-2.3277609 1.9239976 -0.71157122
-2.298749 1.9238775 -0.70627612
-2.2846739 1.9360586 -0.70558548
-2.3022912 1.9753904 -0.71479428
-2.2996764 1.9977773 -0.71778715
-2.2837219 2.0086365 -0.716636
-2.2778943 2.0284364 -0.71870798
-2.2523963 2.0306449 -0.71456403
-2.2269576 2.0326173 -0.71042007
-2.2165878 2.0482249 -0.71111077
-2.2494566 2.1043389 -0.7258448
-2.2251983 2.107394 -0.72216129
-2.1897492 2.0994546 -0.71479428
-2.1649559 2.1013279 -0.71088052
-2.1610446 2.1234398 -0.71387339
-2.1569431 2.1455822 -0.71686625
-2.1649923 2.1801846 -0.72400308
-2.1590695 2.2010698 -0.72653544
-2.1380749 2.206588 -0.72400308
-2.1251681 2.2203686 -0.72423327
-2.1175206 2.2397313 -0.72630525
-2.0897911 2.237745 -0.72147065
-2.0674446 2.2412262 -0.71847779
-2.0693822 2.2711346 -0.72400308
-2.0534549 2.2816193 -0.72331238
-2.0323052 2.2861753 -0.72077996
-2.0131035 2.2927513 -0.71893823
-2.0002723 2.306531 -0.71939868
-1.9822842 2.314326 -0.71801734
-1.9529639 2.3086133 -0.71249205
-1.9237891 2.3026285 -0.70696682
-1.9158169 2.3218961 -0.70926899
-1.8910848 2.3207819 -0.70535529
-1.8914496 2.3505387 -0.71088052
-1.8594363 2.340004 -0.70420414
-1.8570564 2.3666821 -0.70880854
-1.8496512 2.3872638 -0.71157122
-1.836742 2.400887 -0.71226186
-1.8278406 2.4198775 -0.71456403
-1.8024877 2.4170046 -0.71042007
-1.7807006 2.4186144 -0.70765746
-1.7726915 2.438942 -0.71042007
-1.7321676 2.4141905 -0.70006019
-1.7195714 2.4279501 -0.70098108
-1.7107736 2.4472294 -0.7035135
-1.725565 2.5009363 -0.71594536
-1.7173066 2.5219343 -0.71893823
-1.6914884 2.5170767 -0.71456403
-1.6674081 2.514431 -0.71088052
-1.6322366 2.4944837 -0.70236242
-1.63801 2.5371561 -0.71157122
-1.6166614 2.5381298 -0.70903879
-1.5932922 2.5356414 -0.70558548
-1.5869308 2.5602593 -0.70972943
-1.5615485 2.5541725 -0.70535529
-1.5433348 2.5595388 -0.70420414
-1.5206386 2.5572495 -0.70098108
-1.5059032 2.5682111 -0.70144153
-1.5032656 2.6001506 -0.70765746
-1.484874 2.605098 -0.70650637
-1.4650484 2.6073728 -0.70466459
-1.4471368 2.6129076 -0.70374376
-1.4334079 2.626009 -0.70489484
-1.4126588 2.6261842 -0.70259261
-1.3723685 2.5892296 -0.690391
-1.3708674 2.6252062 -0.69775802
-1.3556236 2.635299 -0.69821846
-1.3394283 2.6435676 -0.69821846
-1.3283955 2.6621859 -0.70098108
-1.3184716 2.6833882 -0.70443439
-1.3032529 2.6940558 -0.70512503
-1.2887894 2.7063949 -0.70627612
-1.2746366 2.7195392 -0.70765746
-1.2567033 2.7246578 -0.70696682
-1.2331263 2.717252 -0.70305306
-1.2096877 2.7096603 -0.69913936
-1.203209 2.7401996 -0.70512503
-1.1859871 2.7466371 -0.70489484
-1.1793772 2.778049 -0.71111077
-1.164932 2.7915199 -0.7127223
-1.1378138 2.7743046 -0.70650637
-1.1065873 2.746031 -0.69752783
-1.1011765 2.7817245 -0.70489484
-1.0865552 2.7947781 -0.70650637
-1.0679984 2.7977557 -0.70558548
-1.0538841 2.8124578 -0.70765746
-1.0258621 2.7896435 -0.70029044
-0.96811396 2.6832898 -0.67197341
-0.95357871 2.694684 -0.67335474
-0.97242653 2.8025374 -0.6989091
-0.97306871 2.8609674 -0.7120316
-0.95211214 2.8567286 -0.70949924
-0.93064034 2.8504903 -0.70650637
-0.90394855 2.8274117 -0.69936955
-0.86595249 2.766964 -0.68302399
-0.87060803 2.8429441 -0.70052063
-0.84812307 2.8314524 -0.69637668
-0.82909304 2.8309991 -0.6949954
-0.80983299 2.829484 -0.69338387
-0.78643167 2.8128438 -0.68808877
-0.77735549 2.8476582 -0.69545585
-0.75911671 2.8495531 -0.69476515
-0.73941606 2.8456805 -0.69269317
-0.7162087 2.827523 -0.68716794
-0.70164269 2.8432024 -0.68993056
-0.68350214 2.8446152 -0.68923992
-0.66537064 2.8459127 -0.68854922
-0.64573956 2.8404524 -0.68624705
-0.62389266 2.8244059 -0.6814124
-0.60940635 2.841502 -0.68463552
-0.59314859 2.8509045 -0.6860168
-0.57718289 2.8621218 -0.68785858
-0.55849183 2.8598788 -0.68647724
-0.5445447 2.8823767 -0.69108164
-0.5245775 2.8732183 -0.68808877
-0.5062626 2.8725493 -0.68716794
-0.48618346 2.8612106 -0.68371463
-0.4679901 2.8602984 -0.68279374
-0.44529179 2.830431 -0.67496628
-0.43067589 2.8513925 -0.67934042
-0.41749147 2.8838377 -0.68647724
-0.40219042 2.9036963 -0.6906212
-0.38219842 2.8897085 -0.6867075
-0.36360919 2.8852408 -0.68509597
-0.34705544 2.8970799 -0.68739814
-0.32850465 2.8923864 -0.6857866
-0.31147769 2.9011207 -0.68739814
-0.2926923 2.8932953 -0.68509597
-0.27475008 2.8930991 -0.68463552
-0.25639138 2.8879452 -0.68302399
-0.2379463 2.8807354 -0.68095201
-0.21878466 2.8627348 -0.67634761
-0.20073837 2.8572283 -0.67473608
-0.18599984 2.9021077 -0.68509597
-0.16717786 2.8857071 -0.68095201
-0.15057342 2.9080591 -0.6860168
-0.1330812 2.9167054 -0.68785858
-0.11522042 2.9184394 -0.68808877
-0.096793711 2.9035299 -0.68440527
-0.079055265 2.9069874 -0.68509597
-0.060910895 2.8928239 -0.68164265
-0.043116439 2.8902242 -0.68095201
-0.025542187 2.9089234 -0.68532616
-0.0077177286 2.9187565 -0.68762833
0.010205519 2.9226415 -0.68854922
0.027920781 2.9001427 -0.68325418
0.045746055 2.9018629 -0.68371463
0.063657686 2.9063921 -0.68486571
0.081270829 2.8981647 -0.68302399
0.099085443 2.8985839 -0.68325418
0.11686895 2.8979216 -0.68325418
0.13519128 2.9088149 -0.6860168
0.15354921 2.9176486 -0.68831903
0.17127711 2.9137371 -0.68762833
0.18763654 2.8893251 -0.6821031
0.20439403 2.8745298 -0.67888004
0.22180276 2.8703108 -0.67818934
0.23884337 2.8621078 -0.67657781
0.25683525 2.8654346 -0.67772889
0.27487695 2.8686481 -0.67888004
0.29365972 2.8785248 -0.68164265
0.31163087 2.8795712 -0.68233329
0.33062243 2.8892066 -0.68509597
0.34857738 2.8890557 -0.68555635
0.36592999 2.8839664 -0.68486571
0.3850323 2.8922777 -0.68739814
0.40250289 2.887933 -0.68693769
0.4207767 2.8892608 -0.68785858
0.44215286 2.910677 -0.69361407
0.45954773 2.9050255 -0.69292343
0.47957641 2.9155941 -0.69614649
0.49745712 2.9125967 -0.69614649
0.51548892 2.9104478 -0.69637668
0.53421575 2.9120157 -0.69752783
0.54935026 2.8943422 -0.69407451
0.56784898 2.8947365 -0.6949954
0.57999521 2.863539 -0.68831903
0.60751051 2.9075539 -0.69983
0.62431473 2.8990149 -0.69867891
0.64230174 2.8960795 -0.6989091
0.65746027 2.8806994 -0.69614649
0.67423379 2.8728216 -0.6952256
0.69207668 2.8695765 -0.69545585
0.71247953 2.876611 -0.69821846
0.73011667 2.872185 -0.69821846
0.74920005 2.8733008 -0.6995998
0.76304531 2.854548 -0.69614649
0.78234625 2.8563821 -0.69775802
0.80169827 2.8580868 -0.69936955
0.81922007 2.8531139 -0.69936955
0.84027803 2.8601711 -0.70236242
0.86537486 2.8801241 -0.70857835
0.88188738 2.8710392 -0.70765746
0.89219904 2.8423629 -0.70190197
0.9125948 2.8461013 -0.70420414
0.93276709 2.8487711 -0.70627612
