# .PCD v0.7 - Point Cloud Data file format
VERSION 0.7
FIELDS x y z
SIZE 4 4 4
TYPE F F F
COUNT 1 1 1
WIDTH 1537
HEIGHT 1
VIEWPOINT 0 0 0 1 0 0 0
POINTS 1537
DATA ascii
62.816174 -19.122459 17.333267
60.287754 -19.982094 16.765785
60.010139 -20.299589 16.7229
55.675396 -24.744709 16.08292
58.497856 -28.622234 17.191332
58.258793 -28.949654 17.172953
31.851213 -32.308224 11.975258
31.407507 -32.251614 11.882592
31.078316 -32.307842 11.832813
30.876162 -32.494423 11.831537
30.694729 -32.703003 11.838685
30.494144 -32.891438 11.83894
30.859211 -33.697556 12.060776
25.344719 -33.379551 11.062387
24.945721 -33.276047 10.977125
24.711163 -33.388073 10.96385
24.557739 -33.610111 10.987081
24.342567 -33.748398 10.983252
24.098579 -33.845932 10.966659
21.00853 -56.689102 15.958856
20.6408 -56.763332 15.943794
5.265141 -15.667985 4.3608556
5.1634622 -15.683466 4.3562603
5.0582299 -15.687246 4.3486023
4.9420848 -15.655292 4.3312435
4.8273787 -15.625276 4.3146501
4.7081923 -15.577785 4.2934623
4.5897713 -15.529423 4.2722745
4.4761477 -15.49413 4.2549152
4.3731127 -15.493388 4.2472572
4.2527814 -15.428584 4.22224
4.2052679 -15.629915 4.2702322
4.1056027 -15.641397 4.2664027
3.9824574 -15.560451 4.2375565
3.9140515 -15.693415 4.2671685
3.8119781 -15.693646 4.260787
3.7024851 -15.661227 4.2457256
3.5941842 -15.630883 4.2314301
3.4868174 -15.601689 4.2176452
3.3797393 -15.570823 4.2036047
3.2725737 -15.536393 4.1887989
3.1644099 -15.49366 4.1719503
3.053328 -15.432164 4.1502519
2.9491227 -15.401229 4.1369777
2.8494616 -15.391464 4.1295743
2.7444143 -15.349649 4.1137471
2.6381798 -15.296645 4.0951118
2.5320652 -15.239103 4.0754557
2.4322529 -15.215209 4.0649896
2.3288655 -15.164862 4.0476303
2.2260468 -15.112864 4.0300164
2.1258454 -15.073583 4.015976
2.028019 -15.047056 4.0055099
1.9304746 -15.018941 3.9947882
1.8342913 -14.997872 3.9861088
1.734982 -14.946419 3.9695158
1.6373241 -14.902962 3.9552202
1.5383701 -14.8406 3.9360745
1.4429646 -14.805494 3.9243317
1.3482237 -14.771703 3.9130995
1.2535418 -14.732491 3.9005909
1.1600771 -14.701351 3.8903799
1.0666909 -14.664798 3.8788924
0.97482538 -14.64309 3.8714893
0.88379174 -14.629495 3.8663838
0.7910741 -14.580577 3.8520885
0.69940877 -14.539765 3.8400903
0.60823357 -14.497415 3.827837
0.51763916 -14.455461 3.8158391
0.4276112 -14.413908 3.8040962
0.3384774 -14.387262 3.796438
0.24946752 -14.3475 3.7854609
0.16095841 -14.307187 3.7744842
0.073008314 -14.276966 3.7663152
-0.014577042 -14.258775 3.7614651
-0.10199138 -14.247783 3.758657
-0.18896408 -14.213051 3.7497222
-0.27510226 -14.156522 3.7351716
-0.36129388 -14.128471 3.7282791
-0.44748816 -14.110526 3.7241945
-0.53292799 -14.077563 3.7162809
-0.6174283 -14.031527 3.7050488
-0.70128709 -13.983054 3.693306
-0.78484589 -13.938909 3.6828396
-0.86951548 -13.920321 3.6792657
-0.95332503 -13.891573 3.6731391
-1.0367427 -13.861358 3.6667573
-1.1199033 -13.831606 3.6606307
-1.2013119 -13.784983 3.6501641
-1.2857826 -13.776389 3.649909
-1.4030193 -14.097285 3.7372136
-1.5121503 -14.302829 3.7941406
-1.6429912 -14.678591 3.8965065
-1.7676125 -14.961093 3.9743659
-1.8767945 -15.09005 4.0116363
-1.9669718 -15.060035 4.0067863
-2.0602586 -15.054387 4.0085731
-2.1556044 -15.062519 4.0141892
-2.2465575 -15.039447 4.0116363
-2.3374577 -15.016781 4.0093389
-2.4842556 -15.340027 4.0997071
-56.388454 31.560909 17.058079
-53.875469 31.028727 16.411716
-53.460693 31.669788 16.402527
-51.796356 34.224449 16.387976
-51.192451 34.735352 16.33054
-51.205425 35.204918 16.403294
-50.383976 36.492928 16.422184
-49.334335 36.196274 16.1521
-21.356905 17.562836 7.2973065
-20.81333 17.331009 7.1477146
-20.717686 17.467737 7.1515436
-19.790174 16.8946 6.86691
-19.867552 17.172506 6.9302182
-19.770542 17.301729 6.9332819
-18.433729 16.332722 6.499311
-18.259031 16.379025 6.4730172
-18.154608 16.487501 6.4717407
-18.107197 16.648319 6.4911418
-18.168898 16.911938 6.5503664
-17.909271 16.876562 6.4939499
-17.19253 16.401514 6.2703276
-16.604723 16.036539 6.0916333
-16.080132 15.721763 5.9343829
-15.543554 15.384843 5.7710056
-15.109403 15.139809 5.6441331
-14.625232 14.835646 5.4970932
-14.160217 14.541365 5.35567
-13.779145 14.324869 5.2446246
-13.33001 14.02926 5.1062641
-12.947236 13.794959 4.9919
-12.620438 13.613224 4.8979583
-12.259146 13.387363 4.7894654
-12.215689 13.505355 4.8047819
-12.145475 13.594475 4.8098879
-12.086144 13.696289 4.8195882
-12.026654 13.798615 4.8295441
-11.955009 13.887538 4.8349047
-11.91216 14.010718 4.8522635
-11.852083 14.114644 4.8629851
-11.788708 14.215383 4.8726859
-11.723931 14.315125 4.8821311
-11.654116 14.409344 4.8897896
-11.681942 14.626384 4.9390578
-11.596767 14.70386 4.9411001
-11.519992 14.792285 4.9469714
-11.430779 14.864991 4.9477372
-11.348125 14.9464 4.9515662
-11.286361 15.055977 4.9648409
-11.211022 15.148259 4.9724989
-11.157793 15.271411 4.9903684
-11.093293 15.380362 5.003643
-11.03236 15.495397 5.0189595
-10.959312 15.59444 5.0291705
-10.909713 15.728124 5.0506139
-10.832665 15.823488 5.059804
-10.75594 15.920103 5.0695043
-10.687554 16.030045 5.0835447
-10.611846 16.130053 5.0945215
-10.535313 16.229733 5.1054983
-10.469949 16.347807 5.1223469
-10.419542 16.491026 5.1471086
-10.338616 16.587469 5.1573195
-10.270573 16.705778 5.1744232
-10.19244 16.808992 5.1869316
-10.130796 16.940916 5.208375
-10.047287 17.037739 5.2190967
-9.9819269 17.166767 5.2397742
-9.9201679 17.304024 5.2630043
-9.8461571 17.421803 5.2803631
-9.7626028 17.52412 5.2931271
-9.6930542 17.653189 5.3140597
-9.6172266 17.772705 5.3321843
-9.5557632 17.920961 5.3589883
-9.4789009 18.042595 5.3778791
-9.3911266 18.145065 5.3911533
-9.3068428 18.255753 5.4069805
-9.2488871 18.420521 5.43889
-9.1716852 18.549726 5.4603333
-9.0805483 18.652597 5.4741182
-9.0056286 18.790792 5.4983697
-8.9198637 18.908657 5.5167499
-8.8476486 19.057743 5.5443196
-8.7747412 19.20841 5.5724001
-8.6876326 19.330677 5.5923119
-8.6130362 19.483545 5.6211581
-8.5222397 19.602528 5.6403036
-8.4322071 19.725573 5.6607261
-8.3514729 19.873205 5.6882958
-8.2736721 20.031311 5.7189293
-8.182971 20.161434 5.7416487
-8.0927744 20.295683 5.7656446
-7.9980631 20.421482 5.7873435
-7.9205074 20.594706 5.8225718
-7.8544464 20.803019 5.8677554
-7.7316933 20.864422 5.8715849
-7.6577158 21.060488 5.9134502
-7.5660291 21.212715 5.9430623
-7.4759531 21.373734 5.9752274
-7.3791666 21.519806 6.0033078
-7.2780952 21.657246 6.0290904
-7.1861982 21.826393 6.0638084
-7.1025867 22.026508 6.1072054
-6.9891343 22.138824 6.1263514
-6.8948359 22.316164 6.1636214
-6.7977839 22.490396 6.2001262
-6.6728134 22.576189 6.2123795
-6.5406041 22.639002 6.2185063
-6.3894873 22.635904 6.2067633
-6.1941986 22.470554 6.1508579
-6.0132422 22.348484 6.1072054
-5.8330369 22.221304 6.0625319
-5.668766 22.148024 6.0329199
-5.4946165 22.029476 5.9913096
-5.3235059 21.915268 5.951231
-5.1520028 21.791327 5.908855
-4.9997764 21.742435 5.8871565
-4.8470793 21.686838 5.8639264
-4.6960735 21.633968 5.8417172
-4.5120134 21.41923 5.7761111
-4.3594084 21.343256 5.7482858
-4.2062173 21.257683 5.718163
-4.0566058 21.183382 5.691359
-3.9008472 21.069073 5.6540885
-3.7439213 20.938425 5.6127338
-3.5995953 20.869534 5.5882273
-3.4606948 20.82637 5.5708685
-3.3026135 20.658175 5.5203238
-3.1650779 20.608288 5.5016885
-3.0279977 20.55558 5.4825425
-2.8904684 20.493351 5.4610991
-2.7437403 20.355473 5.4197445
-2.6089249 20.295208 5.399322
-2.4721346 20.211023 5.3727736
-2.3360302 20.122087 5.3452034
-2.2000542 20.022635 5.3150806
-2.0698752 19.965551 5.2964458
-1.9402924 19.905704 5.2772999
-1.8100272 19.828651 5.2538142
-1.6798788 19.740156 5.2275209
-1.5520265 19.665272 5.2050567
-1.4282449 19.631994 5.1938243
-0.65686786 9.870574 2.608634
-0.58934689 9.759572 2.5782561
-0.52572972 9.6944571 2.5601315
-0.46451509 9.661768 2.5506861
-0.40469533 9.6518784 2.5473676
-0.34515306 9.645483 2.5450702
-0.28558964 9.6348553 2.5417514
-0.22316138 9.4962702 2.5047364
-0.16399567 9.4462242 2.4912066
-0.10528866 9.3813095 2.4738479
-0.047843892 9.4049835 2.4799745
0.0097869923 9.3248501 2.4587865
0.12338428 9.2611876 2.4421935
0.17943938 9.2206211 2.4317272
0.23564269 9.2048492 2.4278979
0.29052711 9.1529779 2.4146235
0.34577009 9.1268682 2.4082415
0.39959988 9.0753117 2.3952224
0.45426145 9.0524111 2.3898616
0.50811404 9.0195274 2.381948
0.56278479 9.0056248 2.3791401
0.61922228 9.0193653 2.3837349
0.67750704 9.0549269 2.3942013
0.7324304 9.0428896 2.3921592
0.78572166 9.0131817 2.3855219
0.83858615 8.9821978 2.3786294
0.89186567 8.9586039 2.3737793
0.94417608 8.9279633 2.367142
0.99936932 8.9258451 2.3681631
1.0529845 8.9099426 2.3656104
1.1056072 8.8870029 2.3612707
1.1577377 8.8618364 2.3564203
1.2092079 8.8334913 2.3508043
1.2625649 8.8201618 2.3492727
1.317089 8.8151178 2.3500385
0.5958479 3.6758091 0.97996682
0.63143617 3.6139295 0.96541601
0.64792085 3.5785897 0.95699185
0.67004436 3.5754969 0.95724714
0.69197059 3.5713184 0.95724714
0.71159625 3.5556281 0.95418382
0.73379046 3.5530889 0.95469439
0.75457215 3.5437911 0.95341802
0.7688514 3.5050938 0.94422799
0.78693968 3.4852195 0.94014359
0.79803836 3.4360585 0.92814559
0.81439596 3.4113469 0.92278475
0.83531225 3.4062858 0.92278475
0.85714048 3.4048469 0.92380583
0.8816399 3.4135664 0.92763501
0.90528923 3.4183743 0.93044305
0.92852443 3.4211535 0.93274057
0.93785369 3.3734703 0.92125309
0.9757272 3.4281013 0.93784612
0.98620576 3.3858442 0.9278903
1.000617 3.3584158 0.92201895
2.5205388 8.2776356 2.281369
2.5101011 8.0653687 2.226995
2.5560272 8.0387583 2.2239316
2.5999303 8.0063705 2.2193367
2.6441405 7.9755826 2.2152522
2.688071 7.9445539 2.2111678
2.7339287 7.9196849 2.2088702
2.777014 7.8872561 2.2045305
2.8227441 7.8627882 2.2024884
2.8696074 7.8416877 2.2014673
2.9109139 7.8058133 2.1963618
2.9539485 7.7751513 2.1927879
2.9991586 7.7505679 2.1910009
3.0452411 7.7284212 2.1899798
3.0926044 7.7095904 2.1899798
3.1354666 7.6797276 2.1869164
3.1784501 7.6505222 2.1841085
3.215548 7.6077189 2.1774712
3.2545316 7.5700798 2.1723657
3.2978215 7.5428805 2.1703234
3.3456125 7.5260377 2.1713445
3.3897378 7.5009623 2.1700683
3.435699 7.480022 2.1700683
3.4831665 7.4623046 2.1710894
3.5284743 7.439918 2.1708341
3.5740585 7.418128 2.1708341
3.6127093 7.3821626 2.1667495
3.6519139 7.347734 2.1631758
3.7008498 7.3329573 2.1654732
3.7426884 7.3040876 2.1636863
3.7865429 7.2792697 2.1631758
3.8302338 7.254189 2.1626651
3.8714759 7.2245846 2.1608782
3.9138854 7.1972961 2.159857
3.9612424 7.1790714 2.161644
4.0038013 7.1520991 2.1608782
4.0461779 7.1248755 2.1601124
4.0898194 7.0999141 2.1601124
4.1318436 7.0721817 2.1593466
4.1746674 7.0458641 2.1590912
4.2227998 7.0284042 2.161644
4.2628284 6.997407 2.1601124
4.3000956 6.96207 2.1573043
4.336576 6.9257197 2.1542411
4.3727732 6.889184 2.1511776
4.4139156 6.8605971 2.1506672
4.4548726 6.8317647 2.1501565
4.4999056 6.8091416 2.1516883
4.5432148 6.7838125 2.1524541
4.5847545 6.7558088 2.1524541
4.6250253 6.7259564 2.1519434
4.6662078 6.6974511 2.1519434
4.7139044 6.6781731 2.1550069
4.769413 6.6695733 2.161644
4.8113813 6.6417489 2.1621547
4.8531876 6.6136608 2.1626651
4.8954072 6.5860863 2.1634309
4.9456115 6.569057 2.1677706
4.9993076 6.556272 2.1736422
5.0098968 6.4872093 2.1608782
0.59223115 0.75616533 0.25038514
0.56744754 0.71537614 0.23787655
0.55549431 0.69151527 0.23098408
0.56033641 0.68884438 0.23123935
0.57253581 0.69510168 0.23455796
0.57060343 0.68414539 0.23200518
0.57479048 0.68063134 0.23200518
0.57267857 0.66973794 0.22945242
0.57298374 0.66182238 0.22792076
0.57130337 0.65174568 0.22562326
0.56567407 0.63737255 0.2217941
0.56957424 0.63388962 0.2217941
0.57605296 0.63324589 0.22281522
0.57861888 0.62827587 0.22230466
0.57982808 0.62188274 0.22128356
0.58363295 0.61831325 0.22128356
0.59408963 0.62171656 0.22383632
0.60460979 0.6250146 0.2263891
0.60437799 0.61714482 0.22485743
0.58162791 0.58662397 0.21490163
0.57631993 0.57416493 0.21158302
0.57432395 0.56518745 0.20954081
0.52652335 0.51173496 0.19065031
0.51641417 0.49575892 0.18580005
0.50963384 0.48325673 0.18222617
0.49850932 0.46118963 0.17609952
0.49911204 0.45049715 0.17431258
0.49898288 0.44484934 0.17329147
0.50387782 0.44369859 0.1740573
0.50488836 0.43369687 0.17252564
0.50869161 0.42622492 0.17201509
0.51204151 0.42371282 0.17227037
0.52697521 0.42530203 0.17558897
0.55492896 0.43676651 0.18324728
0.57361734 0.44582954 0.1886081
0.58170712 0.44642743 0.19039503
0.65219873 0.49430346 0.21285941
0.71091932 0.53204995 0.23123935
0.74447954 0.55011094 0.24119516
0.76111239 0.55522978 0.24553487
0.77313054 0.55677122 0.24834292
0.78440839 0.55762488 0.25089568
0.78781515 0.55280137 0.25089568
0.79357553 0.54961032 0.25166151
0.79773074 0.54527694 0.2519168
0.78503877 0.52954566 0.24681126
0.78505546 0.52257329 0.24579014
0.79309344 0.52093506 0.2473218
0.7962749 0.51605892 0.2473218
0.80919653 0.51742119 0.25038514
0.82461655 0.52019346 0.25421429
0.83599812 0.52023846 0.25676706
0.84493995 0.51864392 0.25855398
0.84975988 0.5144524 0.25906456
0.84875149 0.50674736 0.25778815
0.8443495 0.4971095 0.25549066
0.85239869 0.49483562 0.25702232
0.85961288 0.49200061 0.25829872
0.84746456 0.47815335 0.25370374
0.84362549 0.46917981 0.25166151
0.86089587 0.47190613 0.25600123
1.1394333 0.25395438 0.3050144
1.3157685 0.28490767 0.35224065
1.1197575 0.23516873 0.29888776
1.1315998 0.23042233 0.30169579
1.1813644 0.23304762 0.31471494
1.2748839 0.24343713 0.33947679
1.3352973 0.24652527 0.35530397
1.3129907 0.234072 0.34892204
1.3039215 0.22420314 0.34611401
1.2823818 0.21239364 0.33998737
1.2597923 0.20070441 0.33360544
1.2504879 0.19135581 0.33079737
1.2717259 0.1866391 0.33615822
1.2709323 0.17856228 0.33564764
1.2643385 0.1697271 0.33360544
1.2519305 0.16023974 0.33003154
1.2452124 0.15161563 0.32798934
1.1961778 0.13817261 0.31471494
1.1854701 0.12956275 0.31165162
1.1737405 0.12098981 0.30833301
1.171574 0.11350409 0.30756718
1.1703227 0.10613745 0.30705664
1.1709518 0.098954484 0.30705664
1.1840672 0.092757188 0.31037521
1.1894357 0.085841097 0.31165162
1.1947637 0.078862607 0.31292799
1.2029459 0.071997009 0.31497023
1.2033651 0.064614512 0.31497023
1.2037388 0.057229586 0.31497023
1.1963392 0.049517885 0.31292799
1.1917893 0.042003106 0.31165162
1.1891253 0.034603473 0.31088579
1.1844822 0.027192537 0.30960938
1.1788265 0.019823028 0.30807772
1.1847267 0.01265507 0.30960938
1.184782 0.0053854855 0.30960938
1.2048093 -0.0022835704 0.29183954
1.2164284 -0.0097713955 0.29469177
1.222173 -0.017318482 0.29611787
1.2366108 -0.025115171 0.29968315
1.2412884 -0.032831494 0.30087158
1.2303845 -0.04009774 0.29825705
1.2242917 -0.047420088 0.29683092
1.2210666 -0.054800246 0.29611787
1.2177972 -0.062142622 0.29540482
1.2076954 -0.069057792 0.29302797
1.2062796 -0.076405235 0.29279026
1.210633 -0.084142826 0.29397869
1.2139682 -0.091863275 0.29492944
1.2211264 -0.099945307 0.29683092
1.2253281 -0.10786267 0.29801935
1.2343136 -0.1162916 0.30039623
1.279001 -0.12843047 0.31156746
1.2269986 -0.13081113 0.2989701
1.2232772 -0.13801028 0.29825705
1.2195138 -0.14516871 0.297544
1.2157087 -0.15228617 0.29683092
1.2128253 -0.15948918 0.29635558
1.2089373 -0.16652988 0.2956425
1.204047 -0.17339028 0.29469177
1.1971972 -0.17990801 0.29326564
1.2075864 -0.18905501 0.29611787
1.2064036 -0.19646105 0.29611787
1.2137949 -0.20531899 0.29825705
1.2096421 -0.21225877 0.297544
1.2102283 -0.22002478 0.29801935
1.1725819 -0.22061625 0.28898731
56.396915 -12.05939 14.109234
56.138584 -12.726506 14.082613
55.957275 -13.046906 14.056943
55.70425 -13.348809 14.013683
55.483589 -13.656458 13.978982
55.31588 -13.975704 13.958065
55.246948 -14.319483 13.962582
55.220001 -14.674668 13.978269
55.086746 -15.001729 13.967572
55.010502 -15.344151 13.971851
54.845264 -15.661396 13.954024
54.718304 -15.988908 13.946419
54.593105 -16.316563 13.939763
54.466881 -16.64357 13.933346
54.383202 -16.98354 13.938337
54.273342 -17.315434 13.937149
54.181778 -17.653238 13.94119
54.06691 -17.983519 13.939763
53.97578 -18.321796 13.944992
53.922924 -18.67362 13.96068
53.770695 -18.991194 13.951172
53.695194 -19.335905 13.962106
53.596512 -19.672709 13.967572
53.468426 -19.998817 13.965909
53.42186 -20.355915 13.986112
53.311348 -20.689297 13.990152
53.205078 -21.024588 13.995857
53.153473 -21.382189 14.016536
53.188473 -21.776386 14.060745
52.957016 -22.061993 14.035075
52.909191 -22.42404 14.058606
52.910645 -22.808632 14.095923
52.791046 -23.142216 14.101627
52.664913 -23.473213 14.106143
52.590675 -23.827988 14.125158
52.499943 -24.176233 14.14037
52.51601 -24.57531 14.185055
52.447571 -24.936705 14.207635
52.327686 -25.274523 14.216905
52.435848 -25.724754 14.288924
52.375259 -26.094959 14.315783
52.359768 -26.489504 14.355714
52.375103 -26.902145 14.404915
52.254696 -27.246811 14.417512
52.25222 -27.654619 14.463386
52.27494 -28.07859 14.517102
52.175018 -28.438795 14.537543
52.257092 -28.900839 14.609562
52.216007 -29.297937 14.648067
52.277534 -29.75568 14.716283
52.284927 -30.186134 14.770238
52.281452 -30.61338 14.822053
52.188675 -30.990629 14.849387
52.058285 -31.346849 14.866738
52.235542 -31.891939 14.972984
52.247005 -32.340683 15.032881
52.298523 -32.818127 15.105375
52.336311 -33.291161 15.175017
52.425762 -33.801674 15.260821
52.580025 -34.359703 15.36683
52.414124 -35.176651 15.443364
52.483238 -35.692055 15.527981
52.4888 -36.168839 15.595008
52.869698 -37.3964 15.84339
52.598976 -37.691246 15.831267
52.528648 -38.130825 15.880231
51.893955 -38.651291 15.830555
53.189739 -41.684315 16.533154
53.041763 -42.096245 16.567142
48.183105 -39.707386 15.275083
31.769146 -31.898773 11.013374
31.48222 -32.001011 10.981763
31.380722 -32.291798 11.015276
31.378407 -32.688358 11.084681
31.203979 -32.90847 11.094188
31.014084 -33.112785 11.098704
30.864414 -33.360928 11.118195
30.632269 -33.520279 11.108449
25.207462 -33.271072 10.211185
24.991785 -33.410336 10.206669
24.830746 -33.623219 10.224971
24.617102 -33.765526 10.222118
24.431019 -33.9459 10.231151
23.942118 -33.700821 10.112782
28.488939 -53.561207 14.842019
28.163366 -53.741886 14.843921
27.934227 -54.109608 14.897875
27.657852 -56.083408 15.298614
7.410429 -16.53409 4.4306641
7.2880716 -16.532141 4.4180665
7.1432233 -16.476734 4.3914456
7.0198984 -16.468428 4.3776598
6.8943176 -16.452959 4.3622103
6.7580953 -16.409628 4.3396301
6.6128278 -16.340935 4.3106327
6.4812188 -16.302675 4.2899537
6.3697596 -16.313181 4.2823482
6.3909025 -16.668489 4.3653002
6.2823477 -16.691027 4.361022
6.14885 -16.645433 4.3391547
6.0048962 -16.567783 4.3092065
5.882627 -16.546658 4.2942324
5.7592454 -16.520071 4.2780695
5.594635 -16.370348 4.2302947
5.485754 -16.379499 4.2238774
5.3694024 -16.364859 4.2115173
5.2483854 -16.333687 4.195117
5.1017227 -16.218256 4.1573253
4.9906826 -16.21212 4.1478176
4.8726282 -16.181051 4.1321306
4.7518516 -16.137966 4.1135912
4.6280274 -16.08094 4.0917239
4.4982471 -15.998694 4.0636768
4.3850808 -15.971666 4.049891
4.263617 -15.911016 4.0277863
4.1467481 -15.863576 4.0092468
4.0323019 -15.821891 3.9923711
3.9201627 -15.786002 3.9771593
3.8035936 -15.728563 3.9567182
3.6925502 -15.690147 3.9412687
3.5821223 -15.650962 3.9258192
3.4746342 -15.621447 3.9129841
3.3668237 -15.587404 3.8991983
3.2557764 -15.534566 3.8808966
3.1437645 -15.472387 3.8604555
3.0339518 -15.416094 3.8416784
2.9300363 -15.385756 3.8295562
2.8310039 -15.378608 3.8233764
2.7189112 -15.296227 3.7986572
2.6194243 -15.280071 3.7905757
2.5178647 -15.248897 3.7789292
2.414654 -15.203622 3.7639551
2.3145838 -15.173981 3.7530215
2.2152495 -15.145608 3.7425632
2.1150043 -15.106969 3.7297282
2.0159605 -15.072487 3.7180817
1.9153315 -15.020979 3.7023945
1.8134226 -14.952414 3.6826665
1.7169795 -14.922729 3.6726837
1.6228608 -14.909809 3.6669791
1.5297587 -14.904026 3.6631763
1.4297029 -14.824181 3.641309
1.3341768 -14.782369 3.6289494
1.2411705 -14.763174 3.6222942
1.1469417 -14.724029 3.6108854
1.0531011 -14.682346 3.5990009
0.95987898 -14.641037 3.5873544
0.86731863 -14.601079 3.5761831
0.77611113 -14.576056 3.568815
0.68369013 -14.517477 3.5533652
0.5930503 -14.483548 3.5440955
0.50373071 -14.474295 3.5410056
0.41335097 -14.42274 3.5276952
0.3237322 -14.375479 3.5155733
0.23515417 -14.354856 3.5101066
0.14690104 -14.339518 3.5060658
0.058626182 -14.270213 3.4889524
-0.028867938 -14.237279 3.4808712
-0.11610658 -14.222264 3.4773059
-0.20293963 -14.191175 3.4699376
-0.28935581 -14.157615 3.4620938
-0.37534204 -14.12256 3.4540126
-0.4607501 -14.082129 3.4447429
-0.54631764 -14.057683 3.4395137
-0.63129675 -14.025926 3.4326208
-0.7157082 -13.989776 3.4247773
-0.80014455 -13.960876 3.4188352
-0.88400716 -13.927592 3.4119422
-0.9672215 -13.889929 3.4040985
-1.0496398 -13.846928 3.3950665
-1.1328371 -13.818928 3.3898375
-1.214877 -13.780754 3.3822315
-1.2977688 -13.755633 3.3779531
-1.420825 -14.132067 3.4725521
-1.5285451 -14.320117 3.52104
-1.6640301 -14.732263 3.6249087
-1.7911792 -15.030419 3.7009683
-1.9230154 -15.33527 3.7789292
-2.0623353 -15.666985 3.8637831
-2.2075212 -16.010063 3.9517269
-2.3625369 -16.390392 4.0491781
-2.4601724 -16.356377 4.0444245
-2.5582314 -16.32658 4.0408592
-2.6519544 -16.271269 4.0311141
-2.7024524 -15.963545 3.9588575
-2.8578126 -16.273853 4.0401459
-25.882986 -77.816177 20.064217
-26.275669 -77.407555 20.00004
-51.347679 23.645609 13.829952
-51.206024 23.962286 13.831141
-51.068558 24.281034 13.833993
-50.901993 24.585901 13.829477
-50.727505 24.886642 13.823298
-50.513859 25.167545 13.806897
-50.350681 25.47307 13.804758
-50.166649 25.76778 13.797389
-49.974007 26.057598 13.788119
-49.798584 26.356016 13.78408
-49.6539 26.670732 13.78907
-49.53196 26.998144 13.800955
-49.331371 27.282755 13.791448
-49.189297 27.599667 13.798816
-49.04435 27.915382 13.805946
-48.791382 28.169163 13.783129
-48.616783 28.46752 13.78289
-48.431171 28.759338 13.780039
-48.307053 29.088034 13.79525
-48.133465 29.387438 13.796914
-47.979496 29.699097 13.804758
-47.793896 29.991383 13.804045
-47.63356 30.299717 13.811175
-47.473686 30.608789 13.819019
-47.332146 30.930326 13.832805
-47.18034 31.245913 13.844213
-47.03693 31.567839 13.858712
-46.912228 31.903379 13.879391
-46.748379 32.213223 13.889136
-46.603207 32.536713 13.905061
-46.421719 32.835518 13.910766
-46.260426 33.149158 13.923125
-46.097034 33.462055 13.935485
-45.871281 33.729885 13.929543
-45.766285 34.087296 13.960917
-46.641098 35.185871 14.29344
-46.411201 35.461369 14.289399
-46.37096 35.883385 14.344543
-46.108631 36.134884 14.331707
-45.967449 36.481731 14.35714
-45.829807 36.833073 14.384474
-22.084822 17.97344 6.964633
-21.232021 17.497046 6.7293243
-20.075674 16.751995 6.3951378
-19.797405 16.726915 6.3390441
-19.698088 16.851233 6.3402324
-19.608271 16.983864 6.3447485
-19.523409 17.121149 6.3511658
-18.395283 16.332581 6.0165043
-18.246321 16.401638 6.0005794
-18.136719 16.505442 5.9977269
-18.048676 16.62892 6.002243
-18.236107 17.00967 6.0992188
-17.761332 16.771793 5.9746714
-17.158876 16.403227 5.8056769
-16.559538 16.025888 5.6359692
-16.053614 15.728165 5.4964476
-15.516118 15.38928 5.3445663
-15.003966 15.065057 5.1998153
-14.554976 14.794692 5.0755057
-14.103791 14.513128 4.9490566
-13.680837 14.251827 4.8311648
-13.24693 13.970387 4.7080436
-12.886062 13.757903 4.6096416
-12.167484 13.151513 4.3812251
-12.248407 13.403033 4.4399338
-12.196527 13.511825 4.4511051
-12.127612 13.602358 4.4563341
-12.068315 13.704217 4.4653659
-12.014598 13.813188 4.4767752
-11.958732 13.920541 4.4877086
-11.888803 14.012172 4.4936509
-11.830051 14.117616 4.5041089
-11.769835 14.222116 4.5143294
-11.707549 14.324903 4.5240746
-11.698131 14.493977 4.5547361
-11.751851 14.744748 4.6108298
-11.672572 14.83108 4.615346
-11.605192 14.933103 4.6248531
-11.531677 15.027918 4.6322217
-11.445703 15.106909 4.6348362
-11.358029 15.183854 4.6369753
-11.368515 15.393906 4.6797585
-11.278423 15.469651 4.6816602
-11.207123 15.571675 4.6916432
-11.155807 15.702704 4.7104201
-11.074306 15.792333 4.7168379
-10.876587 15.714623 4.6735787
-10.824886 15.846834 4.693069
-10.756226 15.955645 4.7056665
-10.68233 16.057737 4.7163625
-10.603856 16.153837 4.7253942
-10.552061 16.291971 4.7467861
-10.503153 16.436625 4.7700796
-10.456491 16.58704 4.7950363
-10.40889 16.738323 4.820231
-10.321225 16.826715 4.8273616
-10.235381 16.918818 4.8356805
-10.152279 17.016336 4.8456635
-10.061961 17.102589 4.8525562
-9.9875383 17.216938 4.8675308
-9.8928003 17.297291 4.8729973
-9.8308458 17.436356 4.895102
-9.7727451 17.584648 4.9198213
-9.6870623 17.685173 4.9312305
-9.6097403 17.802402 4.9473929
-9.5263252 17.909914 4.9609413
-9.4496174 18.031696 4.9785299
-9.3829117 18.174786 5.0020609
-9.2967529 18.282236 5.0158467
-9.2191963 18.408417 5.0348616
-9.1382923 18.529976 5.0526881
-9.0630312 18.665213 5.0743175
-8.9973431 18.823008 5.1021266
-8.9341936 18.989483 5.1323128
-8.8326082 19.076559 5.1411071
-8.742774 19.190502 5.1572695
-8.6618042 19.326221 5.1793747
-8.5916424 19.489218 5.2088475
-8.5043507 19.616428 5.2288132
-8.4154396 19.742405 5.2485409
-8.3373137 19.896696 5.2758751
-8.2587194 20.053461 5.3039217
-8.1650324 20.176691 5.3231745
-8.0801897 20.324797 5.349082
-7.9927754 20.469904 5.3742771
-7.9111862 20.633747 5.4044628
-7.8186474 20.772808 5.4282317
-7.7280636 20.92062 5.4543772
-7.6220579 21.029743 5.4705396
-7.5325737 21.187775 5.4995375
-7.464457 21.411531 5.5456486
-7.3483295 21.501968 5.5572948
-7.2412429 21.621258 5.5765476
-7.1799049 21.883095 5.6326413
-7.0749145 22.01829 5.6561723
-6.9592071 22.123367 5.6720972
-6.8716254 22.322544 5.7122664
-6.7600141 22.448925 5.7338958
-6.6391525 22.547754 5.7486324
-6.5076618 22.612335 5.7548122
-6.3425026 22.558331 5.7310433
-6.1671939 22.462877 5.6970544
-5.9877658 22.345486 5.657836
-5.7952738 22.170359 5.6043568
-5.6344228 22.108551 5.579875
-5.4733787 22.040894 5.5542049
-5.296484 21.902231 5.5109463
-5.1386313 21.835039 5.4859891
-4.9631672 21.685307 5.4405913
-4.8095589 21.623381 5.4175358
-4.6484904 21.52146 5.3847351
-4.49543 21.449755 5.3597779
-4.3339486 21.330341 5.3231745
-4.1827302 21.253603 5.2975044
-4.0255313 21.138601 5.2625647
-3.8809807 21.082659 5.242599
-3.7301292 20.985573 5.2126503
-3.5742159 20.8501 5.1734324
-3.4337142 20.795927 5.154655
-3.286243 20.691893 5.1237559
-3.1365168 20.56283 5.0869145
-3.0070536 20.559584 5.0814481
-2.8645511 20.461248 5.0526881
-2.7281334 20.397568 5.0327225
-2.5894115 20.307934 5.006577
-2.4542313 20.236654 4.9851851
-2.3194687 20.15966 4.962605
-2.1886866 20.108814 4.9466801
-2.0587149 20.058092 4.9309926
-1.9287958 19.999765 4.9136415
-1.7989718 19.932863 4.8943892
-1.6718316 19.886419 4.8803658
-1.5468378 19.858536 4.8710957
-0.70486641 9.8264503 2.4077194
-0.64582992 9.8499756 2.412473
-0.57818121 9.7325487 2.3827622
-0.51633555 9.6961441 2.3730171
-0.45459294 9.6515865 2.3613706
-0.39452907 9.6338139 2.3563793
-0.33510572 9.6273165 2.3542399
-0.27594388 9.6262779 2.3535268
-0.21335395 9.4714432 2.3152595
-0.15482089 9.4473228 2.3090796
-0.09672109 9.4354687 2.3059897
-0.038605496 9.3824615 2.292917
0.018861895 9.3320112 2.2805574
0.075692855 9.2792692 2.2677224
0.13115443 9.1756783 2.2425277
0.1881877 9.2106333 2.251322
0.099882595 3.7629726 0.91814184
0.12430447 3.8030634 0.92812467
0.14907113 3.839112 0.93715674
0.17196935 3.8235698 0.93359143
0.19602279 3.8340836 0.93644369
0.21987814 3.8386269 0.93786979
0.26359305 3.78719 0.92598546
0.30695227 3.7459145 0.91671574
0.32865131 3.7294466 0.91315043
0.35052484 3.7167225 0.91053593
0.40862912 3.6189117 0.88819343
0.42783788 3.5912588 0.88201362
0.45228273 3.6078417 0.88676733
0.46921355 3.5655143 0.87702221
0.49400139 3.5837376 0.88225126
0.51958477 3.6056354 0.88843113
0.5389536 3.5841291 0.88391507
0.56484503 3.6057053 0.89009494
0.59195894 3.6328497 0.89770085
0.61164433 3.6138258 0.89389789
0.62389392 3.5535593 0.87987441
0.643426 3.5372407 0.8767845
0.68255293 3.6258192 0.89984006
0.70311731 3.6129818 0.89770085
0.72240126 3.5943153 0.89413559
0.74029911 3.5698421 0.88914418
0.78148508 3.6554699 0.91172433
0.78739381 3.5756662 0.89294714
0.81812382 3.609607 0.90269226
0.82834613 3.553437 0.88985723
0.83225125 3.473664 0.87108004
0.87096125 3.5392315 0.88890648
0.8767193 3.4707236 0.87298155
0.93528676 3.6091402 0.90934747
0.93321514 3.512274 0.88629192
0.96266061 3.5355351 0.89366019
1.0018218 3.5922489 0.90958518
0.96516728 3.3805528 0.85729426
0.9796257 3.3531229 0.8518275
0.98265779 3.2884169 0.83685327
1.0011135 3.276752 0.83542717
1.0443649 3.3447218 0.85444206
1.0920302 3.4233863 0.87630916
2.5944042 7.9632926 2.0464368
2.6419909 7.9435368 2.045486
2.6847496 7.9097004 2.0409701
2.7313249 7.8875709 2.0395439
2.7803175 7.8724947 2.0400193
2.83219 7.8653398 2.0426338
2.8793936 7.8450785 2.0419207
2.926795 7.8254433 2.0414453
2.9733727 7.8037066 2.0404947
3.0180366 7.7771659 2.0383554
3.0603447 7.7449503 2.0347903
3.0983837 7.7025967 2.0286102
3.1385951 7.6663609 2.0240943
3.1803463 7.6344051 2.0207667
3.2206864 7.599544 2.016726
3.2657177 7.5760713 2.0157752
3.3117521 7.5550008 2.0155375
3.3576508 7.5336509 2.0153
3.4030116 7.5111375 2.0148246
3.4445658 7.4804106 2.0122099
3.4862828 7.450336 2.0098331
3.5319316 7.4288049 2.0098331
3.5787148 7.4096174 2.0105462
3.6249676 7.3892632 2.0110216
3.672405 7.3712287 2.0122099
3.7105486 7.3346887 2.0084071
3.7519333 7.3048716 2.0065055
3.7957866 7.2799897 2.0060301
3.8376579 7.251411 2.0046041
3.8816199 7.226871 2.0043664
3.9207764 7.1935368 2.0017519
3.9573197 7.1557436 1.9979489
4.0030532 7.1347156 1.9988996
4.0414701 7.1007333 1.9962851
4.0888486 7.082531 1.9981866
4.1332111 7.0589852 1.9986619
4.1843815 7.0468545 2.0024648
4.2295456 7.0243759 2.0034156
4.2715545 6.9966331 2.0029402
4.3098035 6.9628582 2.0008011
4.3488312 6.9305234 1.9991373
4.3907533 6.9028897 1.9988996
4.431973 6.874186 1.9984242
4.4602537 6.8257213 1.9922444
4.5106325 6.8111825 1.9960474
4.5550475 6.7874103 1.9972358
4.5971546 6.7601371 1.9974735
4.6379962 6.7310019 1.9972358
4.6803217 6.70401 1.9977112
4.7303433 6.6878543 2.0015142
4.7763824 6.6658092 2.0036533
4.8194757 6.6395206 2.0046041
4.865303 6.6168671 2.0067432
4.9063916 6.5876684 2.0069809
4.9490604 6.5605412 2.0079317
4.991581 6.5331383 2.0088823
5.0446515 6.5192876 2.0141115
5.0869546 6.4912701 2.0150623
5.1200466 6.4515648 2.0124476
5.1285028 6.3814144 2.0003257
5.136292 6.3114042 1.9882038
0.54987806 0.66752183 0.20864947
0.56516546 0.67755961 0.21292782
0.57181984 0.67704695 0.21387856
0.57154334 0.6683588 0.21221475
0.5680021 0.65602881 0.20936252
0.568174 0.64814943 0.20793641
0.56827086 0.64029288 0.20651029
0.56959146 0.63390446 0.20555955
0.5702014 0.6268056 0.20437112
0.5733785 0.62258083 0.20413344
0.57586265 0.6176303 0.20365806
0.57830775 0.61267281 0.2031827
0.58071375 0.60770857 0.20270732
0.57700104 0.59645599 0.20009278
0.57249266 0.58457839 0.19724055
0.56922847 0.57415807 0.19486369
0.56929958 0.56722736 0.19367526
0.56030548 0.55146188 0.18939692
0.55322957 0.53785938 0.18583162
0.53970158 0.51831096 0.18012716
0.52102119 0.49427101 0.17275889
0.51908153 0.48641673 0.1710951
0.52063036 0.48190325 0.17061973
0.52859676 0.48328644 0.17228353
0.53371531 0.48198649 0.17299658
0.53956282 0.48128822 0.17394733
0.535945 0.47219095 0.17180815
0.53150314 0.46251893 0.1694313
0.51121545 0.43396705 0.16111229
0.49674478 0.41647327 0.15564552
0.53340691 0.43616265 0.16562833
0.54935354 0.43805975 0.16895592
0.57079422 0.44380215 0.17394733
0.62497371 0.47371876 0.18892154
0.6504252 0.4867478 0.19581443
0.68543565 0.50640619 0.20555955
0.75132155 0.54796922 0.22457442
0.77280265 0.55639923 0.23004121
0.77699393 0.55220944 0.23027888
0.79468292 0.55746984 0.23455723
0.79968596 0.55368882 0.2350326
0.81028694 0.55370265 0.23717177
0.81044745 0.5465486 0.23622103
0.82106441 0.54640746 0.23836021
0.82115358 0.53922713 0.23740946
0.81547862 0.52837008 0.23479491
0.79906112 0.51080388 0.22909045
0.83093983 0.52402097 0.23740946
0.837439 0.52096432 0.23836021
0.83813584 0.51429248 0.23764715
0.84293783 0.51014566 0.23812252
0.84438384 0.50396854 0.23764715
0.85080904 0.50074816 0.23859788
0.855546 0.49649307 0.23907326
0.8543604 0.48882306 0.23788483
0.85734367 0.48357162 0.23788483
0.84416294 0.46933684 0.2333688
0.84702688 0.46414834 0.2333688
0.83703738 0.45202142 0.22980352
0.84494066 0.44961378 0.23122963
1.2540908 0.22307749 0.30871522
1.2046949 0.20668051 0.29611787
1.2088155 0.19975944 0.29683092
1.217693 0.19355734 0.29873243
1.2140565 0.18534976 0.297544
1.2065209 0.17663188 0.29540482
1.2027721 0.16855215 0.29421639
1.19897 0.1605251 0.29302797
1.1970417 0.15279679 0.29231492
1.1902424 0.1445135 0.29041341
1.1853169 0.1365415 0.28898731
1.1822699 0.12884559 0.28803656
1.1782069 0.12109305 0.28684813
1.1760272 0.11358172 0.28613508
1.1737996 0.10610171 0.285422
1.1792682 0.099304236 0.28661045
1.1817921 0.092217356 0.2870858
1.1881489 0.085381165 0.28851193
1.1934967 0.078406885 0.28970036
1.1988035 0.071370177 0.29088879
1.1904892 0.063548401 0.28874961
1.2015296 0.056745008 0.29136416
1.2018552 0.049371492 0.29136416
1.1953402 0.041759711 0.28970036
1.192661 0.034341011 0.28898731
1.189936 0.026956761 0.28827423
1.1881366 0.019623147 0.28779888
1.1911485 0.012362326 0.28851193
1.1960586 0.0050732358 0.28970036
1.2013878 -0.0035609207 0.26691896
1.205246 -0.010965616 0.26779494
1.2188147 -0.018560624 0.27086088
1.2274575 -0.026221205 0.27283183
1.2331258 -0.033909775 0.27414578
1.229969 -0.041378736 0.27348882
1.2296919 -0.048924904 0.27348882
1.2235203 -0.056204017 0.27217484
1.220229 -0.063559785 0.27151784
1.2217643 -0.071158096 0.27195585
1.2174097 -0.078404814 0.27107987
1.2169057 -0.085873224 0.27107987
1.2192746 -0.093560643 0.27173686
1.2206224 -0.10120031 0.27217484
1.2287258 -0.10946215 0.27414578
1.2280312 -0.11699941 0.27414578
1.2408813 -0.12590337 0.27721173
1.2575486 -0.13538493 0.28115362
1.2256695 -0.13958362 0.27414578
1.2054132 -0.14478578 0.26976588
1.2035341 -0.1520576 0.2695469
1.1967744 -0.15867347 0.26823294
1.1977113 -0.16628097 0.26867092
1.1889429 -0.17251059 0.26691896
1.187862 -0.17980258 0.26691896
1.1915561 -0.18784462 0.26801392
1.186529 -0.19452322 0.26713794
1.1910851 -0.20277908 0.26845193
1.1830918 -0.2089 0.26691896
1.189467 -0.21755525 0.26867092
1.186192 -0.22448784 0.26823294
1.1598923 -0.22690654 0.26253906
55.956806 -11.268994 12.808532
55.80254 -11.59466 12.789261
55.725574 -11.935818 12.788166
55.656055 -12.27857 12.789261
55.567295 -12.617029 12.786413
55.475533 -12.95464 12.783348
55.368435 -13.288412 12.777216
55.286804 -13.62813 12.777435
55.210655 -13.96926 12.779406
55.143734 -14.312911 12.784005
55.081276 -14.658023 12.790136
55.02042 -15.003934 12.797144
54.958336 -15.349911 12.804371
54.881878 -15.692204 12.808751
54.810783 -16.036329 12.814883
54.690788 -16.366186 12.810065
54.591206 -16.702026 12.810503
54.500732 -17.040752 12.813569
54.30592 -17.346342 12.792545
54.361721 -17.732485 12.831089
54.325954 -18.090368 12.848608
54.253658 -18.436863 12.858025
54.206806 -18.792742 12.874012
54.141071 -19.142883 12.886056
54.034527 -19.479029 12.888904
53.964359 -19.828718 12.900948
53.850815 -20.162886 12.903138
53.77076 -20.509968 12.913869
53.64481 -20.839867 12.914087
53.603031 -21.203085 12.935111
53.512653 -21.547989 12.944966
53.399288 -21.884069 12.949783
53.389187 -22.263508 12.980224
53.301876 -22.612019 12.992488
53.259781 -22.98078 13.016358
53.171383 -23.330666 13.029498
53.07267 -23.676752 13.040667
52.970825 -24.022104 13.051617
52.851673 -24.360153 13.058844
52.766594 -24.714609 13.075048
52.738182 -25.097031 13.105927
52.64381 -25.449457 13.121037
52.587391 -25.821447 13.146222
52.46376 -26.161484 13.155201
52.421513 -26.543287 13.185204
52.266335 -26.8689 13.187393
52.251865 -27.268091 13.225718
52.145649 -27.621073 13.241485
52.03363 -27.971928 13.256376
51.941536 -28.334595 13.276962
51.91695 -28.735929 13.315505
51.821327 -29.099808 13.336529
51.712166 -29.457314 13.354705
51.629292 -29.831171 13.380327
51.510101 -30.185383 13.39719
51.401924 -30.547235 13.417557
51.338047 -30.937092 13.450187
51.297123 -31.343084 13.489606
51.190105 -31.710684 13.512382
51.07637 -32.075554 13.534061
50.981487 -32.453846 13.561437
50.904377 -32.845402 13.594285
50.766396 -33.199314 13.611586
50.679665 -33.588345 13.64334
50.622467 -33.999317 13.683854
50.637955 -34.462452 13.744954
50.448032 -34.788021 13.751085
50.396 -35.210346 13.795542
50.284924 -35.593884 13.824668
50.167076 -35.974537 13.852699
50.009338 -36.328129 13.870438
49.710045 -36.578781 13.849415
49.891479 -37.186317 13.963292
49.805656 -37.599915 14.003587
49.803444 -38.080235 14.068409
49.634426 -38.435883 14.087024
49.577316 -38.880604 14.138268
49.439438 -39.264782 14.167395
49.316956 -39.663403 14.201777
49.056011 -39.951702 14.196959
49.091488 -40.484123 14.278863
48.885597 -40.820854 14.291565
48.524677 -41.027435 14.259373
48.33429 -41.377705 14.277768
48.120041 -41.708649 14.289813
47.885216 -42.02243 14.296383
47.689201 -42.371189 14.315216
47.511017 -42.737396 14.340181
33.052448 -32.405102 10.38623
31.729004 -31.491749 10.030802
31.574409 -31.725262 10.043284
31.342215 -31.880827 10.031459
31.73061 -32.674515 10.219794
30.609547 -31.909573 9.921524
30.758137 -32.460835 10.034087
30.860426 -32.971649 10.133291
30.549568 -33.04361 10.097595
30.33637 -33.219627 10.094311
30.149614 -33.424702 10.100224
29.980955 -33.650597 10.112706
25.394249 -33.117668 9.3639631
25.210588 -33.299309 9.3714085
24.946791 -33.374435 9.3492899
24.744436 -33.530804 9.3503857
24.661184 -33.850769 9.3972502
24.457003 -34.006996 9.3987827
37.272942 -52.503315 14.448803
36.720509 -52.403412 14.359015
36.431023 -52.675087 14.371936
36.086777 -52.867813 14.363833
36.479652 -54.154011 14.652249
36.249317 -54.531212 14.693858
35.851418 -54.65715 14.668236
35.716305 -55.186554 14.751235
35.42532 -55.480324 14.771382
35.016106 -55.588493 14.742694
34.839161 -56.067509 14.812773
29.940031 -53.916897 13.839122
9.4285555 -17.228455 4.4052639
9.3509207 -17.338369 4.4186225
9.2150517 -17.340277 4.4046068
9.025198 -17.237444 4.3643117
8.8933172 -17.242203 4.3516102
8.6954222 -17.115511 4.3060589
8.5566187 -17.101353 4.2891965
8.5386429 -17.330332 4.3334332
8.5015659 -17.525492 4.3691297
8.2988386 -17.37834 4.3196368
8.1252213 -17.286766 4.2843785
8.0484953 -17.400057 4.3001461
7.8829665 -17.320345 4.2683921
7.7366667 -17.279335 4.2464924
7.5903807 -17.235401 4.2241549
7.423986 -17.141975 4.189992
7.2869339 -17.112696 4.1718154
7.1267838 -17.025679 4.139842
6.9976792 -17.009535 4.1253881
6.854413 -16.956264 4.1021748
6.7016211 -16.875582 4.0726104
6.5525613 -16.80003 4.044579
6.3917689 -16.689577 4.0084453
6.2672653 -16.670031 3.9944293
6.1368251 -16.632195 3.9762528
6.0217018 -16.633755 3.9677122
5.8862185 -16.576605 3.9453745
5.7503815 -16.514736 3.9221611
5.6155267 -16.451828 3.8989477
5.4866142 -16.402697 3.8792381
5.3615556 -16.361877 3.8617187
5.2315407 -16.302492 3.8400381
5.1135712 -16.277502 3.8266795
4.9897976 -16.231163 3.8085029
4.8766217 -16.216623 3.797991
4.7500482 -16.154505 3.7765296
4.6263084 -16.098011 3.7566011
4.512938 -16.074427 3.7445564
4.3809385 -15.980427 3.716306
4.268929 -15.955167 3.7042613
4.1502481 -15.901756 3.6858659
4.0316625 -15.844656 3.6668131
3.9219191 -15.818903 3.6552064
3.8082924 -15.77438 3.6394389
3.6935749 -15.721462 3.6219194
3.5789986 -15.664879 3.6037426
3.4654679 -15.608438 3.5857852
3.3595529 -15.582671 3.5750544
3.2406967 -15.492207 3.5496509
3.141892 -15.49363 3.54549
3.030966 -15.432194 3.5270946
2.9316638 -15.426537 3.5216196
2.8235524 -15.3713 3.504976
2.7199793 -15.336457 3.4931502
2.6167758 -15.299961 3.4811056
2.5153921 -15.270481 3.4708128
2.4126363 -15.228768 3.4578922
2.3116617 -15.19409 3.4467235
2.2117677 -15.16261 3.4364307
2.1092429 -15.108252 3.4211011
2.0087593 -15.062879 3.4079614
1.9063271 -14.996518 3.3902228
1.8119315 -14.988561 3.3858428
1.7161485 -14.966437 3.378397
1.6173373 -14.912663 3.3639433
1.5197473 -14.863096 3.3505847
1.4226401 -14.810952 3.3367879
1.3270166 -14.766925 3.3249624
1.2344296 -14.751454 3.3197064
1.1401209 -14.710111 3.3087568
1.0461577 -14.665247 3.2971499
0.95393115 -14.637312 3.2894852
0.86214441 -14.609773 3.2820394
0.77011299 -14.569967 3.2719655
0.68006092 -14.560773 3.2688997
0.58817124 -14.502276 3.254884
0.4973948 -14.453929 3.2432773
0.40786913 -14.427449 3.2367074
0.31855738 -14.394563 3.2288237
0.22958633 -14.356247 3.2198448
0.14130044 -14.337872 3.2154648
0.053204585 -14.307245 3.208457
-0.034461614 -14.255589 3.1968503
-0.12155827 -14.211204 3.1869955
-0.2084115 -14.186775 3.1817398
-0.29466552 -14.147184 3.1731989
-0.38075659 -14.118775 3.1672862
-0.46676803 -14.097644 3.1631253
-0.55222881 -14.068191 3.1572123
-0.63716894 -14.034321 3.1504235
-0.72111195 -13.988246 3.1410067
-0.80479455 -13.946543 3.1326849
-0.88917321 -13.922841 3.1285241
-0.97301883 -13.894736 3.1234872
-1.0555159 -13.852506 3.1153843
-1.1393728 -13.832154 3.1123183
-1.2224175 -13.804493 3.1077194
-1.308109 -13.807418 3.1101284
-1.4271806 -14.139881 3.1869955
-1.5278358 -14.260862 3.216341
-1.6632012 -14.673932 3.3118227
-1.8024176 -15.075203 3.4048955
-1.9270204 -15.319439 3.4627101
-2.0720501 -15.694262 3.550308
-2.218143 -16.041771 3.6319931
-2.3564372 -16.304049 3.6946256
-2.554759 -16.941502 3.8426661
-2.7167881 -17.29565 3.92676
-2.8499136 -17.444284 3.9644272
-2.9529796 -17.403383 3.9591713
-3.0546365 -17.356108 3.9526014
-3.0833828 -16.910839 3.8553677
-3.2637753 -17.298138 3.9482214
-89.886833 -27.033941 21.064417
-55.95858 -8.8672485 12.713489
-55.294258 -8.4145031 12.550556
-55.701118 -8.1270514 12.631366
-55.23101 -7.7126508 12.513765
-61.100319 26.809626 14.972857
-60.581001 27.473181 14.927088
-60.372295 27.826412 14.917452
-51.650078 24.579241 12.835468
-51.457005 24.875738 12.825175
-51.275375 25.177242 12.818168
-51.094601 25.478762 12.811817
-50.894653 25.770195 12.801086
-50.691311 26.059244 12.789918
-50.516621 26.362566 12.786413
-50.321148 26.65468 12.778091
-50.135166 26.951391 12.772617
-49.969707 27.258976 12.772836
-49.766506 27.5457 12.763857
-49.599106 27.851974 12.764514
-49.424732 28.154335 12.763857
-49.267944 28.466833 12.768237
-49.083092 28.763172 12.765828
-48.898968 29.059813 12.764076
-48.703861 29.349735 12.759915
-48.528687 29.651585 12.761448
-48.363251 29.959581 12.766047
-48.174381 30.253176 12.764952
-48.000195 30.556061 12.768237
-47.82082 30.855827 12.770646
-46.543674 30.437885 12.479164
-46.348713 30.718048 12.477193
-46.160172 31.002403 12.477412
-47.031429 32.008038 12.765828
-46.867077 32.318726 12.774807
-46.719887 32.64201 12.789042
-46.517124 32.926937 12.788604
-46.356239 33.241875 12.80021
-46.164818 33.535435 12.803933
-45.988831 33.840618 12.812474
-45.788925 34.128578 12.814883
-45.572426 34.404186 12.813131
-45.355816 34.679611 12.811817
-45.15683 34.968605 12.815978
-44.947559 35.249844 12.81773
-44.74036 35.53286 12.820577
-44.686485 35.939407 12.868098
-22.120468 18.015635 6.4003062
-21.210058 17.491758 6.1677337
-20.057539 16.749161 5.862236
-19.794193 16.736473 5.8151522
-19.706694 16.870937 5.8197513
-19.60944 16.99729 5.821722
-19.515778 17.126945 5.825007
-18.378922 16.330006 5.5153484
-18.20801 16.379173 5.4941058
-18.115101 16.497814 5.4965148
-18.006359 16.602041 5.4943247
-18.282198 17.065073 5.6103921
-17.738861 16.762785 5.4750533
-17.104048 16.362761 5.3099313
-16.551933 16.030262 5.1688986
-15.948123 15.636292 5.0101275
-15.452287 15.337259 4.8837671
-14.983449 15.055569 4.7646341
-14.461204 14.710269 4.6271052
-14.072252 14.491439 4.5309668
-13.60211 14.180384 4.4074535
-13.219548 13.951944 4.3110957
-12.866982 13.747851 4.2234979
-12.445893 13.462592 4.1122484
-12.238039 13.401812 4.0706396
-12.182372 13.506355 4.0796185
-12.117444 13.60125 4.0857501
-12.067279 13.713433 4.0971379
-12.007872 13.815939 4.1056786
-11.951473 13.922673 4.1155334
-11.885382 14.018815 4.1223226
-11.826077 14.123646 4.1317391
-11.756605 14.216996 4.1378713
-11.690134 14.31456 4.1453171
-11.665789 14.465006 4.1680923
-13.024192 16.353556 4.6895189
-12.919983 16.428562 4.6882048
-12.767467 16.441254 4.6693716
-12.665751 16.518511 4.6691523
-11.436863 15.106985 4.2499962
-11.345121 15.178439 4.2504344
-11.363016 15.398501 4.2924814
-11.289003 15.496325 4.300365
-11.213077 15.592234 4.3078108
-11.140351 15.693362 4.3167896
-11.042728 15.759825 4.3163519
-10.870337 15.718146 4.2865686
-10.785239 15.801473 4.2911673
-10.730057 15.929665 4.3080301
-10.665602 16.045582 4.3216076
-10.592099 16.149069 4.3319006
-10.511897 16.243246 4.3397841
-10.468744 16.396255 4.3634357
-10.553082 16.754087 4.4413977
-10.481498 16.86908 4.4547567
-10.403288 16.97467 4.4657063
-10.339319 17.104984 4.4832258
-10.197197 17.106085 4.46702
-10.193909 17.341606 4.5121331
-10.113245 17.44857 4.5237398
-10.02342 17.540792 4.5316238
-9.9371548 17.640219 4.5414786
-9.8273087 17.698301 4.5408216
-9.6726198 17.674387 4.5193601
-9.5815916 17.766039 4.5276818
-9.5136127 17.902039 4.5473914
-9.4384413 18.026634 4.5642538
-9.3679113 18.162252 4.5839634
-9.2890005 18.283762 4.6001692
-9.2264147 18.439888 4.6251345
-9.2282448 18.729843 4.6836061
-9.1101665 18.779968 4.6820731
-9.0708733 18.994879 4.7217112
-8.9877739 19.121704 4.73945
-8.9059172 19.253536 4.7585025
-8.8150988 19.368206 4.7733941
-8.7048645 19.441523 4.7782116
-8.6152992 19.562433 4.7948556
-8.5311699 19.698195 4.8152218
-8.4193192 19.771715 4.820478
-8.3294935 19.898605 4.8388734
-8.2425117 20.035063 4.8596778
-8.1614809 20.189289 4.8848624
-8.0734644 20.329668 4.9067616
-7.9897037 20.48427 4.9321651
-7.8970194 20.619471 4.9529696
-7.7892394 20.717768 4.9650145
-7.7146668 20.907972 4.9991775
-7.6204467 21.049412 5.0217342
-7.5244532 21.18956 5.0440717
-7.429913 21.33761 5.0683799
-7.3310018 21.476984 5.0907173
-7.2337537 21.625198 5.1152449
-7.1343536 21.77117 5.1393342
-7.0662332 22.018927 5.1875129
-6.9564404 22.142853 5.2065659
-6.8511262 22.284912 5.2299981
-6.7595048 22.476965 5.2652564
-6.6299953 22.547037 5.2720451
-6.4985323 22.611675 5.277739
-6.3211555 22.513973 5.2457657
-6.1503835 22.433769 5.2181726
-5.9735208 22.324989 5.1842284
-5.7757993 22.128975 5.1303554
-5.6228242 22.096861 5.1148067
-5.4404011 21.942484 5.0712271
-5.2855077 21.891989 5.0519552
-5.1314402 21.84042 5.0326838
-4.9466858 21.649864 4.981658
-4.7587543 21.432154 4.9247193
-4.6100879 21.381783 4.9065428
-4.4664159 21.350454 4.8929653
-4.3374615 21.387978 4.8953738
-4.1927915 21.346212 4.8798256
-4.0447888 21.282391 4.8594589
-3.897023 21.21372 4.8382163
-3.7485483 21.134436 4.814784
-3.5855629 20.962763 4.7705469
-3.4422762 20.895798 4.7503996
-3.2953651 20.798954 4.7236819
-3.1807489 20.904633 4.7431726
-3.0149455 20.666933 4.6849198
-2.8898332 20.697607 4.687767
-2.7524588 20.637575 4.6702476
-2.6178994 20.592127 4.6562319
-2.4706471 20.435381 4.6172504
-2.3393178 20.398779 4.6056437
-2.2068472 20.345818 4.5905333
-2.0780933 20.321119 4.5819926
-1.9439389 20.235392 4.5598741
-1.7927405 19.94665 4.4922047
-1.6646175 19.889212 4.4768748
-1.5494894 19.98855 4.4970226
-0.70454776 9.8797798 2.2203526
-0.64219874 9.8576279 2.2144396
-0.57203686 9.6977463 2.1776485
-0.51180017 9.6874323 2.1745827
-0.45002553 9.6406822 2.163414
-0.39082336 9.6422873 2.1631949
-0.13324463 3.8872352 0.87024963
-0.10950099 3.8918808 0.87112564
0.010083348 3.9568303 0.8853603
0.059081759 3.9866529 0.89214909
0.083461218 3.9823132 0.89127314
0.10616187 3.9173515 0.87681949
0.13071211 3.9322295 0.88032341
0.1565191 3.9742525 0.88995916
0.18143216 3.9849141 0.89258713
0.21541454 4.1688685 0.93419611
0.23868757 4.1275296 0.92521733
0.2915003 4.155437 0.93222517
0.34207171 4.1466846 0.93113017
0.73635936 4.5039473 1.0215751
0.78227448 4.4417191 1.0095303
0.80391431 4.4061184 1.0025225
0.82532769 4.3713794 0.99573368
0.87361026 4.476367 1.020918
0.87640506 4.3484874 0.99288672
0.96743828 4.3821182 1.0044935
1.0044619 4.4208202 1.0147862
1.0151503 4.3442616 0.99858057
1.0511225 4.3768511 1.0075594
1.0723543 4.3475823 1.0023035
1.1169596 4.4118648 1.0187281
1.113369 4.2868738 0.99135375
1.1456736 4.3025918 0.99660963
1.1820633 4.3321939 1.0051504
0.94050425 3.2121577 0.74848855
0.92131531 3.0763931 0.71804827
0.92818558 3.0314946 0.70885044
