# .PCD v0.7 - Point Cloud Data file format
VERSION 0.7
FIELDS x y z
SIZE 4 4 4
TYPE F F F
COUNT 1 1 1
WIDTH 1490
HEIGHT 1
VIEWPOINT 0 0 0 1 0 0 0
POINTS 1490
DATA ascii
1.2578847 -0.38332373 0.050733626
1.2736386 -0.3966713 0.051472932
1.2768948 -0.40629381 0.0517064
1.2791302 -0.41566277 0.051900953
1.28035 -0.42476022 0.052056599
1.2777196 -0.43260831 0.052056599
1.2854322 -0.44402382 0.05248462
1.286454 -0.45322901 0.052640263
1.2921139 -0.46415025 0.052990463
1.297688 -0.47515789 0.053340662
1.3003663 -0.48520464 0.05357413
1.308575 -0.49742979 0.054041062
1.3138863 -0.50869274 0.054391261
1.2912148 -0.50905794 0.05357413
1.2741543 -0.51139486 0.052990463
1.2543385 -0.51240951 0.052290063
1.2345588 -0.51320046 0.051589668
1.217579 -0.51493454 0.051006
1.2015427 -0.51687413 0.050461248
1.2001801 -0.52503699 0.050539069
1.1951095 -0.53158003 0.050461248
1.1963788 -0.54095924 0.050655801
1.1966697 -0.54995716 0.050811447
1.1896503 -0.55559993 0.050655801
1.1844128 -0.56203318 0.05057798
1.1872443 -0.57232422 0.050850358
1.1855055 -0.58047616 0.050928179
1.1819215 -0.58773935 0.050928179
1.182754 -0.5972302 0.051122732
1.1852932 -0.60766417 0.051395111
1.1895218 -0.61907339 0.05174531
1.1901196 -0.62869203 0.051939867
1.1888824 -0.63739783 0.052056599
1.1875829 -0.64611197 0.052173331
1.1844711 -0.65386921 0.052212242
1.183925 -0.66307604 0.052367888
1.1963462 -0.67969871 0.053107195
1.1973491 -0.69001764 0.053340662
1.1991332 -0.7008782 0.053613041
1.1973896 -0.70975006 0.053729773
1.1972955 -0.71965557 0.053924326
1.182615 -0.72075307 0.053457394
1.1696672 -0.72274745 0.053068284
21.19335 -13.262507 0.9730804
21.076977 -13.370352 0.97148502
21.082794 -13.55617 0.97557068
21.093819 -13.746923 0.97996765
21.014076 -13.879398 0.98020107
21.020693 -14.06977 0.9845202
21.017492 -14.255134 0.98845023
20.93457 -14.387221 0.9886837
20.832777 -14.506268 0.98806113
20.820129 -14.687966 0.99171877
21.23447 -15.17624 1.0158825
21.094814 -15.272846 1.0136646
21.171532 -15.527271 1.0219136
21.084684 -15.66344 1.0223417
21.03928 -15.830968 1.024832
21.013275 -16.014275 1.028334
20.98502 -16.197245 1.0317971
20.926178 -16.3577 1.0338205
20.904549 -16.548433 1.0377505
20.879803 -16.738262 1.0416027
20.834892 -16.913296 1.044521
21.650871 -17.79715 1.0909029
21.588881 -17.969294 1.0933154
21.437717 -18.067293 1.0912532
21.375864 -18.240652 1.0937823
22.113434 -19.105734 1.1375183
22.002556 -19.246981 1.1378685
21.825697 -19.329948 1.1348335
21.580946 -19.350771 1.1282575
21.469204 -19.48954 1.1286466
21.330084 -19.603327 1.1276349
21.26573 -19.786245 1.1306311
21.266125 -20.031458 1.1371682
21.529709 -20.530491 1.1579856
21.487446 -20.743406 1.1625382
21.530563 -21.041777 1.1718378
21.708632 -21.477789 1.1886864
21.587734 -21.621901 1.1893089
21.642004 -21.943905 1.1996981
21.479759 -22.048372 1.1981806
21.568565 -22.413031 1.2107878
21.453354 -22.568851 1.2120719
21.353458 -22.741583 1.2142898
21.263123 -22.925659 1.2171303
27.589983 -30.867517 1.611688
27.373611 -31.006264 1.6101315
27.143442 -31.128454 1.6077969
26.91802 -31.255045 1.6057736
26.475824 -31.125828 1.5907539
26.153219 -31.131618 1.582816
26.082937 -31.437618 1.5902091
40.559677 -51.402317 2.5492489
29.417646 -38.237766 1.8781896
29.21632 -38.462109 1.8803686
28.494139 -37.993145 1.8488506
9.3946295 -12.688684 0.61432081
9.2682409 -12.679941 0.61113012
8.9113464 -12.350061 0.59256953
8.8226461 -12.386602 0.59171349
8.7137165 -12.393911 0.5894956
8.6204138 -12.422518 0.58832824
8.4548111 -12.344922 0.58218032
8.3229437 -12.313783 0.57828921
8.2161798 -12.318069 0.57611018
8.0855026 -12.284785 0.57221907
7.9686079 -12.270476 0.56926185
7.8370991 -12.231642 0.56521511
7.7234559 -12.218686 0.56241351
7.6055093 -12.197167 0.55926174
7.502255 -12.197644 0.5571605
7.3982449 -12.195606 0.55498147
7.2945442 -12.192753 0.5528025
7.192173 -12.190809 0.55070126
7.0770373 -12.165613 0.54758841
6.9709344 -12.154202 0.54513699
6.8913074 -12.188047 0.54474789
6.7969332 -12.19519 0.54319143
6.6849289 -12.169231 0.54019529
6.5868216 -12.166964 0.53828865
6.4974613 -12.17982 0.53708243
6.3737855 -12.126588 0.53299677
6.2882304 -12.144172 0.53206289
6.200429 -12.156714 0.53093451
6.120337 -12.183815 0.53046757
6.0397034 -12.209496 0.52996171
5.9327292 -12.180747 0.52712119
5.8392987 -12.178178 0.52544802
5.7563605 -12.196609 0.52470875
5.6561565 -12.177326 0.52237409
5.5713611 -12.189991 0.52144021
5.4677715 -12.160153 0.51871645
5.376482 -12.156007 0.51712108
5.2906318 -12.163112 0.51603156
5.2127566 -12.187995 0.51572031
5.1289654 -12.198565 0.51482534
5.048295 -12.215955 0.51424164
4.9698596 -12.238368 0.51389146
4.899858 -12.281626 0.51443624
4.8149266 -12.287271 0.51342452
4.7247276 -12.278348 0.5118292
4.663074 -12.343562 0.51334673
4.5952387 -12.39349 0.51424164
4.5057817 -12.384831 0.51272416
4.4290333 -12.410363 0.51264632
4.3320026 -12.377889 0.5101949
4.2569451 -12.407071 0.51031166
4.1759586 -12.418751 0.50972795
4.0781026 -12.378655 0.50704312
4.012506 -12.435779 0.50836611
3.9270947 -12.43158 0.50719875
3.8365726 -12.409618 0.50533104
3.7531233 -12.409016 0.50435829
3.6658578 -12.394441 0.50284076
3.5811329 -12.386943 0.50163448
3.5012574 -12.395221 0.50108975
3.4182258 -12.391427 0.50007802
3.3429086 -12.415062 0.50019479
3.2527022 -12.382185 0.49805468
3.1607938 -12.33996 0.49556437
3.0792081 -12.335855 0.49463052
2.9980288 -12.332184 0.49373555
2.9119473 -12.30659 0.49198455
2.832794 -12.308645 0.49136198
2.7526345 -12.305318 0.49054486
2.6738956 -12.307329 0.48996118
2.590287 -12.285373 0.48844367
2.50825 -12.268729 0.48715958
2.4298162 -12.268205 0.48653701
2.3531771 -12.276013 0.48626465
2.2772622 -12.287273 0.48614791
2.200417 -12.293147 0.48583663
2.1215448 -12.286723 0.4850584
2.0433264 -12.282753 0.4843969
1.9665006 -12.28618 0.48404673
1.8862156 -12.26641 0.48280156
1.8043511 -12.233269 0.48105055
1.7249217 -12.213438 0.47984433
1.6439317 -12.179231 0.47809333
1.5672557 -12.174222 0.47750965
1.493256 -12.18956 0.47774312
1.4186652 -12.200479 0.47782096
1.3407152 -12.181143 0.47673145
1.2636757 -12.167274 0.47587541
1.1908413 -12.193694 0.47661471
1.1159087 -12.199777 0.47657579
1.0412012 -12.208386 0.47665361
0.96406436 -12.186653 0.47556412
0.88766998 -12.170414 0.47470808
0.81251067 -12.168653 0.47443569
0.73770893 -12.171413 0.47435787
0.66339332 -12.182695 0.47463024
0.58631265 -12.13863 0.47276253
0.51148325 -12.134011 0.47245124
0.43831715 -12.17287 0.47385204
0.3618843 -12.117401 0.4715952
0.28740776 -12.114399 0.47140062
0.21319316 -12.122928 0.47167301
0.13862036 -12.10802 0.47105044
0.064292163 -12.102649 0.47081697
-0.0099802567 -12.116804 0.47136173
-0.084313579 -12.114516 0.47128391
-0.14368609 -10.966737 0.42661405
-0.22883217 -11.896772 0.46287912
-0.3015469 -11.884157 0.4624511
-0.37490091 -11.896065 0.46299586
-0.44841239 -11.907519 0.46354061
-0.52089936 -11.891566 0.46303475
-0.59246051 -11.860203 0.46194527
-0.66388011 -11.8324 0.46101138
-0.73584938 -11.81813 0.46062228
-0.80644178 -11.78548 0.45953277
-0.87666124 -11.752408 0.45844325
-0.94803262 -11.737844 0.45809308
-1.0168364 -11.694972 0.45665336
-1.0862612 -11.663639 0.45568058
-1.1576101 -11.654766 0.45560277
-1.2320352 -11.675268 0.45669228
-1.302541 -11.657557 0.45630315
-1.3725251 -11.636445 0.45579731
-1.442299 -11.614913 0.45529148
-1.511344 -11.589001 0.45462999
-1.5798546 -11.560699 0.45389068
-1.6476511 -11.529025 0.45303464
-1.7158554 -11.501897 0.45237315
-1.7890059 -11.507937 0.45303464
-1.8527253 -11.454327 0.45136145
-1.9219795 -11.436831 0.45112801
-2.0049877 -11.498652 0.45404631
-2.0794122 -11.507767 0.45490235
-2.1393311 -11.437822 0.45264551
-2.2168696 -11.462742 0.45416304
-2.2947941 -11.48714 0.45568058
-2.367655 -11.484587 0.45614752
-2.4343398 -11.452249 0.45544711
-2.5062733 -11.444905 0.45575839
-2.5823822 -11.455631 0.45680901
-2.6564605 -11.456119 0.45747048
-2.7315679 -11.460016 0.45828763
-2.8203661 -11.518745 0.46132267
-2.904629 -11.555493 0.46350169
-2.9789701 -11.551 0.46404645
-3.067158 -11.598195 0.46669239
-3.1434922 -11.598446 0.46747062
-3.220212 -11.599159 0.46828774
-3.3088043 -11.640697 0.47077805
-3.4178393 -11.749707 0.47603104
-3.4992723 -11.76012 0.4773151
-3.5847423 -11.782404 0.47910503
-3.6646833 -11.784995 0.4801167
-3.7853274 -11.914663 0.48634246
-3.9002984 -12.020477 0.49163437
-8.0381327 -24.266993 0.99498731
-8.2000008 -24.256025 0.99658263
-8.3656197 -24.254377 0.99860603
-8.5139523 -24.201647 0.9985671
-8.6815205 -24.202562 1.000785
-8.8545656 -24.21641 1.0035866
-9.0486908 -24.284286 1.0086839
-9.2230577 -24.29557 1.0114856
-9.3838501 -24.269278 1.0127696
-9.55089 -24.25773 1.0147152
-9.7192554 -24.247831 1.0167774
-9.8931417 -24.249727 1.0193845
-10.084658 -24.291929 1.0237426
-10.269675 -24.315205 1.0273613
-10.454961 -24.336197 1.030941
-10.62089 -24.310047 1.0325754
-10.795815 -24.302868 1.0350657
-10.977219 -24.308113 1.0381396
-11.163676 -24.322035 1.0416416
-11.401825 -24.444157 1.0498518
-11.510516 -24.28705 1.0461164
-4.8631282 -10.099643 0.43603051
-4.9552965 -10.131551 0.43871537
-5.0031457 -10.072317 0.43747023
-5.0774531 -10.06641 0.43855974
-5.1477771 -10.051965 0.43929905
-5.2194967 -10.039695 0.44015509
-15.113008 -28.641743 1.2605939
-15.28139 -28.535259 1.2600102
-15.541118 -28.597237 1.2669364
-15.793493 -28.641346 1.2731621
-16.070896 -28.72616 1.2812946
-16.272501 -28.672201 1.2833179
-16.691401 -28.994425 1.3023065
-17.057421 -29.214201 1.3168592
-4.6115398 -7.7870784 0.35194382
-4.6191125 -7.6918149 0.34890875
-17.94821 -29.076744 1.3301278
-11.144411 -17.808455 0.81759197
-11.270599 -17.766741 0.81883711
-11.433444 -17.781301 0.82272822
-11.619255 -17.828854 0.82821465
-12.072609 -18.278353 0.85253406
-12.240115 -18.286974 0.85642517
-12.411544 -18.299187 0.86054969
-20.094128 -29.239044 1.3810624
-13.435681 -19.295198 0.91510296
-20.600609 -29.201736 1.3911403
-20.8375 -29.156082 1.3950315
-13.770988 -19.02034 0.91393566
-21.489777 -29.301876 1.4145259
-21.712069 -29.227219 1.4173275
-21.994928 -29.231581 1.424059
-22.276838 -29.231184 1.430674
-22.5382 -29.200733 1.4359269
-22.814175 -29.186281 1.4420749
-23.179508 -29.281578 1.4537871
-23.468111 -29.27524 1.4605966
-23.714684 -29.213705 1.4647599
-24.103512 -29.323156 1.4776396
-24.386536 -29.299129 1.4839431
-24.757744 -29.376642 1.4955386
-25.006931 -29.305513 1.4997021
-25.404465 -29.40407 1.5126984
-25.645592 -29.317583 1.5163171
-26.068794 -29.434961 1.5306363
-26.289602 -29.319834 1.5330099
-26.571768 -29.271173 1.5389633
-32.397373 -35.251732 1.8639092
-32.62804 -35.068378 1.8647653
-32.841915 -34.866791 1.8647263
-33.129711 -34.742722 1.8689288
-33.568508 -34.773155 1.8816137
-34.039646 -34.830948 1.8960108
-34.36095 -34.730827 1.902003
-34.661091 -34.606884 1.906828
-34.970959 -34.490387 1.9121978
-35.316486 -34.406254 1.9195131
-35.597492 -34.256809 1.9233264
-35.919273 -34.144455 1.9293575
-18.308304 -17.190605 0.97747731
-17.957747 -16.655281 0.95327467
-17.829729 -16.334177 0.94113445
-17.394684 -15.74038 0.9130407
-17.166859 -15.343677 0.89611441
-17.050194 -15.052218 0.88518041
-17.091772 -14.903316 0.88257337
-17.146551 -14.766861 0.8807056
-17.15159 -14.588861 0.8763476
-17.108425 -14.372149 0.86961597
-17.168604 -14.243934 0.8682152
-17.193073 -14.087022 0.86506337
-17.304821 -14.002005 0.86634743
-17.409925 -13.911156 0.86732024
-17.505938 -13.812735 0.86786497
-17.620314 -13.728398 0.86934358
-17.743025 -13.649879 0.87125027
-17.806551 -13.525642 0.87027746
-17.877216 -13.407136 0.86969382
-17.993677 -13.32276 0.87136698
-18.078312 -13.21446 0.87152261
-18.090179 -13.053583 0.8682152
-18.165865 -12.939439 0.86802065
-15.567906 -10.945447 0.74058706
-15.595369 -10.822371 0.73871934
-15.729905 -10.773344 0.74194896
-18.58308 -12.560799 0.87296236
-18.690559 -12.467056 0.87440205
-18.792578 -12.36917 0.87560827
-18.827894 -12.227503 0.87374055
-18.953888 -12.144632 0.87611413
-19.224846 -12.152514 0.88518041
-19.449127 -12.127912 0.89206761
-19.575945 -12.040807 0.89448011
-19.956156 -12.106535 0.90844917
-20.263296 -12.12341 0.91903299
-20.55934 -12.129855 0.92907202
-20.960724 -12.193924 0.94381928
-21.634089 -12.408635 0.97070682
-24.286188 -13.732534 1.0859612
-24.812506 -13.82992 1.1056892
-25.06242 -13.76835 1.1130433
-25.28878 -13.691383 1.1193469
-25.799894 -13.764082 1.1382188
-26.432245 -13.893783 1.1623436
-26.884348 -13.921572 1.1784527
-27.2274 -13.888026 1.189737
-27.458536 -13.794269 1.1961184
-16.387606 -8.1067514 0.71148163
-30.143766 -14.682846 1.3051859
-30.940577 -14.836788 1.335731
-31.07802 -14.66884 1.3377545
-31.303377 -14.541021 1.3435911
-31.891848 -14.577152 1.3649921
-70.764206 -31.822382 3.0209284
-23.028885 -9.1881914 0.96502578
-23.094723 -8.5636339 0.95868331
-40.64193 -13.11503 1.6625057
-45.997852 -14.222627 1.8743763
-46.119644 -13.950827 1.875816
-88.252876 -26.106451 3.583348
-89.460594 -25.867834 3.6258779
-90.234016 -25.492571 3.6508198
-91.037971 -25.117554 3.6770458
-92.634773 -24.947487 3.7352958
-93.135956 -24.470543 3.7493815
-95.223213 -24.395346 3.8273203
-95.37014 -23.810364 3.8272812
-98.142494 -23.226919 3.9268157
-98.512001 -22.67697 3.9359598
-101.14002 -21.978615 4.029891
-104.01698 -21.270548 4.1338224
-104.90322 -20.782021 4.1639004
-106.41838 -20.404406 4.2189984
-106.82355 -19.803326 4.230166
-90.489388 -16.201464 3.5792625
-90.683586 -15.662595 3.5830758
-106.27003 -17.683939 4.1946402
-108.8049 -16.736286 4.2862759
-109.20805 -16.112989 4.2981825
-112.47131 -15.186685 4.4189625
-121.5463 -15.653333 4.7716908
-121.66386 -14.910161 4.7726245
-121.78482 -14.16706 4.7738695
-121.93401 -13.426645 4.7763987
-122.16518 -11.936702 4.779356
-122.35851 -11.198087 4.784142
-122.49065 -10.452706 4.7867103
-122.84189 -8.9657202 4.7957764
-122.95242 -8.2156715 4.7980332
-123.24687 -7.4760408 4.8076444
-123.29741 -6.7200522 4.8079166
-123.49802 -5.9712057 4.8142204
-123.55429 -5.2142506 4.8150764
-64.556175 -1.9308263 2.5145013
-64.41996 -1.5311888 2.5087814
-64.252304 -1.1327847 2.5019331
-64.236061 -0.73826581 2.5010772
-64.114479 -0.34343648 2.4962132
-64.491096 0.050257962 2.5108438
-64.430618 0.44555983 2.508548
-18.501238 2.412384 0.72607327
-18.13957 2.4785256 0.71245438
-18.173481 2.5968471 0.71439993
-18.041573 2.6910651 0.70984733
-18.022745 2.8014088 0.70976955
-18.003244 2.9116225 0.7096917
-17.962376 3.0182259 0.70879674
-17.024633 3.8374429 0.67910767
-17.664761 4.4399147 0.70879674
-16.453814 4.2431021 0.66120857
-16.258411 4.299283 0.65439916
-16.226902 4.397655 0.65420461
-57.157902 15.865742 2.3094404
-66.040771 18.768509 2.6730249
-65.911896 19.169746 2.672519
-65.816017 19.580652 2.6734529
-65.681244 19.980053 2.6729081
-65.517776 20.812088 2.6764491
-65.361282 21.204763 2.6753206
-65.298241 21.628033 2.6781223
-65.14064 22.020288 2.6771495
-64.967461 22.406864 2.675632
-11.898517 4.1861629 0.49070048
-11.319551 4.0607257 0.46782082
-11.177111 4.087214 0.46295694
-11.242649 4.1895595 0.46673131
-8.8102236 3.344979 0.36649653
-8.6441402 3.3427615 0.3604264
-8.4979458 3.3463211 0.35517341
-8.3557491 3.3497014 0.35007608
-8.217535 3.3529742 0.34513438
-8.1165161 3.370003 0.34174913
-7.9576082 3.3614278 0.33591247
-7.8349218 3.3664129 0.33159333
-7.7436113 3.3836219 0.32859719
-7.6596928 3.4030831 0.32591233
-7.574008 3.4208207 0.32314965
-7.5174575 3.4509737 0.32163212
-7.4608231 3.4805622 0.32011458
-7.453774 3.5331223 0.32073718
-7.3950415 3.5610194 0.31914183
-7.3730521 3.6063275 0.31914183
-7.3686843 3.6603892 0.31992003
-7.3469782 3.7059839 0.31995896
-7.3321052 3.7550931 0.32030916
-7.3381844 3.8152201 0.32159323
-7.3234744 3.8648374 0.32198232
-7.3022652 3.9111161 0.32209906
-7.2983227 3.9668217 0.32299402
-7.3184724 4.0361357 0.32497847
-7.3293238 4.1009669 0.32657382
-7.3257489 4.1581917 0.3275466
-7.320015 4.214529 0.32844156
-7.3268089 4.2785101 0.32992017
-7.345129 4.3498592 0.33194354
-7.3534245 4.4159355 0.33353889
-7.3296046 4.4630508 0.33369455
-7.330142 4.5252604 0.33497861
-7.3352733 4.5908241 0.33649614
-7.3736267 4.67803 0.33957011
-7.3767233 4.7437215 0.34104872
-7.3617091 4.7981691 0.34171021
-7.3371329 4.8465533 0.34194368
-7.3305082 4.9070444 0.34303319
-7.3192816 4.9648309 0.34392813
-7.303504 5.0198345 0.34462854
-7.3193078 5.0970998 0.34684646
-7.3050418 5.1540103 0.34766361
-7.4176917 5.3710089 0.35614619
-7.4636922 5.6165767 0.36326692
-7.4712119 5.6943674 0.36532921
-7.4748921 5.7700186 0.36723584
-7.46454 5.8354664 0.36848098
-7.4599333 5.9059663 0.37003744
-7.4539614 5.9760022 0.37155497
-7.4862008 6.0776753 0.37501803
-7.4878578 6.2330079 0.37890914
-7.4999013 6.3213344 0.38147727
-5.339458 4.5569692 0.27287662
-5.3839855 4.6523585 0.27661207
-5.3463125 4.677412 0.27614516
-5.3025508 4.6968784 0.27536693
-5.2728872 4.7286587 0.27532801
-5.2504325 4.7669683 0.27567822
-11.289457 10.375953 0.59661627
-3.3691826 3.135545 0.17875087
-3.3047819 3.1136813 0.17633839
-3.2494559 3.0994217 0.17439283
-3.1973066 3.0873778 0.17260294
-3.1418555 3.0713196 0.17061847
-3.0838816 3.0518875 0.16847837
-3.0460348 3.0516605 0.16742776
-3.0090091 3.0517957 0.16641608
-2.9539678 3.0329835 0.16439271
-2.8916497 3.0056922 0.1619413
-2.8573182 3.0067213 0.16104636
-2.8210313 3.0052574 0.16003467
-2.7821527 3.0005317 0.15886734
-2.7501891 3.0028107 0.15808912
-2.7243371 3.0114789 0.1576611
-2.6984828 3.0199432 0.15723307
-2.6713045 3.0267062 0.15672724
-2.6428318 3.0317433 0.15614358
-2.633961 3.0592592 0.15672724
-2.6397426 3.104286 0.15820585
-2.5930071 3.0875261 0.15653268
-2.554872 3.0803082 0.15536535
-2.5118573 3.0665557 0.15388674
-2.4973941 3.0873482 0.15415911
-2.4784033 3.1026137 0.15415911
-2.4574625 3.1154091 0.15404238
-2.4327731 3.1233354 0.15369217
-2.4141722 3.1389956 0.15373109
-2.3761284 3.1290829 0.15252484
-2.3586829 3.1460018 0.15264158
-2.3256583 3.1419449 0.15174663
-2.3145914 3.1674495 0.15229137
-2.3138242 3.2075214 0.15353653
-2.2917807 3.2184026 0.15338089
-2.2972786 3.2683702 0.15509297
-2.2714837 3.2741954 0.15470386
-2.2490923 3.2847736 0.15454821
-2.270865 3.3606007 0.15746655
-2.2380028 3.3561835 0.1566105
-2.2256086 3.3823721 0.15719417
-2.2146096 3.4110487 0.15789457
-2.2049594 3.442241 0.1587117
-2.1896701 3.4649963 0.15913972
-2.2016792 3.5317836 0.16159111
-2.1736851 3.5350127 0.16112418
-2.1421056 3.532052 0.16038486
-2.1209064 3.5459867 0.16042379
-2.1082485 3.5744245 0.16112418
-2.0978341 3.6071584 0.16201913
-2.1074812 3.6754358 0.16450945
-2.0976777 3.7109129 0.16552113
-2.0845988 3.7411704 0.16629934
-2.1236718 3.8668661 0.17131887
-2.105222 3.9472957 0.17373136
-2.1237369 4.0415115 0.17731117
-2.0823565 4.0225229 0.17591037
-2.0440137 4.0085206 0.17474304
-2.026557 4.0352731 0.17536561
-2.015938 4.076292 0.17661077
-1.989138 4.0849915 0.17645513
-1.9229885 4.0115247 0.17275858
-1.9149729 4.0584903 0.1742761
-1.9144516 4.1227255 0.17653294
-1.9759408 4.3243337 0.18466535
-2.1706789 4.8284955 0.2056773
-2.1761792 4.9212265 0.20906255
-2.1654742 4.9793849 0.21096919
-2.1659265 5.0651569 0.21404317
-2.2002673 5.2340198 0.22061913
-2.1963553 5.3157592 0.22349854
-2.2129543 5.4504151 0.22859588
-2.2057626 5.5297852 0.23135857
-1.1497589 2.9354649 0.12229098
-1.0987062 2.8566685 0.11871117
-1.0811574 2.8633564 0.11871117
-1.0587037 2.8568196 0.11816642
-1.0370545 2.851994 0.11769948
-1.0161765 2.8488927 0.11731037
-0.99372482 2.8409271 0.11672671
-0.97465289 2.8422451 0.11653215
-0.95687628 2.847225 0.11649324
-0.94470423 2.8691764 0.11715473
-0.91848868 2.8482926 0.11606522
-0.8919633 2.8252902 0.11489789
-0.87343001 2.8268912 0.11474225
-0.84854555 2.8073301 0.11373056
-0.83017033 2.808651 0.11357491
-0.81680709 2.8271308 0.11411967
-0.78830612 2.7926636 0.11252432
-0.7647773 2.7743301 0.11159045
-0.74228305 2.7587082 0.11077332
-0.72458011 2.7603116 0.11065659
-0.70539761 2.7559936 0.11030639
-0.69283074 2.7777207 0.11100679
-0.66963542 2.756675 0.1099951
-0.65431911 2.7675385 0.11026748
-0.62903136 2.7354715 0.10882777
-0.60568947 2.7100258 0.10766044
-0.59414238 2.7371261 0.10859431
-0.57176906 2.7143214 0.10754371
-0.54989833 2.6923251 0.10653202
-0.54113573 2.7348559 0.10808846
-0.52283943 2.730274 0.10777718
-0.50899124 2.7491508 0.10839975
-0.49035206 2.7423861 0.10801064
-0.46994433 2.7246654 0.10719351
-0.45157695 2.7176406 0.1068044
-0.43520927 2.7223337 0.10688222
-0.41667408 2.7131014 0.10641529
-0.40074825 2.7205496 0.10660984
-0.38488647 2.728894 0.10684331
-0.36960593 2.7420969 0.10727133
-0.35315672 2.7472863 0.10738806
-0.33981812 2.7781641 0.10851648
-0.32334259 2.7851598 0.10871104
-0.30734083 2.7970238 0.10910015
-0.28914002 2.788918 0.10871104
-0.27143905 2.7846725 0.10847757
-0.25544038 2.7982266 0.10894451
-0.23784114 2.7947633 0.10874995
-0.2237637 2.8350189 0.11026748
-0.20600043 2.8313556 0.11007293
-0.18842381 2.8295753 0.10995619
-0.1717239 2.8416495 0.11038421
-0.15499166 2.8556206 0.11089005
-0.13814266 2.8704913 0.11143481
-0.12031636 2.866293 0.11124025
-0.10305096 2.8759644 0.11159045
-0.085611612 2.8835342 0.11186283
-0.068463318 2.9069815 0.11275779
-0.050678004 2.9103439 0.11287452
-0.033060886 2.9315827 0.11369165
-0.014975879 2.9137444 0.11299125
0.0029612051 2.9897239 0.11594849
0.021160856 2.9686661 0.11513136
0.039310697 2.9634843 0.11493681
0.058317479 3.0061469 0.11660998
0.076230645 2.9847553 0.11579285
0.09576869 3.0231824 0.11731037
0.11431679 3.0225377 0.11731037
0.13294792 3.0237761 0.1173882
0.15000503 2.9929636 0.11622087
0.16803116 2.9860005 0.1159874
0.18858323 3.0208166 0.1173882
0.21447629 3.1272697 0.12159058
0.23299235 3.1169264 0.12124038
0.25725788 3.1791823 0.12373069
0.29302177 3.3646965 0.13104597
0.35116646 3.7657869 0.14680493
0.37258825 3.7466571 0.14614344
0.40290678 3.8138616 0.1488672
0.43095854 3.8530264 0.15050147
3.1073084 26.351309 1.0327699
0.49568608 3.9882598 0.15602684
6.2516203 47.953552 1.8826643
10.170489 71.189659 2.7998359
10.669703 68.65519 2.7050877
8.2900038 51.266697 2.0218101
1.0477306 6.2327528 0.24563891
1.0519795 6.0312953 0.23793453
1.0745794 5.9450774 0.23478274
1.0788975 5.7664838 0.22797331
1.04882 5.4212842 0.21454901
1.0677788 5.3432145 0.2117085
1.0583878 5.1320195 0.2035761
1.0672174 5.0188899 0.1993348
1.0721349 4.8941364 0.19462657
1.090721 4.8367763 0.1926032
1.0984892 4.7355704 0.18882883
1.0969501 4.6004333 0.18369257
1.1016357 4.4975286 0.17984039
1.1111892 4.4189701 0.17696096
1.1225652 4.35111 0.17450957
1.1318737 4.2784491 0.17186362
1.1267438 4.1556878 0.16719429
1.1511524 4.1448445 0.16703865
1.1637248 4.0925279 0.16520983
1.1561656 3.9730501 0.16065724
1.1671304 3.9208665 0.15882844
1.1623772 3.8189881 0.15497623
1.1688786 3.7573953 0.15275832
1.1795087 3.7111058 0.15116297
1.1748145 3.619206 0.14769988
1.1863174 3.5796783 0.14637691
1.1874603 3.5108013 0.14384769
1.183894 3.4307117 0.14085154
1.1886747 3.3771942 0.13894489
1.1816483 3.230027 0.13345845
1.1662086 3.1281433 0.12952843
1.198856 3.1564283 0.13100705
1.2196422 3.1527407 0.1311627
1.2254202 3.110796 0.12972298
0.59695458 1.4615875 0.061006133
0.59480149 1.4311334 0.059877712
0.60745919 1.4366621 0.060266823
0.61074132 1.4200541 0.05972207
0.61544287 1.4071232 0.059332959
0.61676377 1.3868827 0.05863256
0.62206572 1.3537812 0.05754305
0.63036066 1.3499388 0.05754305
0.63734812 1.3433366 0.057426319
0.6490463 1.3466033 0.057737608
0.65597981 1.3399025 0.057620876
0.670856 1.3492764 0.058204539
0.67957234 1.346027 0.05824345
0.70423317 1.3332902 0.05824345
0.70768368 1.3201351 0.057854339
0.72006458 1.3236698 0.058204539
0.71659309 1.2982258 0.057270676
0.73197722 1.2884654 0.057231765
0.730896 1.2683616 0.056531366
0.75025266 1.2837005 0.057426319
0.75200588 1.268755 0.056959387
0.74434549 1.2384163 0.055792056
0.75816566 1.2440679 0.056258988
0.76001155 1.2300391 0.055830967
0.76224405 1.2168819 0.055441856
0.77344304 1.2180885 0.055714235
0.78468543 1.2192035 0.055986613
0.79160595 1.2135285 0.055947699
0.80839872 1.2228233 0.056609187
0.82088876 1.2253137 0.056959387
0.82726991 1.2185998 0.056881566
0.83416557 1.2126772 0.056842655
0.84273273 1.2091762 0.056920476
0.84956026 1.203166 0.056881566
0.85634571 1.1971176 0.056842655
0.86191708 1.1894124 0.056725919
0.86919886 1.1841015 0.056725919
0.88002324 1.1835587 0.056959387
0.8944782 1.1877183 0.057426319
0.8975094 1.1766442 0.05715394
2.1214967 2.7476525 0.13470361
2.1383159 2.7345834 0.13470361
2.1668384 2.7362978 0.13544291
2.194212 2.7362051 0.13610439
2.2109599 2.7226901 0.13610439
2.2384109 2.7221956 0.13676588
2.2672172 2.7230024 0.13750519
2.2961171 2.7235575 0.13824449
2.3322437 2.7322214 0.13941184
2.3744416 2.7473488 0.14092936
2.4017806 2.7447615 0.14155194
2.4212267 2.7329652 0.14170758
2.4599636 2.7426085 0.14299165
2.5694289 2.8295655 0.14836137
2.6043224 2.8328755 0.14937305
2.674746 2.8739054 0.15240811
5.6907854 5.7512579 0.31458923
5.7381678 5.658536 0.31334409
5.7563181 5.6071835 0.31244913
5.7553349 5.537806 0.31054249
5.7595129 5.4741607 0.30894715
5.7769675 5.4236698 0.3080911
5.7603197 5.3419132 0.30544513
5.7730956 5.2882428 0.30439454
5.7580166 5.2098093 0.30190423
5.7258043 5.1171117 0.29855791
5.7173939 5.0468316 0.29649562
5.7188816 4.986043 0.29497808
5.7410388 4.9436855 0.29455006
5.7210302 4.8656349 0.29198194
5.7247648 4.8085861 0.29065895
5.7380128 4.7599702 0.28984183
5.7230554 4.6885734 0.28762391
5.7392879 4.6433125 0.28700131
5.7122459 4.5637202 0.28423864
5.7228832 4.5149674 0.28338259
5.7331381 4.4662557 0.28252655
5.7358832 4.4121051 0.2813203
5.7493205 4.3665519 0.28065881
5.7512236 4.3126068 0.27945259
5.7406363 4.2498837 0.27766266
5.7577319 4.2080927 0.27723464
5.7607555 4.1563125 0.27614516
5.7633615 4.1046538 0.27505565
5.7598295 4.0490971 0.27369374
5.7640429 3.9994364 0.27272099
5.7563229 3.9419715 0.27120346
5.7588782 3.8920276 0.27019176
5.7701817 3.8483009 0.26960811
5.7719846 3.7985392 0.26859641
5.8102674 3.7728481 0.2692968
5.7702079 3.696692 0.26637849
5.7623754 3.6419952 0.26497769
5.7549376 3.588063 0.26361579
5.7632275 3.5443075 0.26299322
5.7618003 3.4948838 0.26194263
5.7531242 3.4415076 0.26058075
5.7741327 3.406142 0.26058075
5.7802405 3.3621066 0.25991926
5.7946939 3.323096 0.25964686
5.807147 3.283051 0.25929669
5.8114715 3.2386 0.25859627
5.8145943 3.1937389 0.25785697
5.8085985 3.1442039 0.25672856
5.8163199 3.1023891 0.2562227
5.8255177 3.061528 0.25579467
5.8592772 3.0335374 0.25645617
5.864429 2.9907176 0.25587252
5.9157057 2.9712756 0.25731221
5.8702364 2.9034617 0.25454953
5.9247727 2.8853292 0.25614488
5.9063253 2.8316381 0.25458845
5.8892508 2.7791359 0.25310981
5.9678164 2.7715747 0.25575578
5.9910712 2.7378128 0.25602815
6.0341864 2.7128856 0.25715658
6.0808749 2.6891491 0.25844064
6.1513219 2.6753054 0.26073638
6.215395 2.6579466 0.26275975
6.3347516 2.663142 0.2671178
6.3906827 2.640635 0.26879096
6.4178743 2.6058848 0.2692579
6.422606 2.5620127 0.26879096
6.4456482 2.5254731 0.26910225
1.141362 0.42255133 0.046920344
8.2578793 3.0041015 0.34171021
1.1784585 0.41993424 0.048243318
1.1923305 0.416657 0.048710249
1.2184931 0.41744161 0.049683027
1.2229258 0.41059425 0.049760848
1.2273202 0.40370825 0.04983867
1.2212157 0.393408 0.04948847
1.2236066 0.38590735 0.04948847
1.2202235 0.37662098 0.049255006
1.2062521 0.36420816 0.048593517
1.1921748 0.35198116 0.047932032
1.2000716 0.34632489 0.048165496
1.1983275 0.33786818 0.048009854
1.2003782 0.33050901 0.048009854
1.2149267 0.32651553 0.048515696
1.2217395 0.32032436 0.048710249
1.2323937 0.31505385 0.049060449
1.2381817 0.30845428 0.049216095
1.2390801 0.30061504 0.049177185
1.2389565 0.29254627 0.04909936
1.2368331 0.284042 0.048943717
1.2492791 0.27884763 0.049371738
1.2704955 0.2754209 0.050149959
1.2780281 0.26885733 0.050383426
1.2659479 0.25820762 0.04983867
1.2763301 0.25218278 0.050188869
1.2749094 0.24378209 0.050072137
1.2626262 0.23340476 0.049527384
1.2532151 0.22371578 0.04909936
1.2565334 0.21636215 0.049177185
1.2578373 0.20864813 0.049177185
1.262054 0.20140021 0.049293917
1.260303 0.19319682 0.049177185
1.2614648 0.18546011 0.049177185
1.2606002 0.17743684 0.04909936
1.2547334 0.16876258 0.048826985
1.2557452 0.1610605 0.048826985
1.255718 0.1532308 0.048788074
1.2516719 0.14494565 0.048593517
1.2535309 0.13737218 0.048632428
1.2563379 0.12988462 0.048710249
1.2511442 0.12159036 0.048476785
1.2488815 0.11363798 0.048360053
1.2565247 0.10656761 0.048632428
1.2561587 0.098776855 0.048593517
1.2517582 0.090703636 0.048398964
1.2582734 0.083421044 0.048632428
1.2617537 0.075880378 0.048749164
1.2073187 0.065145738 0.046609055
1.1807476 0.056433443 0.04555846
77.863831 0.89503038 3.0317845
40.048664 -0.22826326 0.88060492
39.790592 -0.47096246 0.87497568
24.707035 -0.4439849 0.54324394
39.816795 -0.96006238 0.8757453
73.970459 -5.4241247 1.6310583
92.412003 -7.3468118 2.0387194
92.278526 -7.9062777 2.0368063
92.202385 -8.4699612 2.0362346
92.101921 -9.0309601 2.0352011
72.362282 -7.9930444 1.6009989
70.843193 -8.2655401 1.5684766
76.523941 -11.317337 1.7011604
62.255093 -10.38141 1.3879218
62.332077 -10.787755 1.3910882
62.205666 -11.159422 1.389769
1.2538108 -0.24062757 0.027812976
1.2680007 -0.25143021 0.028164806
1.2439076 -0.2545912 0.027659049
1.2071079 -0.25477985 0.026867433
1.1996605 -0.26090589 0.026735496
1.1824281 -0.26476392 0.026383666
1.1690909 -0.26931885 0.026119795
1.1625524 -0.27533427 0.026009846
1.1550128 -0.28104308 0.02587791
1.149387 -0.28715482 0.025789954
1.1485718 -0.29445037 0.025811942
1.1554451 -0.30378184 0.026009846
1.1632122 -0.31346893 0.026229741
1.1805401 -0.32592505 0.026669528
1.191986 -0.33697253 0.026977379
1.2263881 -0.35484552 0.027812976
1.2759517 -0.37769583 0.029000401
1.3004016 -0.39363226 0.029616104
1.2950968 -0.40071696 0.029550137
1.3097713 -0.41408339 0.029945945
1.2986438 -0.41934592 0.029748041
1.2979453 -0.42793274 0.02979202
1.299085 -0.43716478 0.029879976
1.2935416 -0.44415313 0.029814009
1.296453 -0.4540655 0.029945945
1.2964668 -0.46302104 0.030011913
1.3011165 -0.47370467 0.030187828
1.3066207 -0.48481065 0.030385733
1.3185831 -0.49847761 0.030737562
1.3182986 -0.50763714 0.030803531
1.3226044 -0.51863748 0.030979445
1.3258964 -0.52933884 0.03113337
1.3059528 -0.53068709 0.030737562
1.2694144 -0.52493137 0.029945945
1.2320756 -0.51835984 0.029132338
1.2104906 -0.51803994 0.028692551
1.1990395 -0.52186543 0.028494647
1.1958148 -0.52921277 0.028494647
1.2025734 -0.54105407 0.02873653
1.1865032 -0.54259962 0.028428677
1.1867777 -0.55155569 0.028516635
1.1878909 -0.5609625 0.028626582
1.1817226 -0.56694293 0.028560614
1.1970931 -0.58338374 0.029022392
1.1800519 -0.58406359 0.028692551
1.1773392 -0.59174234 0.028714539
1.1834809 -0.60395575 0.028956423
1.1815281 -0.61212617 0.029000401
1.1812891 -0.62122631 0.029088359
1.1836284 -0.63175917 0.029242285
1.1788508 -0.63853359 0.029220296
1.180167 -0.64864498 0.029352233
1.1761647 -0.65587413 0.029352233
1.179949 -0.66751021 0.029550137
1.1888368 -0.68220371 0.029879976
1.1872205 -0.69099456 0.029945945
1.1932888 -0.70436627 0.030209817
1.1932331 -0.71424294 0.030319765
1.187119 -0.72051322 0.030275786
1.1852298 -0.72935605 0.030341754
1.1654656 -0.72708714 0.029945945
20.03475 -12.674515 0.52116662
20.032345 -12.845778 0.52314568
20.315275 -13.20382 0.53264505
20.344917 -13.40137 0.53556967
20.256483 -13.522066 0.53541571
20.321362 -13.746373 0.53935182
20.241579 -13.874195 0.53948373
20.170029 -14.007829 0.53985757
20.113951 -14.152613 0.54067117
20.193621 -14.39473 0.54517901
20.147873 -14.549385 0.54634446
20.143753 -14.735305 0.5486753
20.085091 -14.882436 0.54955488
20.159712 -15.130222 0.55412871
20.240004 -15.38553 0.55892235
20.224436 -15.570419 0.56112128
20.15217 -15.712664 0.56178099
20.175428 -15.930814 0.56514537
20.130394 -16.096766 0.56664062
20.136139 -16.304916 0.56960922
20.06432 -16.451616 0.57042283
20.062223 -16.656803 0.57325941
20.056065 -16.860649 0.57603008
20.090027 -17.100687 0.58001018
20.283098 -17.480795 0.58867401
20.325361 -17.735727 0.59304988
20.401215 -18.023607 0.59848124
20.402761 -18.24909 0.60180163
20.420088 -18.491375 0.60564977
20.515532 -18.808195 0.61189479
20.534571 -19.058865 0.61594081
20.498114 -19.260494 0.61838162
20.467196 -19.469282 0.62104237
20.400639 -19.645819 0.62266958
20.357738 -19.846697 0.6250664
20.504549 -20.236696 0.63337839
20.418184 -20.400286 0.63456583
20.651802 -20.888487 0.64580238
20.348616 -20.835995 0.64030504
20.520245 -21.271297 0.64980447
20.488653 -21.501028 0.65297091
20.452957 -21.728989 0.65607142
20.363495 -21.901669 0.65750074
9.59272 -10.444937 0.31165183
9.5385256 -10.514707 0.31198168
20.491302 -22.8692 0.67511421
20.369146 -23.015465 0.67572993
20.297943 -23.220556 0.67808276
20.211924 -23.4105 0.67999583
20.109415 -23.582766 0.68140316
20.370861 -24.491869 0.70040202
20.150023 -24.840166 0.70323861
10.008449 -12.652099 0.3545531
9.878933 -12.647087 0.35270599
9.3346653 -12.102643 0.33590612
9.1081972 -11.960052 0.33038679
8.9865751 -11.951786 0.32862765
8.905324 -11.996265 0.32834178
8.7937269 -11.999072 0.32693446
8.6730556 -11.988003 0.32517529
8.5551786 -11.979161 0.32350412
8.4636574 -12.006098 0.32282245
8.3652773 -12.022515 0.32187688
8.2743721 -12.048894 0.32121721
8.1329803 -12.000125 0.31857848
7.9886103 -11.944262 0.31578583
7.8744202 -11.931307 0.31415862
7.7585092 -11.914051 0.31244346
7.6468921 -11.901712 0.31088221
7.569973 -11.942498 0.31072828
7.4626307 -11.934469 0.30932096
7.3567224 -11.927278 0.30795762
7.2709289 -11.951694 0.30742988
7.1496234 -11.916353 0.30538487
7.0463362 -11.909232 0.30408749
6.9439096 -11.902159 0.3028121
6.856791 -11.920277 0.30219641
6.7731643 -11.943861 0.30173463
6.6817021 -11.952907 0.30092102
6.5575781 -11.901737 0.29861215
6.4729776 -11.920663 0.29808438
6.3784866 -11.920487 0.29709488
6.2753844 -11.902801 0.29568756
6.1930156 -11.923338 0.29524776
6.0851316 -11.89347 0.29357657
5.9841475 -11.875229 0.29221323
5.9018373 -11.892917 0.29175144
5.8190966 -11.909143 0.29126769
5.712544 -11.875252 0.2895745
5.6241693 -11.877551 0.28878289
5.5511837 -11.911837 0.28878289
5.4700723 -11.928408 0.2883651
5.3679986 -11.897955 0.28682584
5.2875929 -11.91422 0.28643003
5.2003922 -11.91437 0.28566039
5.1114173 -11.909306 0.28478083
5.0413561 -11.947813 0.28495672
4.9537802 -11.944352 0.28414312
4.8803978 -11.974524 0.28414312
4.7997708 -11.986609 0.28372532
4.7217407 -12.00467 0.28346145
4.635025 -11.999842 0.28266984
4.5680432 -12.045817 0.28308764
4.501718 -12.094233 0.28357139
4.4161057 -12.090637 0.28284577
4.3313823 -12.08833 0.28216407
4.2538137 -12.105247 0.28194419
4.1739216 -12.115051 0.28157037
4.0934296 -12.122437 0.28115258
4.0086083 -12.116003 0.28042692
3.9385047 -12.153686 0.28073478
3.8575079 -12.157611 0.28027299
3.7754252 -12.157182 0.27972326
3.693784 -12.157161 0.27919552
3.6139941 -12.162346 0.27879971
3.5356739 -12.171811 0.27851385
3.4442713 -12.134609 0.27717251
3.3732219 -12.168039 0.27745837
3.2917068 -12.163416 0.27688664
3.2062924 -12.142786 0.27596307
3.1197596 -12.115758 0.27490759
3.0378163 -12.104612 0.27422592
2.9549408 -12.088061 0.27343431
2.8693745 -12.058308 0.27235681
2.7867651 -12.038674 0.27152121
2.7064803 -12.027262 0.27088353
2.6198225 -11.98504 0.26956418
2.5422921 -11.982307 0.26914638
2.4733562 -12.020205 0.26965213
2.3909547 -11.992014 0.2686846
2.3256638 -12.04965 0.26965213
2.2489333 -12.048952 0.26932228
2.16343 -11.99857 0.26789299
2.0871973 -11.996846 0.26756313
2.0064387 -11.967028 0.2666176
1.9281956 -11.949504 0.26595792
1.853613 -11.953207 0.265782
1.7749382 -11.928756 0.26499039
1.6974798 -11.90973 0.26433069
1.629905 -11.960536 0.26523226
1.5548103 -11.957423 0.2649464
1.4766221 -11.928042 0.26408881
1.4063232 -11.961702 0.26463854
1.3247149 -11.896578 0.26301134
1.2493944 -11.882608 0.26252756
1.1757716 -11.883086 0.26237366
1.1034825 -11.897046 0.26252756
1.0285662 -11.88168 0.2620438
0.95396036 -11.866839 0.26158202
0.88105488 -11.871472 0.26156002
0.80867124 -11.883637 0.26171395
0.73530728 -11.881392 0.26156002
0.6617232 -11.8737 0.26129615
0.58801389 -11.860562 0.26092234
0.5148375 -11.854958 0.26072446
0.44160318 -11.844905 0.26043859
0.36838725 -11.830404 0.26006475
0.29601502 -11.841436 0.26026267
0.22363423 -11.858025 0.26059249
0.1503372 -11.817187 0.25966895
0.077608824 -11.784895 0.25894329
0.0053004818 -11.794147 0.25914121
-0.066964477 -11.775963 0.2587454
-0.13566782 -11.475424 0.2521486
-0.20219529 -11.258462 0.24739888
-0.28240845 -11.718763 0.25755796
-0.35161704 -11.627872 0.25560093
-0.42212123 -11.602517 0.25509515
-0.49245504 -11.579731 0.25465536
-0.5627197 -11.560514 0.25430354
-0.63161725 -11.519909 0.25348994
-0.70082915 -11.491866 0.2529622
-0.76918477 -11.455429 0.25225854
-0.83711976 -11.418588 0.25155488
-0.90708792 -11.41224 0.25153288
-0.9766683 -11.401479 0.25142294
-1.0445045 -11.372373 0.25091717
-1.1126058 -11.348836 0.25054336
-1.1826347 -11.345772 0.2506313
-1.2527776 -11.343271 0.25074127
-1.3225868 -11.337356 0.25078523
-1.3933462 -11.33895 0.25100514
-1.4611019 -11.316306 0.25069728
-1.5329242 -11.324962 0.25109309
-1.6061691 -11.34207 0.25168681
-1.6777803 -11.345846 0.25199467
-1.7432525 -11.30866 0.25140095
-1.8062725 -11.258265 0.25052136
-1.8771269 -11.257817 0.25076327
-1.937132 -11.193877 0.24959782
-2.006839 -11.187684 0.24972975
-2.0758128 -11.177125 0.24977373
-2.1515219 -11.201488 0.25060934
-2.223521 -11.204745 0.25098315
-2.2930329 -11.194809 0.2510711
-2.3641593 -11.192266 0.25133497
-2.4332147 -11.179503 0.25137895
-2.5054815 -11.180948 0.25175276
-2.5751624 -11.170235 0.25186273
-2.6399639 -11.138659 0.25151089
-2.707077 -11.117393 0.25140095
-2.7939138 -11.175257 0.25309414
-2.8651643 -11.168555 0.25333601
-2.9366922 -11.162367 0.25359988
-3.0139785 -11.176957 0.25434753
-3.0995412 -11.219928 0.25575483
-3.1892819 -11.274772 0.25744802
-3.2678559 -11.287642 0.25819567
-3.3404613 -11.278881 0.25845954
-3.4339476 -11.338546 0.26030666
-3.5200121 -11.370745 0.26153806
-3.6120281 -11.41947 0.26316527
-3.6881762 -11.416119 0.26360506
-3.7731881 -11.438846 0.26466054
-3.8901999 -11.55476 0.26789299
-3.9688213 -11.553366 0.26842073
-4.0512085 -11.561818 0.26919034
-4.1257744 -11.547099 0.26943225
-4.2242641 -11.597656 0.27121338
-4.3325753 -11.671805 0.27356625
-4.4500885 -11.766565 0.27642485
-4.5753951 -11.877111 0.27967927
-7.42349 -18.923059 0.44682053
-4.4055977 -11.030894 0.26098832
-4.4547496 -10.958274 0.25991082
-4.5234332 -10.934428 0.2599988
-4.4709816 -10.622659 0.25322607
-4.5376506 -10.598701 0.25331402
-4.6029968 -10.571575 0.25333601
-4.5512085 -10.279855 0.24700306
-4.7676702 -10.592697 0.25522709
-4.8200974 -10.53597 0.25456741
-4.6928682 -10.093712 0.24456225
-4.7179866 -9.9869871 0.24267116
-4.6524248 -9.6937637 0.23622827
-4.6925397 -9.625494 0.23526074
-4.7736936 -9.6413174 0.23636021
-4.8848596 -9.715456 0.23891097
-4.8743734 -9.5481739 0.23552461
-4.9682918 -9.5864334 0.2372178
-5.3398237 -10.150342 0.25199467
-8.5028992 -15.924771 0.39679471
-8.5785418 -15.831864 0.39578319
-8.6418047 -15.717604 0.39424393
-8.7307777 -15.651187 0.39391407
-8.8123674 -15.572089 0.39327639
-8.8908272 -15.488244 0.39252874
-8.974124 -15.413528 0.392023
-4.5890718 -7.7721176 0.19825262
-4.6156163 -7.7086463 0.19735105
-9.1712217 -15.105582 0.38841674
-9.2401524 -15.010712 0.38742721
-9.3204374 -14.935074 0.38694346
-9.3557777 -14.788891 0.38463458
-9.4452658 -14.729524 0.3845906
-9.5354662 -14.671291 0.3845906
-9.6401577 -14.635049 0.38518432
-9.7464275 -14.600568 0.38584399
-9.8408737 -14.547943 0.38604188
-9.9655619 -14.539238 0.38742721
-10.093366 -14.533656 0.38892251
-10.210543 -14.511515 0.38999999
-10.349299 -14.518601 0.39189106
-10.485013 -14.519668 0.3936502
-10.705537 -14.634999 0.39855385
-10.844537 -14.635708 0.40037897
-11.04396 -14.715219 0.40440303
-11.176394 -14.70289 0.40594226
-11.340195 -14.729891 0.40860298
-15.563281 -19.960585 0.55643755
-15.672453 -19.848236 0.55597579
-15.85888 -19.832903 0.55826271
-16.104216 -19.888285 0.56259459
-16.479507 -20.098335 0.57139033
-17.217527 -20.737574 0.59256613
-17.660973 -21.008047 0.60338485
-17.716316 -20.813259 0.60090005
-21.67638 -24.841322 0.72487617
-21.842958 -24.724333 0.72535992
-22.044909 -24.646475 0.72703111
-22.439995 -24.780493 0.73503524
-22.684856 -24.744034 0.73806983
-22.946436 -24.723085 0.7416321
-22.989534 -24.466707 0.73815775
-23.479622 -24.683022 0.74902052
-23.606361 -24.513287 0.7482509
-24.312553 -24.938517 0.7657764
-24.439831 -24.763252 0.76498479
-18.458464 -18.474688 0.574139
-17.837057 -17.634995 0.55142397
-17.426365 -17.018791 0.53548169
-16.974987 -16.37569 0.51850587
-16.823273 -16.031214 0.51085359
-16.413183 -15.449395 0.49550501
-16.359035 -15.210202 0.49104115
-16.142054 -14.82484 0.48178363
-16.179398 -14.677151 0.48020041
-16.173843 -14.492204 0.47738576
-16.179359 -14.319143 0.47494495
-16.197666 -14.159065 0.47292191
-16.26759 -14.045037 0.47243816
-16.333685 -13.928092 0.47186643
-16.418072 -13.826964 0.47184443
-16.484926 -13.711261 0.47133869
-16.540161 -13.586373 0.47052509
-16.579735 -13.44936 0.46929365
-16.55817 -13.264245 0.46636909
-16.56554 -13.104092 0.46430209
-16.623571 -12.98497 0.46368638
-16.698975 -12.879671 0.46357644
-16.784052 -12.781813 0.46375233
-16.89093 -12.700216 0.46454397
-17.096178 -12.691085 0.46804026
-17.206789 -12.610175 0.46894184
-17.322721 -12.532487 0.46999732
-17.418818 -12.439906 0.47052509
-15.55003 -10.961861 0.41819036
-15.662134 -10.897646 0.41939977
-15.693268 -10.777004 0.41845423
-18.175699 -12.318287 0.48266321
-18.289169 -12.232098 0.48367471
-15.921521 -10.507793 0.41931182
-15.960563 -10.393536 0.41865215
-18.586084 -11.941478 0.48563176
-15.643586 -9.9158955 0.40710771
-18.769369 -11.73635 0.48662129
-18.878469 -11.644055 0.48758882
-19.02985 -11.576841 0.48965582
-19.187969 -11.512321 0.49189875
-19.321058 -11.431533 0.49350396
-19.498781 -11.375739 0.49625263
-19.989393 -11.498144 0.50693947
-20.460482 -11.602619 0.51707655
-20.745968 -11.596859 0.52248597
-21.181881 -11.670526 0.53165555
-21.557962 -11.705876 0.53928584
-24.284475 -12.994026 0.60551786
-24.796211 -13.072769 0.61627066
-25.042757 -13.007009 0.62040466
-25.471878 -13.03206 0.6290465
-25.862061 -13.032083 0.63669878
-16.369812 -8.1233959 0.40167633
-26.850039 -13.119275 0.65701699
-27.023727 -12.999351 0.65930384
-27.313519 -12.932979 0.6644274
-27.547319 -12.837354 0.66818756
-22.837303 -10.303282 0.55078632
-22.87085 -10.149983 0.55008262
-22.901545 -9.995862 0.549335
-22.899055 -9.8279457 0.54781771
-22.798145 -9.4550486 0.54258424
-22.799255 -9.2919674 0.5412429
-22.845633 -9.1478109 0.54100102
-22.746887 -8.9467163 0.53735077
-22.687527 -8.4445515 0.53218329
-22.716377 -8.2969532 0.53165555
-22.741447 -8.1483068 0.53106183
-22.742912 -7.9917121 0.52994037
-22.771669 -7.8451748 0.52947861
-22.729391 -7.6749187 0.52738959
-22.841246 -6.9397936 0.52479488
-23.006294 -6.6826773 0.52666396
-23.148228 -6.4169436 0.52807128
-43.013451 -6.6696258 0.95710599
-121.79671 -14.317472 2.6970594
-121.89518 -13.571311 2.6973453
-56.599655 -4.898859 1.2492788
-64.129761 -3.1784112 1.4119782
-63.595707 -2.7608814 1.3998181
-60.343102 -0.39648551 1.3269893
-62.935612 1.1312898 1.3842056
-63.689449 1.9268944 1.4012034
-43.382259 1.8455328 0.95477509
-25.531263 2.0295925 0.56305635
-18.629114 2.1733663 0.41225323
-18.506277 2.2742164 0.40983438
-18.006128 2.3249865 0.39905959
-17.961802 2.4314027 0.39839992
-17.970301 2.5449331 0.39892766
-17.905886 2.6479816 0.39785019
-17.914003 2.7616088 0.39839992
-17.905605 2.8729005 0.39859784
-17.88764 2.9827132 0.39859784
-17.868017 3.092243 0.39857584
-17.88118 3.2076466 0.3993015
-17.888683 3.3224151 0.39991719
-17.914108 3.4409797 0.4009507
-17.942667 3.5607595 0.40207213
-17.962597 3.679414 0.4030177
-17.970007 3.7959669 0.40369937
-17.965914 3.9104102 0.40413916
-17.981581 4.0295367 0.40504071
-17.995485 4.1487784 0.4059203
-17.979418 4.2614245 0.40614018
-18.005386 4.3844371 0.40732759
-17.992693 4.4984713 0.40765744
-17.961847 4.6080422 0.40759149
-16.309889 4.2910509 0.37067133
-16.253328 4.3829761 0.36998963
-10.910593 3.0140805 0.24869625
-10.86111 3.0722613 0.24799259
-10.842054 3.1388459 0.24799259
-10.758365 3.1862895 0.2465193
-10.661107 3.2287676 0.24473816
-10.546547 3.2648509 0.24256122
-10.462451 3.3092999 0.24108793
-10.408652 3.3626761 0.2403183
-10.372632 3.421468 0.23996647
-10.355232 3.486325 0.24005443
-10.345938 3.5540206 0.24034029
-10.336202 3.6217334 0.24062616
-10.325082 3.6891236 0.24089003
-10.316342 3.7575402 0.24121986
-10.320273 3.8308594 0.24185756
-8.8415422 3.3437932 0.20764209
-8.6398716 3.3282561 0.20337614
-8.5048113 3.3362966 0.20067145
-8.4581833 3.3780348 0.20005575
-8.3539438 3.3959832 0.19807671
-8.2350235 3.4066656 0.19574584
-8.119977 3.4175696 0.19350292
-7.837841 3.3555744 0.18725793
-7.7382741 3.369278 0.18536685
-7.6571202 3.389982 0.18391556
-7.5714474 3.4077666 0.1823543
-7.5067573 3.434195 0.18129882
-7.4846373 3.4797695 0.18127683
-7.4477777 3.5183685 0.180903
-7.3638587 3.5341518 0.17938574
-7.4327979 3.6235194 0.18160667
-7.355772 3.6419966 0.18026532
-7.3395391 3.6902061 0.18041924
-7.3301148 3.7419901 0.18074909
-7.3327575 3.8002377 0.18138677
-7.3181496 3.8498139 0.18160667
-7.2987995 3.8969991 0.18171662
-7.2905726 3.950284 0.18211243
-7.2977347 4.0122848 0.18290403
-7.2965522 4.0701375 0.18349776
-7.3062449 4.1345277 0.18437733
-7.312819 4.1976967 0.18519093
-7.3093882 4.2555671 0.18576266
-7.3003569 4.3105035 0.18620245
-7.298645 4.370111 0.18684013
-7.2956214 4.4293404 0.18745585
-7.2921443 4.4886971 0.18807155
-7.3195944 4.5677614 0.18950085
-7.3311386 4.6377091 0.19053435
-7.3353658 4.7036524 0.19139194
-7.3289995 4.7632833 0.19198565
-7.3296909 4.8279624 0.19277728
-7.3315263 4.8939385 0.19361287
-7.3245463 4.9545169 0.19422857
-7.3525567 5.0394979 0.19578981
-7.3674812 5.1164536 0.19702122
-7.3833714 5.1949315 0.19829661
-7.3757796 5.2575474 0.19895628
-7.3830962 5.3313851 0.20003377
-7.3784862 5.3972459 0.2008034
-7.3797712 5.4680119 0.20174894
-7.4188447 5.5678024 0.20374997
-7.4052353 5.6289492 0.2043217
-7.3935308 5.6919675 0.20495938
-7.3947339 5.7655044 0.2059709
-7.4164958 5.8559976 0.20757613
-7.435082 5.9451003 0.20911537
-7.4178877 6.0063381 0.2096651
-3.4280503 2.8105745 0.097233437
-3.2969 2.7370372 0.093979008
-3.2035179 2.6928804 0.091780066
-3.1458244 2.6774926 0.090592645
-3.091471 2.6641102 0.08949317
-3.0502076 2.6613371 0.088767521
-3.0090954 2.6581593 0.088041872
-2.9681382 2.6545775 0.087316222
-2.9414194 2.6633446 0.087008372
-2.9287066 2.6847208 0.08711832
-2.9224372 2.712162 0.087426171
-2.8328824 2.6615822 0.085227236
-2.7744844 2.6389489 0.083951853
-2.8043282 2.7003067 0.085359171
-2.7469025 2.6776826 0.084105775
-2.7795186 2.742944 0.085623041
-2.7272742 2.7246156 0.084523574
-2.6908238 2.7213919 0.083907872
-2.6943319 2.7585936 0.084545568
-2.6606963 2.7578051 0.084017821
-2.6616564 2.792897 0.084589541
-2.6396725 2.8040802 0.084435619
-2.5863376 2.7814183 0.083270177
-2.5685463 2.7964993 0.083248191
-2.5352178 2.794435 0.082720444
-2.4846656 2.7727089 0.081620976
-2.4669433 2.7871537 0.08159899
-2.4392674 2.7901945 0.081247158
-2.421448 2.8043523 0.081225172
-2.423007 2.8412187 0.081862859
-2.4113243 2.8629148 0.082060762
-2.3687794 2.8476796 0.081203178
-2.3607805 2.8737485 0.081533022
-2.3437331 2.8889565 0.081555009
-2.3384635 2.9188886 0.081994794
-2.3130662 2.9237731 0.081730925
-2.2907751 2.9323952 0.081576996
-2.2770131 2.9519377 0.081730925
-2.2460241 2.9868495 0.081928827
-2.2312303 3.0053914 0.082060762
-2.2139297 3.020638 0.082104743
-2.1941814 3.0325456 0.082060762
-2.2121375 3.0972078 0.083446093
-2.1850274 3.099283 0.083138242
-2.1671112 3.1142731 0.083182223
-2.1881442 3.1860261 0.08474347
-2.1803324 3.2167718 0.085205242
-2.1455474 3.2076519 0.084611535
-2.1489537 3.2558022 0.085535087
-2.1311183 3.2722778 0.085623041
-2.1132817 3.3336492 0.0865466
-2.1031785 3.4095356 0.087843969
-2.0900123 3.4351883 0.088173814
-2.0976987 3.4959564 0.089405216
-2.0812993 3.5173662 0.089625113
-2.0803332 3.5654762 0.090526678
-2.0678875 3.5946395 0.090944469
-2.0679843 3.646395 0.091933995
-2.047523 3.6625059 0.09202195
