# .PCD v0.7 - Point Cloud Data file format
VERSION 0.7
FIELDS x y z
SIZE 4 4 4
TYPE F F F
COUNT 1 1 1
WIDTH 1446
HEIGHT 1
VIEWPOINT 0 0 0 1 0 0 0
POINTS 1446
DATA ascii
1.6549251 2.9393625 -0.79514092
1.6719642 2.9274631 -0.79468048
1.6957496 2.927253 -0.79744309
1.7220604 2.931056 -0.80135685
1.7325401 2.9078951 -0.79790354
1.7503501 2.8972096 -0.79790354
1.7609767 2.8747981 -0.79468048
1.7760158 2.8598056 -0.79352939
1.8168634 2.8859112 -0.80388921
1.8162118 2.8459988 -0.79583156
1.8383976 2.8421547 -0.79790354
1.851 2.8234968 -0.79583156
1.8725983 2.8185701 -0.79767334
1.8822479 2.7957265 -0.79445022
1.9010123 2.786536 -0.79514092
1.9346764 2.7988331 -0.80204749
1.9562799 2.7932858 -0.80388921
1.9553602 2.7558341 -0.7965222
1.959168 2.7256112 -0.79122716
1.9924687 2.7363513 -0.79790354
2.0040219 2.7170262 -0.79583156
2.0363827 2.7257264 -0.80204749
2.0372128 2.6922293 -0.79583156
2.0483656 2.6727273 -0.79375958
2.0557754 2.6485779 -0.79030627
2.0882275 2.6565695 -0.7965222
2.1026702 2.6414225 -0.79583156
2.1151731 2.6239257 -0.79445022
2.1256945 2.6041133 -0.79237825
2.1397731 2.5887711 -0.79168761
2.1687343 2.5912638 -0.7965222
2.1908853 2.5853312 -0.79882443
2.2060735 2.5711012 -0.79859418
2.2058516 2.5391517 -0.79283869
2.2310312 2.5365291 -0.79629201
2.2374918 2.5126181 -0.79306895
2.2483051 2.4937828 -0.79145741
2.2570033 2.4727538 -0.78915519
2.2589235 2.4445651 -0.78455079
2.2805293 2.4377646 -0.78685302
2.2914288 2.4194865 -0.78547168
2.3163345 2.4159167 -0.78892499
2.3311148 2.4016585 -0.78892499
2.3478534 2.3893921 -0.78961563
2.3741384 2.3866687 -0.79352939
2.3852851 2.3686283 -0.79237825
2.3990788 2.3532662 -0.79214805
2.4001935 2.3256361 -0.78777385
2.4221518 2.3182662 -0.79030627
2.4137008 2.2819688 -0.78293926
2.436904 2.2757494 -0.78593212
2.4687054 2.2772481 -0.79168761
2.4768767 2.2568147 -0.78984582
2.4863372 2.2376688 -0.78846455
2.5182049 2.2385328 -0.79422003
2.5216541 2.2140512 -0.79099697
2.5219576 2.1870618 -0.78685302
2.5338514 2.1702802 -0.78639257
2.5441482 2.152178 -0.78547168
2.572243 2.1490045 -0.79007608
2.5838792 2.1319423 -0.78961563
2.6195455 2.1344874 -0.7965222
2.6212201 2.1092241 -0.79306895
2.6478276 2.103997 -0.7972129
2.6560938 2.0841067 -0.79583156
2.6703701 2.0689619 -0.79629201
2.6660099 2.039531 -0.79122716
2.6761444 2.0213747 -0.79053652
2.6822555 2.0002627 -0.78869474
2.6905601 1.9808825 -0.78754365
2.7317913 1.985503 -0.79606175
2.7194102 1.9511194 -0.78892499
2.7519801 1.9490185 -0.79491067
2.7622917 1.9309808 -0.79445022
2.7556643 1.901286 -0.78915519
2.7648654 1.8826989 -0.78846455
2.7626336 1.8564724 -0.78455079
2.7837055 1.8459392 -0.78731346
2.8202243 1.8453394 -0.79445022
2.8306766 1.8274724 -0.79422003
2.8410153 1.8095465 -0.79398978
2.8586574 1.7962219 -0.79583156
2.8812056 1.7858241 -0.79905462
2.8779936 1.7594837 -0.79514092
2.8804014 1.7367674 -0.79283869
2.8834753 1.7145853 -0.79076672
2.9031763 1.702274 -0.79329914
2.9026136 1.6780975 -0.79030627
2.8976369 1.6515831 -0.78616232
2.9357145 1.6495008 -0.79375958
2.9457805 1.6314566 -0.79375958
2.9565895 1.6138171 -0.79398978
2.965579 1.5951846 -0.79375958
2.9572539 1.5673892 -0.78892499
2.9797554 1.55597 -0.79237825
3.0091505 1.5478939 -0.79767334
2.9960208 1.5179673 -0.79168761
3.00702 1.5004244 -0.79214805
2.9987011 1.4733641 -0.78754365
3.0155694 1.45875 -0.78961563
3.0323713 1.4439842 -0.79168761
3.035887 1.4228733 -0.79030627
3.0383747 1.401366 -0.78869474
3.0433712 1.3810883 -0.78777385
3.0562313 1.3643717 -0.78892499
3.0547438 1.3412905 -0.78639257
3.0405803 1.3128793 -0.78063709
3.0853062 1.3097862 -0.79007608
3.0852015 1.2874582 -0.7880041
3.1155531 1.2777331 -0.79375958
3.1233346 1.2585924 -0.79375958
3.1147108 1.2329584 -0.78961563
3.1222177 1.2138237 -0.78961563
3.1377892 1.1977659 -0.79168761
3.1377892 1.1757593 -0.78984582
3.1394644 1.1544693 -0.78846455
3.149235 1.1361747 -0.78915519
3.1341293 1.1090406 -0.78362989
3.1666183 1.0987188 -0.79007608
3.1935697 1.0861601 -0.79514092
3.1900184 1.0631605 -0.7926085
3.1974068 1.0438689 -0.79283869
3.2102404 1.0263042 -0.79445022
3.1728261 0.99293047 -0.78362989
3.1918859 0.97743177 -0.78685302
3.211807 0.96201563 -0.79030627
3.2120457 0.94064969 -0.78892499
3.2458248 0.92895389 -0.79583156
3.184921 0.89042252 -0.77948594
3.1903245 0.87086338 -0.77948594
3.2125344 0.85577911 -0.78362989
3.218667 0.8362959 -0.78386015
3.2265677 0.81724739 -0.78455079
3.2693143 0.80675691 -0.79375958
3.2524397 0.7814545 -0.78846455
3.2505403 0.75993299 -0.78685302
3.2541928 0.73975807 -0.78662276
3.236815 0.71495116 -0.78132772
3.2458985 0.69609684 -0.78247881
3.272022 0.68072438 -0.78777385
3.2694595 0.65928882 -0.78616232
3.271533 0.63884252 -0.78570187
3.2945161 0.62236804 -0.79030627
3.3107183 0.60441256 -0.79329914
2.969346 0.52331305 -0.71042007
2.9015055 0.49302664 -0.69338387
2.9073572 0.47568521 -0.69407451
2.9207959 0.45949963 -0.69660693
2.9610877 0.44723392 -0.70558548
2.9531817 0.42752385 -0.70305306
2.9518936 0.40886176 -0.70213217
2.9041798 0.38411108 -0.69016075
2.9228959 0.3683511 -0.69407451
2.9115734 0.34879035 -0.69085145
2.9513693 0.33519819 -0.69983
2.9107966 0.31251565 -0.68970031
2.9049137 0.29386657 -0.68785858
2.8950367 0.2749339 -0.68509597
2.9160559 0.25888443 -0.68970031
2.9311671 0.24210724 -0.69292343
2.9005771 0.22167322 -0.68532616
2.9077072 0.20428011 -0.6867075
2.9127905 0.18668352 -0.68762833
2.9031944 0.16818932 -0.68509597
2.9100029 0.15067388 -0.68647724
2.9011514 0.13237293 -0.68417507
2.8853784 0.1139182 -0.68026131
2.8801875 0.096017703 -0.67888004
2.873913 0.078158848 -0.67726851
2.8899052 0.060849708 -0.68095201
2.887305 0.043073159 -0.68026131
2.8758378 0.025254719 -0.6774987
2.5748975 0.0068952204 -0.66182053
2.5729549 -0.008897963 -0.66132045
2.5767245 -0.024721354 -0.66232061
2.5813651 -0.040606335 -0.66357082
2.5771954 -0.056360804 -0.66257066
2.5768008 -0.072173111 -0.66257066
2.5637298 -0.087556191 -0.65932012
2.5360553 -0.1022004 -0.65231889
2.5257087 -0.1173126 -0.64981848
2.5191398 -0.13250415 -0.64831823
2.5066803 -0.14728025 -0.64531773
2.4970334 -0.16209589 -0.64306736
2.5268979 -0.17960328 -0.65106869
2.5238175 -0.194956 -0.6505686
2.5109949 -0.20947517 -0.64756811
2.5376298 -0.22737733 -0.65481937
2.5284762 -0.24220698 -0.65281898
2.5673995 -0.26183277 -0.66332078
2.4858451 -0.26895684 -0.64256728
2.4995399 -0.28596163 -0.64656794
2.4813962 -0.299326 -0.64231724
2.5016057 -0.31734294 -0.64806819
2.5092096 -0.33396155 -0.6505686
2.4860151 -0.34641692 -0.64506769
2.4761775 -0.36055017 -0.64306736
2.4901924 -0.37820438 -0.64731807
2.4773047 -0.39181563 -0.64456761
2.4662552 -0.40559676 -0.64231724
2.4608564 -0.42023358 -0.64156711
2.4591851 -0.4354938 -0.64181715
2.4517047 -0.44970268 -0.64056695
2.3965776 -0.454822 -0.6268146
2.4697561 -0.48440787 -0.64681798
2.3737335 -0.48074248 -0.62231386
1.4930546 -0.31217039 -0.39077494
1.4930043 -0.32173288 -0.39127502
1.5051819 -0.33402839 -0.39502567
1.4898877 -0.34024528 -0.39152506
1.4783452 -0.34717104 -0.38902465
1.4865415 -0.3587296 -0.39177513
1.4767933 -0.36598399 -0.38977477
1.481089 -0.37670648 -0.39152506
1.4871825 -0.38798344 -0.39377546
1.4847739 -0.39710131 -0.39377546
1.4944502 -0.4095259 -0.397026
1.5003002 -0.4210391 -0.39927638
1.4995499 -0.43077075 -0.39977646
1.5126724 -0.44459891 -0.40402716
1.8938434 -0.56911063 -0.50754458
2.4142253 -0.74148631 -0.64906836
2.3763707 -0.74585611 -0.64006686
2.3643727 -0.75806022 -0.63806653
2.4001679 -0.78579867 -0.64906836
2.3539739 -0.78671098 -0.63781649
2.4150894 -0.82362533 -0.65581954
2.394443 -0.83302397 -0.65156877
2.3181047 -0.8224656 -0.63206553
2.3813083 -0.86135739 -0.65081865
2.3996005 -0.88465476 -0.65731978
2.3796237 -0.8939175 -0.65331906
2.3831375 -0.91196001 -0.65581954
2.3450167 -0.91391635 -0.64681798
2.3672667 -0.93935156 -0.65456933
2.357867 -0.95240957 -0.6535691
2.3179455 -0.95287859 -0.64406753
2.3227751 -0.97156417 -0.64706802
2.319443 -0.98693472 -0.64781815
2.2884603 -0.99038661 -0.64081699
2.3346329 -1.0274067 -0.65556949
2.2911608 -1.0251136 -0.64506769
2.277776 -1.0359476 -0.64306736
2.2766507 -1.0523404 -0.64456761
2.2719038 -1.0671127 -0.64506769
2.2924054 -1.093953 -0.65281898
2.2621231 -1.0966007 -0.64606786
2.2692521 -1.1172998 -0.65006852
2.2554247 -1.1277401 -0.64806819
2.2501895 -1.1424341 -0.64856827
2.2422764 -1.1557761 -0.64831823
2.2351425 -1.1695127 -0.64831823
2.2202275 -1.1791201 -0.64606786
2.2282944 -1.2009858 -0.6505686
2.2353265 -1.2225304 -0.65481937
2.2116952 -1.2273008 -0.65006852
2.2108738 -1.2446467 -0.65206885
2.2057178 -1.2596287 -0.65281898
2.1904058 -1.2687732 -0.6505686
2.1566958 -1.2669922 -0.64281732
2.1621921 -1.2881272 -0.64681798
2.1559055 -1.3023708 -0.64731807
2.1586089 -1.3221463 -0.6505686
2.1685545 -1.346599 -0.65606958
2.1495972 -1.3531767 -0.65281898
2.1608462 -1.3788359 -0.65882003
2.1352694 -1.3810304 -0.6535691
2.1348543 -1.3994123 -0.65606958
2.1310673 -1.4156986 -0.65756983
2.111094 -1.4211808 -0.65406919
2.1231339 -1.4482886 -0.66057032
2.1118176 -1.4596376 -0.6598202
2.1091673 -1.4770097 -0.66182053
2.0858483 -1.4798424 -0.65731978
2.0759425 -1.4920483 -0.65706974
2.0651827 -1.5036185 -0.65656966
2.0489032 -1.5110915 -0.65431923
2.0706263 -1.5468057 -0.66432095
2.0394728 -1.543129 -0.65731978
2.0322721 -1.5573802 -0.65806991
2.0157924 -1.5644796 -0.65581954
2.0107234 -1.5804076 -0.65731978
2.0032613 -1.5945238 -0.65806991
1.985146 -1.6001037 -0.65531945
1.9962976 -1.6293918 -0.66232061
1.9817834 -1.6379102 -0.66082036
1.9820936 -1.6587365 -0.66432095
1.973356 -1.6721187 -0.66482103
1.9490941 -1.6722201 -0.66007024
1.9351411 -1.6809741 -0.65882003
1.916064 -1.6851453 -0.65581954
1.9035182 -1.6949391 -0.65506941
1.8822927 -1.6968651 -0.65131873
1.8739915 -1.7103403 -0.65206885
1.8819556 -1.7388862 -0.65856999
1.8684216 -1.747756 -0.65756983
1.859772 -1.7611842 -0.65831995
1.8405415 -1.7645239 -0.65531945
1.8414942 -1.7872448 -0.65957016
1.8249668 -1.793083 -0.65756983
1.8407093 -1.83087 -0.66732144
1.8178391 -1.8304535 -0.66307074
1.7970785 -1.8318989 -0.65957016
1.791196 -1.8484524 -0.66157049
1.7744629 -1.853814 -0.65957016
1.7537394 -1.8548197 -0.65606958
1.7482749 -1.8719124 -0.65831995
1.7420098 -1.8882965 -0.66032028
1.7219104 -1.8896481 -0.65706974
1.7174106 -1.9080924 -0.6598202
1.7050269 -1.9178709 -0.65957016
1.695783 -1.9312062 -0.66057032
1.7010348 -1.9613202 -0.66732144
1.6688061 -1.9481946 -0.65932012
1.6530676 -1.9539634 -0.65781987
1.6453941 -1.9692696 -0.65957016
1.62465 -1.9688753 -0.65606958
1.6155977 -1.9825591 -0.65731978
1.5967232 -1.9841391 -0.65456933
1.5760826 -1.9832888 -0.65106869
1.5638837 -1.9929221 -0.65106869
1.5539988 -2.0055411 -0.65206885
1.5416638 -2.0150387 -0.65206885
1.5281032 -2.0229154 -0.65156877
1.5179782 -2.0353575 -0.65256894
1.4956983 -2.0313811 -0.64831823
1.5002902 -2.0640118 -0.65581954
1.4723514 -2.0519423 -0.64906836
1.4681307 -2.0727875 -0.65281898
1.4509449 -2.0754097 -0.65081865
1.4277313 -2.0691342 -0.64606786
1.4133729 -2.0754554 -0.64531773
1.4108769 -2.0993547 -0.65006852
1.3990395 -2.1095858 -0.6505686
1.3712186 -2.095449 -0.64356744
1.3677924 -2.1184623 -0.64806819
1.3365542 -2.0982375 -0.63931674
1.3483924 -2.1457434 -0.65131873
1.335201 -2.1539767 -0.65131873
1.3280226 -2.17204 -0.65431923
1.3181716 -2.185951 -0.65606958
1.3072096 -2.1981583 -0.65731978
1.3113368 -2.2362015 -0.66632128
1.3053488 -2.2576151 -0.67032194
1.2900325 -2.2630589 -0.66957182
1.2822913 -2.2819033 -0.67282236
1.2560627 -2.2677097 -0.66632128
1.2453737 -2.2813222 -0.66807157
1.2290577 -2.284658 -0.66682136
1.2181919 -2.2981439 -0.66857165
1.2121394 -2.3210216 -0.6730724
1.1828082 -2.2991459 -0.66457099
1.1967013 -2.361629 -0.68057364
1.234959 -2.4746094 -0.71107882
1.2406859 -2.5247154 -0.72333086
1.2150459 -2.5113649 -0.71732986
1.2129426 -2.5467429 -0.72533119
1.2059276 -2.572546 -0.73058206
1.1994529 -2.6001165 -0.73633307
1.1770704 -2.593322 -0.73233235
1.1662703 -2.6119878 -0.73558295
1.1770985 -2.6802583 -0.75283581
1.1521809 -2.6678767 -0.7473349
1.1342751 -2.6713316 -0.74633473
1.1212209 -2.6862822 -0.7485851
1.1003053 -2.6823626 -0.74558461
1.0896202 -2.7034307 -0.74958527
1.0780047 -2.7226679 -0.75308585
1.0690026 -2.7490826 -0.75858676
1.0476222 -2.7438319 -0.75533623
1.0304266 -2.7493017 -0.75508618
1.0138723 -2.7564812 -0.75533623
1.0045034 -2.7835958 -0.76108718
0.98481852 -2.7824056 -0.75908685
0.9651863 -2.7810788 -0.75708652
0.94591951 -2.7805326 -0.75533623
0.93067908 -2.7917953 -0.75683647
0.92074978 -2.8195412 -0.76283753
0.89546406 -2.8002393 -0.75608635
0.87652856 -2.8001373 -0.7545861
0.85706061 -2.7980571 -0.75258577
0.83459228 -2.7856419 -0.74783498
0.81884611 -2.795356 -0.74908519
0.80274546 -2.8040509 -0.75008535
0.78082764 -2.7921407 -0.74558461
0.75985205 -2.7828693 -0.74183398
0.74376041 -2.7912214 -0.74283415
0.72588849 -2.7929213 -0.74208403
0.70826173 -2.7954457 -0.74158394
0.69365054 -2.8100786 -0.7443344
0.67752761 -2.8189886 -0.74558461
0.65712816 -2.8098943 -0.74208403
0.63729578 -2.8025446 -0.73908353
0.61632377 -2.7893851 -0.73458272
0.6004166 -2.7987943 -0.73608303
0.58204728 -2.7967384 -0.73458272
0.56180924 -2.7850718 -0.73058206
0.54656816 -2.7979691 -0.73308247
0.52740973 -2.7908051 -0.73033202
0.50905663 -2.7873216 -0.72858173
0.49177602 -2.7894392 -0.72833169
0.47351384 -2.7857227 -0.72658139
0.45813471 -2.7990859 -0.72933185
0.44200638 -2.8085392 -0.73108214
0.4249101 -2.8121557 -0.73133218
0.40597913 -2.8032117 -0.72833169
0.38797265 -2.7998955 -0.72683144
0.36836827 -2.7839866 -0.72208065
0.35042977 -2.7794702 -0.72033036
0.33186802 -2.7690709 -0.71707982
0.31760943 -2.7951055 -0.72333086
0.30066028 -2.7989271 -0.72383094
0.28396931 -2.8055356 -0.72508115
0.26665771 -2.8062613 -0.7248311
0.24728651 -2.7837343 -0.71858007
0.22844179 -2.7639706 -0.71307915
0.21199642 -2.772078 -0.71482944
0.19464265 -2.7684977 -0.71357924
0.17852259 -2.7831671 -0.71707982
0.16059801 -2.769711 -0.7133292
0.14224128 -2.7445374 -0.70657802
0.12615329 -2.7618012 -0.71082878
0.10955101 -2.7712305 -0.71307915
0.092479944 -2.7699151 -0.71257907
0.075562097 -2.773334 -0.7133292
0.058647078 -2.7785854 -0.7145794
0.041670453 -2.7837336 -0.71582961
0.024580227 -2.7829688 -0.71557957
0.0074868076 -2.7772577 -0.71407932
-0.0095915925 -2.7888701 -0.71707982
-0.026703598 -2.7887588 -0.71707982
-0.043919541 -2.7953193 -0.71883011
-0.060965814 -2.7901573 -0.7175799
-0.077950396 -2.7848914 -0.71632969
-0.094642982 -2.7727485 -0.7133292
-0.11142199 -2.7663107 -0.71182895
-0.12821493 -2.7617061 -0.71082878
-0.14536048 -2.7647352 -0.71182895
-0.16266114 -2.7695906 -0.7133292
-0.18002683 -2.7743378 -0.71482944
-0.19725166 -2.7760785 -0.71557957
-0.21361269 -2.7661273 -0.7133292
-0.22985904 -2.7560804 -0.71107882
-0.24538697 -2.739188 -0.7070781
-0.26228178 -2.7385945 -0.70732814
-0.27937454 -2.7398233 -0.70807827
-0.295661 -2.7332444 -0.70682806
-0.31286553 -2.7352269 -0.70782822
-0.32975841 -2.7342169 -0.70807827
-0.34567776 -2.7254181 -0.70632797
-0.36443412 -2.7386026 -0.7103287
-0.38096422 -2.7343969 -0.70982862
-0.39759573 -2.7310498 -0.70957857
-0.41391021 -2.7256868 -0.70882845
-0.42956981 -2.7164011 -0.7070781
-0.44497418 -2.7060707 -0.70507777
-0.45912886 -2.6889725 -0.70132715
-0.47764257 -2.697546 -0.70432764
-0.49488318 -2.6983743 -0.70532781
-0.5139547 -2.7086051 -0.70882845
-0.53261197 -2.7158525 -0.71157891
-0.55041778 -2.7182274 -0.71307915
-0.56293315 -2.6948946 -0.70782822
-0.57844025 -2.686657 -0.70657802
-0.59596127 -2.6877835 -0.70782822
-0.61265713 -2.6850202 -0.70807827
-0.6311093 -2.6896946 -0.7103287
-0.64828128 -2.6885955 -0.71107882
-0.66360343 -2.6798677 -0.70982862
-0.68074912 -2.6785607 -0.71057874
-0.69619548 -2.6705854 -0.70957857
-0.71381766 -2.6709409 -0.71082878
-0.73044837 -2.6674445 -0.71107882
-0.7486304 -2.6694386 -0.71282911
-0.76312697 -2.6582799 -0.71107882
-0.77833289 -2.6498313 -0.71007866
-0.79346389 -2.6412961 -0.70907849
-0.81079179 -2.6400802 -0.71007866
-0.8272655 -2.6359794 -0.7103287
-0.84165174 -2.6253214 -0.70882845
-0.85864758 -2.6228685 -0.70957857
-0.87227178 -2.6102035 -0.70757818
-0.88827121 -2.6048024 -0.70757818
-0.90264767 -2.5947301 -0.70632797
-0.91952223 -2.5918803 -0.7070781
-0.93112987 -2.574352 -0.70382756
-0.95226341 -2.583127 -0.70782822
-0.96741474 -2.5754223 -0.70732814
-0.98561978 -2.5757685 -0.70907849
-0.99929762 -2.5642591 -0.70757818
-1.0135852 -2.5544789 -0.70657802
-1.0339515 -2.5598838 -0.70982862
-1.0433847 -2.5382659 -0.70557785
-1.06118 -2.5371761 -0.7070781
-1.0805165 -2.5395274 -0.70957857
-1.0960784 -2.5328496 -0.70957857
-1.1166662 -2.5375986 -0.71282911
-1.1341916 -2.5351186 -0.71407932
-1.1521292 -2.5334005 -0.71557957
-1.1717125 -2.5350733 -0.71807998
-1.1827198 -2.5181947 -0.71532953
-1.1931475 -2.5004032 -0.71232903
-1.2072008 -2.4904208 -0.71157891
-1.2228866 -2.4838355 -0.71182895
-1.2376711 -2.475419 -0.71157891
-1.2532749 -2.4686418 -0.71182895
-1.2666249 -2.4574623 -0.71082878
-1.2888585 -2.4633725 -0.71482944
-1.3053111 -2.4579835 -0.71557957
-1.31945 -2.4482231 -0.71507949
-1.3390911 -2.4485769 -0.7175799
-1.3578467 -2.4470882 -0.71958023
-1.3685633 -2.4311161 -0.71732986
-1.3925735 -2.4386501 -0.72208065
-1.4084808 -2.4317355 -0.72258073
-1.4214141 -2.4197078 -0.72158056
-1.4292997 -2.3992934 -0.71807998
-1.4449955 -2.3921361 -0.71858007
-1.4657123 -2.3931341 -0.72158056
-1.4819005 -2.3865638 -0.72233069
-1.5006411 -2.3839822 -0.72433102
-1.5225294 -2.3861585 -0.7278316
-1.5476545 -2.3930342 -0.73283243
-1.5612476 -2.3818731 -0.73233235
-1.5742264 -2.3698287 -0.73158222
-1.5919807 -2.3649449 -0.73308247
-1.6010076 -2.3471322 -0.73058206
-1.6186811 -2.3420444 -0.73208231
-1.6302452 -2.3281019 -0.7308321
-1.6529003 -2.3299024 -0.73458272
-1.6699897 -2.3236485 -0.73583299
-1.6927615 -2.3251011 -0.73958361
-1.7196352 -2.3318169 -0.74508452
-1.736807 -2.3251007 -0.74633473
-1.7533768 -2.3174891 -0.7473349
-1.7657975 -2.3043811 -0.74658477
-1.8030485 -2.3233397 -0.75633639
-1.8370087 -2.3373582 -0.76458782
-1.8681942 -2.3472583 -0.77158898
-1.8752723 -2.3267033 -0.76858848
-1.9005305 -2.3286576 -0.77308923
-1.90615 -2.3065016 -0.76958865
-1.9438726 -2.3229842 -0.77909023
-1.9637214 -2.3176627 -0.7813406
-1.9848384 -2.3136549 -0.78409106
-1.9920148 -2.2933903 -0.7813406
-2.0060492 -2.2811244 -0.7813406
-2.0335259 -2.2839613 -0.78659147
-2.0390761 -2.2620897 -0.78334093
-2.0614004 -2.2588348 -0.78659147
-2.0712802 -2.2418759 -0.78509122
-2.0909486 -2.2354898 -0.78734159
-2.1205997 -2.2394946 -0.79334265
-2.1289423 -2.2208481 -0.79134232
-2.130394 -2.1952336 -0.78684151
-2.1472156 -2.1855748 -0.78809172
-2.1660469 -2.1778517 -0.79009211
-2.174561 -2.1597428 -0.78834176
-2.1698058 -2.1287258 -0.78184068
-2.1751797 -2.1079586 -0.77909023
-2.1985621 -2.1046174 -0.78284085
-2.2100279 -2.0897567 -0.78234076
-2.1838987 -2.0397992 -0.76858848
-2.1230898 -1.9587206 -0.74283415
-2.1572492 -1.9658786 -0.75058544
-2.128979 -1.9163216 -0.73658311
-2.1349094 -1.8980744 -0.73458272
-2.1181471 -1.8600165 -0.7248311
-2.0892982 -1.8120837 -0.71107882
-2.0871444 -1.7878886 -0.70657802
-2.0788605 -1.7587844 -0.70007694
-2.0806987 -1.7385436 -0.69707644
-2.1017802 -1.734374 -0.70057702
-2.1168852 -1.725116 -0.70207727
-2.1168721 -1.7035935 -0.69857669
-2.1386535 -1.6996114 -0.70232731
-2.1467571 -1.6846631 -0.70157719
-2.1371579 -1.6560351 -0.69507611
-2.1511233 -1.6458331 -0.69632632
-2.1797199 -1.6466143 -0.70232731
-2.1618462 -1.612363 -0.69332582
-2.2098963 -1.6272074 -0.70557785
-2.201829 -1.6005189 -0.6998269
-2.2092485 -1.5852847 -0.69907677
-2.2086642 -1.5644213 -0.69582623
-2.2221887 -1.5536146 -0.69707644
-2.2523963 -1.5542526 -0.70357752
-2.2522888 -1.5338607 -0.70057702
-2.2640686 -1.5216329 -0.70132715
-2.2773962 -1.5103889 -0.70257735
-2.2582693 -1.4778235 -0.6938259
-2.2746141 -1.4686677 -0.69607627
-2.2819498 -1.4536425 -0.69557619
-2.2834492 -1.4349749 -0.69332582
-2.3325293 -1.4459435 -0.70557785
-2.3595283 -1.4427202 -0.71107882
-2.4056423 -1.450724 -0.72233069
-2.3753908 -1.4126662 -0.71057874
-2.3948705 -1.4044343 -0.71382928
-2.3841667 -1.3785616 -0.70807827
-2.4152889 -1.3768586 -0.71482944
-2.4085 -1.3534712 -0.7103287
-2.418453 -1.339606 -0.71082878
-2.4342749 -1.3289188 -0.71307915
-2.4312999 -1.3079915 -0.70982862
-2.4427011 -1.2948633 -0.71082878
-2.4566073 -1.2829897 -0.71257907
-2.4816508 -1.2767552 -0.7175799
-2.5032554 -1.2685097 -0.72158056
-2.4876029 -1.2414472 -0.71482944
-2.4951735 -1.2261603 -0.71482944
-2.5043931 -1.2116709 -0.71532953
-2.5056622 -1.1933657 -0.71357924
-2.5225799 -1.1824915 -0.71632969
-2.5508866 -1.1767296 -0.72233069
-2.5510063 -1.1578525 -0.72033036
-2.5377302 -1.1330941 -0.7145794
-2.5419757 -1.1163329 -0.71382928
-2.5549991 -1.1034031 -0.71557957
-2.5750885 -1.0933845 -0.71933019
-2.5737078 -1.0742052 -0.71707982
-2.5712934 -1.0547165 -0.7145794
-2.5759208 -1.0381951 -0.71407932
-2.5786419 -1.0209435 -0.71307915
-2.5929787 -1.0082619 -0.71532953
-2.6262507 -1.0026995 -0.72283077
-2.6405127 -0.98962629 -0.72508115
-2.6419921 -0.97173363 -0.72383094
-2.6269593 -0.94794077 -0.71807998
-2.616298 -0.92598552 -0.71357924
-2.6146133 -0.90737367 -0.71157891
-2.6274643 -0.89380985 -0.71357924
-2.6448393 -0.88165444 -0.71682978
-2.6704466 -0.87202621 -0.72233069
-2.6785135 -0.85650957 -0.72308081
-2.6846426 -0.84034783 -0.72333086
-2.6943767 -0.82527822 -0.72458106
-2.6882606 -0.80539328 -0.72158056
-2.7080178 -0.7932415 -0.72558123
-2.704457 -0.77421033 -0.72333086
-2.7138188 -0.75890636 -0.72458106
-2.7632556 -0.75449198 -0.73658311
-2.7014098 -0.71980786 -0.71883011
-2.7329502 -0.71028781 -0.72608131
-2.737257 -0.69350535 -0.72608131
-2.735821 -0.67530334 -0.72458106
-2.7493267 -0.66076869 -0.72708148
-2.7505012 -0.6432246 -0.72633135
-2.7581725 -0.62719536 -0.72733152
-2.7752044 -0.61318719 -0.7308321
-2.7817545 -0.59675723 -0.73158222
-2.7872596 -0.5800724 -0.73208231
-2.774632 -0.55970085 -0.7278316
-2.7846658 -0.54396641 -0.72958189
-2.8031728 -0.52974987 -0.73358256
-2.8120852 -0.51358497 -0.73508281
-2.8132765 -0.49598402 -0.73458272
-2.8172214 -0.47887522 -0.73483276
-2.8210621 -0.46173665 -0.73508281
-2.79228 -0.4394438 -0.72683144
-2.7949238 -0.42230245 -0.72683144
-2.7830894 -0.40306029 -0.72308081
-2.7845509 -0.38584289 -0.72283077
-2.7849464 -0.36849546 -0.72233069
-2.7861946 -0.35127908 -0.72208065
-2.79022 -0.3344076 -0.72258073
-2.8085737 -0.31914291 -0.72683144
-2.8181806 -0.30273286 -0.72883177
-2.8353975 -0.28699863 -0.73283243
-2.8486717 -0.27069724 -0.73583299
-2.8608875 -0.25415784 -0.73858345
-2.8479192 -0.2353994 -0.73483276
-2.8551025 -0.21836476 -0.73633307
-2.8892269 -0.20315833 -0.74483448
-2.8440399 -0.18244106 -0.73283243
-2.8712039 -0.16650614 -0.73958361
-2.8895762 -0.14979169 -0.74408436
-2.8730309 -0.13125953 -0.73958361
-2.8989365 -0.11462859 -0.74608469
-2.8937793 -0.096643724 -0.74458444
-2.8739924 -0.078327589 -0.73933357
-2.872483 -0.060650326 -0.73883349
-2.8902273 -0.043288775 -0.74333423
-2.8885021 -0.025536317 -0.74283415
-2.8905408 -0.0078179827 -0.74333423
-2.8924708 0.0099244099 -0.74383432
-2.8846099 0.027599679 -0.74183398
-2.9018123 0.045568649 -0.74633473
-2.87147 0.062724091 -0.73858345
-2.857481 0.079965726 -0.73508281
-2.8569365 0.097497389 -0.73508281
-2.8998201 0.11676896 -0.74633473
-2.8816395 0.13375546 -0.74183398
-2.8836653 0.1515862 -0.74258411
-2.9068453 0.17069086 -0.74883515
-2.8757906 0.18658693 -0.74108386
-2.8601043 0.20320286 -0.73733324
-2.8645959 0.2211943 -0.73883349
-2.8583603 0.23836571 -0.73758328
-2.8674521 0.25684765 -0.74033374
-2.8716054 0.27498969 -0.74183398
-2.8833497 0.29397634 -0.74533457
-2.8651266 0.30989629 -0.74108386
-2.8689432 0.32812941 -0.74258411
-2.8582242 0.34468532 -0.74033374
-2.8733454 0.36440551 -0.74483448
-2.8624172 0.3808817 -0.74258411
-2.8916736 0.40283972 -0.75083548
-2.9006453 0.42224637 -0.75383598
-2.90853 0.44163302 -0.75658643
-2.8847249 0.45614874 -0.75108552
-2.8952479 0.47603685 -0.7545861
-2.8855913 0.49265364 -0.75283581
-2.8777468 0.50950706 -0.7515856
-2.8593283 0.52436388 -0.74758494
-2.8598621 0.54261965 -0.7485851
-2.8583791 0.56052941 -0.74908519
-2.8472941 0.57652205 -0.74708486
-2.8512855 0.59556395 -0.74908519
-2.8778684 0.61956233 -0.75708652
-2.8702314 0.63637137 -0.75608635
-2.843616 0.64880657 -0.75008535
-2.8669193 0.67265046 -0.75733656
-2.8570902 0.6888684 -0.75583631
-2.8640885 0.70917636 -0.75883681
-2.8700061 0.72935778 -0.76158726
-2.8626659 0.74622202 -0.76083714
-2.8655171 0.76577115 -0.76283753
-2.8411522 0.77797347 -0.7575866
-2.8605657 0.80218399 -0.76408774
-2.851867 0.81865317 -0.76308757
-2.8430738 0.83504587 -0.76208735
-2.8314052 0.85052639 -0.76033705
-2.8409431 0.87242818 -0.76433778
-2.8059726 0.88057268 -0.75633639
-2.7839193 0.89245647 -0.75183564
-2.8013971 0.91704714 -0.75808668
-2.7938807 0.93360567 -0.7575866
-2.8174272 0.96072453 -0.76558799
-2.78953 0.97036391 -0.75958693
-2.784436 0.98778534 -0.75983697
-2.8074613 1.0153835 -0.76783836
-2.773922 1.0225497 -0.76033705
-2.8092933 1.0552031 -0.77183902
-2.81814 1.0782996 -0.77608973
-2.7447054 1.0695703 -0.7575866
-2.8190963 1.1185117 -0.78009039
-2.8032017 1.1321642 -0.77758998
-2.7917242 1.1475034 -0.77633977
-2.7810571 1.163118 -0.7753396
-2.7640667 1.1759926 -0.77258915
-2.7719066 1.1994642 -0.77683985
-2.7299285 1.2012484 -0.76708823
-2.7331133 1.2227188 -0.77008873
-2.7017598 1.2286489 -0.76333761
-2.7363615 1.2646928 -0.7753396
-2.7364385 1.2851617 -0.77758998
-2.718014 1.2969266 -0.77458948
-2.6829927 1.3004934 -0.76683819
-2.6836503 1.3212061 -0.76933861
-2.6477771 1.3237982 -0.76133722
-2.6689618 1.3549154 -0.76983869
-2.6692052 1.3757002 -0.77233911
-2.6692941 1.396539 -0.77483952
-2.6649511 1.4151608 -0.77608973
-2.6647418 1.4360776 -0.77859014
-2.6456847 1.4468285 -0.77558964
-2.6596193 1.4757138 -0.78234076
-2.6437638 1.488207 -0.78034043
-2.6556053 1.5163994 -0.78659147
-2.6286538 1.5224783 -0.7813406
-2.6334572 1.5469127 -0.7855913
-2.6372268 1.5709677 -0.78959203
-2.613447 1.5786123 -0.78534126
-2.5946279 1.5890577 -0.78259081
-2.6029274 1.6161808 -0.78809172
-2.6052547 1.6398557 -0.7918424
-2.5828984 1.6480008 -0.78809172
-2.5629804 1.6575108 -0.78509122
-2.5649102 1.6811647 -0.78884184
-2.5843916 1.7166871 -0.79809344
-2.5954993 1.747106 -0.80484456
-2.5575309 1.7444544 -0.79634315
-2.5682878 1.7749729 -0.80309427
-2.5510025 1.7862567 -0.80109394
-2.5739565 1.8259583 -0.81184572
-2.5627041 1.8417174 -0.81184572
-2.5302174 1.842025 -0.8050946
-2.536793 1.8707291 -0.81084555
-2.5338008 1.8926313 -0.81359601
-2.4889326 1.8830297 -0.80284423
-2.5249894 1.9347686 -0.81834686
-2.5168955 1.9531925 -0.81959707
-2.5360804 1.9931227 -0.82984877
-2.536684 2.018894 -0.83409947
-2.5280185 2.0374577 -0.83534968
-2.5169699 2.0541553 -0.83584976
-2.5267129 2.0880597 -0.84335107
-2.556186 2.1389332 -0.85760343
-2.5637014 2.1720984 -0.86460459
-2.5826654 2.2155204 -0.87560648
-2.577065 2.2383082 -0.87835693
-2.5720091 2.2617495 -0.88135743
-2.5718253 2.2897189 -0.88610822
-2.5613239 2.3086967 -0.88735843
-2.5478251 2.325022 -0.88760847
-2.5342224 2.3412683 -0.88785851
-2.541734 2.3772728 -0.8956098
-2.5685875 2.4320934 -0.9103623
-2.6004555 2.4926906 -0.92711514
-2.6073506 2.5301728 -0.93511647
-2.5966125 2.5508726 -0.93686676
-2.565119 2.5510564 -0.93111581
-2.5384984 2.555758 -0.92711514
-2.5376897 2.5864882 -0.93261606
-2.5170538 2.5971444 -0.93086576
-2.4709346 2.5810721 -0.91961384
-2.4404128 2.5807104 -0.91411293
-2.462873 2.636668 -0.92861539
-2.4545286 2.6602683 -0.93161589
-2.4185896 2.6538136 -0.92411464
-2.3899503 2.6549332 -0.9193638
-2.3839107 2.6811233 -0.92336446
-2.3776393 2.7073386 -0.92736518
-2.3597136 2.7204137 -0.9268651
-2.3152542 2.7024934 -0.91586322
-2.2973773 2.7151706 -0.91536313
-2.288126 2.7381303 -0.91836363
-2.28546 2.7692914 -0.92411464
-2.2463987 2.7562475 -0.91511309
-2.2203362 2.7586668 -0.91136247
-2.2286761 2.8040693 -0.92186421
-2.2239847 2.8336842 -0.92711514
-2.204776 2.8449812 -0.92636502
-2.1843355 2.8546119 -0.92511481
-2.1492648 2.8447878 -0.91761351
-2.1311898 2.857146 -0.91736346
-2.1078761 2.8623734 -0.91486305
-2.0976763 2.885433 -0.91811359
-2.0646863 2.8770134 -0.91136247
-2.0525925 2.8975277 -0.91386288
-2.0386598 2.9156213 -0.91561317
-2.0311832 2.9432144 -0.92036396
-1.9950945 2.9292173 -0.91211259
-1.9787046 2.9438143 -0.91286272
-1.9509684 2.9413776 -0.90836197
-1.919094 2.9322321 -0.90186089
-1.9078962 2.9545248 -0.90511143
-1.8840072 2.9571946 -0.90236098
-1.8596421 2.9588625 -0.89936048
-1.8521692 2.9874969 -0.90461135
-1.82774 2.988894 -0.90161085
-1.8003625 2.9851303 -0.8971101
-1.781022 2.9944565 -0.89660996
-1.7665346 3.0120094 -0.89861035
-1.7538383 3.0328488 -0.90161085
-1.7241629 3.024209 -0.89585984
-1.6984563 3.0220716 -0.89210922
-1.6812892 3.0349767 -0.89285934
-1.6649561 3.0494847 -0.89410955
-1.6553918 3.0766947 -0.89911044
-1.6360286 3.0859385 -0.89886039
-1.6157176 3.0933444 -0.89811027
-1.5953774 3.1006176 -0.89736015
-1.574571 3.106894 -0.89635992
-1.5251993 3.0558598 -0.87885702
-1.5367532 3.1268513 -0.89660996
-1.5120538 3.1248925 -0.89335942
-1.4736909 3.0939045 -0.88185751
-1.4612579 3.1169143 -0.88585818
-1.4522496 3.1477995 -0.89210922
-1.4349097 3.1610589 -0.89335942
-1.4154868 3.1698039 -0.89335942
-1.3936734 3.173111 -0.89185917
-1.3741773 3.1816025 -0.89185917
-1.3341843 3.1418531 -0.87835693
-1.3126422 3.1446195 -0.87685668
-1.2870724 3.1373873 -0.87260598
-1.2782998 3.1712663 -0.87985718
-1.2563208 3.172749 -0.87810689
-1.2505225 3.215589 -0.88785851
-1.2235118 3.2042077 -0.88260764
-1.2031481 3.2098415 -0.88210756
-1.1867746 3.2262499 -0.88460797
-1.1712314 3.2453098 -0.88785851
-1.1490337 3.2460465 -0.88610822
-1.1113063 3.2018156 -0.8721059
-1.0988162 3.2296555 -0.87785685
-1.0829618 3.2482772 -0.88110739
-1.0657173 3.2631438 -0.88335776
-1.0459701 3.2705438 -0.8836078
-1.0305139 3.2916834 -0.88760847
-1.0037704 3.2766531 -0.88185751
-0.97864074 3.2660565 -0.87735677
-0.95558584 3.2617793 -0.87460631
-0.94622135 3.3048127 -0.88460797
-0.92096722 3.292841 -0.87985718
-0.90074539 3.29843 -0.87985718
-0.87774509 3.2936037 -0.87710673
-0.85264415 3.2801864 -0.8721059
-0.83273923 3.2862949 -0.87235594
-0.81488162 3.3007424 -0.87485635
-0.79189575 3.2943838 -0.87185585
-0.77012199 3.2925816 -0.8701055
-0.75656658 3.3265114 -0.87785685
-0.73070449 3.3065109 -0.87135577
-0.71568817 3.3355453 -0.87785685
-0.68296391 3.2811053 -0.86235422
-0.66703528 3.3061137 -0.86785513
-0.64785182 3.3158457 -0.86935538
-0.63127416 3.3397369 -0.87460631
-0.60502255 3.3121169 -0.86635488
-0.58367842 3.310046 -0.86485463
-0.56433219 3.3192921 -0.86635488
-0.54207551 3.3112264 -0.86335438
-0.52114505 3.3106644 -0.86235422
-0.50140089 3.3176291 -0.86335438
-0.48353669 3.3378911 -0.86785513
-0.45971894 3.316819 -0.86160409
-0.43948588 3.3205373 -0.86185414
-0.41485655 3.2895503 -0.85310268
-0.39431816 3.2891498 -0.85235256
-0.37380028 3.2886212 -0.85160244
-0.35496184 3.3033679 -0.85485297
-0.333318 3.2919974 -0.85135239
-0.3179782 3.3450661 -0.86460459
-0.29658836 3.3373101 -0.86210418
-0.27202684 3.2898557 -0.84935206
-0.25294629 3.305944 -0.85310268
-0.23490477 3.3393064 -0.86135405
-0.21061668 3.2817445 -0.84610152
-0.19042005 3.2820084 -0.84585148
-0.17158717 3.3082552 -0.85235256
-0.15141807 3.3121471 -0.85310268
-0.13097687 3.3101115 -0.85235256
-0.11076153 3.313756 -0.85310268
-0.090586171 3.3201804 -0.85460293
-0.069489397 3.2867932 -0.84585148
-0.049217723 3.280381 -0.84410119
-0.029001042 3.2709391 -0.84160072
-0.0090011572 3.2952614 -0.84785181
0.011159257 3.2768581 -0.84310097
0.031265471 3.2767279 -0.84310097
0.051505435 3.2851875 -0.8453514
0.071368955 3.2712576 -0.84185076
0.091600895 3.2765651 -0.84335107
0.11131008 3.2643294 -0.84035051
0.13145377 3.2664874 -0.84110063
0.15189622 3.2743242 -0.84335107
0.17107317 3.2559259 -0.83885026
0.19121757 3.2577147 -0.83960038
0.21064064 3.2477841 -0.83735001
0.23097512 3.2522254 -0.83885026
0.25233832 3.2690892 -0.84360111
0.27183056 3.260725 -0.84185076
0.29183286 3.2589955 -0.84185076
0.31228465 3.2619629 -0.84310097
0.3312158 3.2493894 -0.84035051
0.35010839 3.2376695 -0.83785009
0.36864999 3.2239165 -0.8348496
0.3861104 3.202368 -0.82984877
0.40757662 3.2143469 -0.83359939
0.42486933 3.1935494 -0.8288486
0.45099252 3.2378736 -0.84110063
0.47335809 3.2522924 -0.84560144
0.49011165 3.2282662 -0.84010047
0.5064373 3.2032013 -0.83434951
0.52655292 3.2028999 -0.83509964
0.54668391 3.202472 -0.83584976
0.56177151 3.1733143 -0.82909864
0.58733749 3.2031415 -0.83785009
0.60571855 3.1928182 -0.8360998
0.62399507 3.1823902 -0.83434951
0.64216655 3.1718585 -0.83259922
0.6647808 3.1830235 -0.83659989
0.68409538 3.177938 -0.83634984
0.70190692 3.1661181 -0.83434951
0.71766269 3.1457033 -0.83009881
0.73672992 3.1402979 -0.82984877
0.75666475 3.1385422 -0.83059889
0.77707082 3.13854 -0.8318491
0.79631388 3.1337128 -0.8318491
0.81089038 3.110965 -0.82709831
0.82921427 3.1031246 -0.82634819
0.84619504 3.0905068 -0.82434785
0.86697078 3.0917828 -0.82609814
0.88485742 3.0826821 -0.82509798
0.90730035 3.0892725 -0.82834852
0.92985725 3.0957031 -0.83159906
0.94343793 3.0723519 -0.82684827
0.95271122 3.0360174 -0.8185969
0.96807283 3.0199718 -0.81584638
0.98176831 2.9992509 -0.81184572
1.009353 3.0207222 -0.81934702
1.0319287 3.0263863 -0.82259756
1.0466639 3.009023 -0.81959707
1.0651071 3.0025439 -0.81959707
1.0736369 2.9686346 -0.81209576
1.0921665 2.9628997 -0.8123458
1.1144092 2.96702 -0.8153463
1.1498846 3.0053449 -0.82784843
1.1700602 3.002744 -0.82909864
1.190604 3.0009084 -0.83059889
1.2046459 2.9827724 -0.82759839
1.2236609 2.9771159 -0.82809848
1.2441456 2.9749115 -0.82959872
1.2570716 2.9547472 -0.82609814
1.2759466 2.9487555 -0.82659823
1.2947954 2.9426436 -0.82709831
1.3041321 2.9151976 -0.8215974
1.319591 2.9018521 -0.82009715
1.3337175 2.8857896 -0.81784678
1.3435824 2.8608987 -0.81309593
1.3694469 2.8700795 -0.81809682
1.3878759 2.8633657 -0.8185969
1.3968695 2.8374207 -0.81359601
1.4129548 2.8261979 -0.81284589
1.4307076 2.8183384 -0.81309593
1.4462 2.8060634 -0.81209576
1.484478 2.8374634 -0.82384777
1.4909662 2.8077757 -0.81784678
1.5113804 2.8045413 -0.81959707
1.5202014 2.779922 -0.81509626
1.5367604 2.7696953 -0.81484622
1.5546756 2.7619014 -0.8153463
1.5749526 2.7581966 -0.81709665
1.5952426 2.7543464 -0.81884694
1.6091716 2.7394967 -0.81734669
1.6180252 2.7162604 -0.81334597
1.6351618 2.7071102 -0.81359601
1.653258 2.6995034 -0.81434613
1.6667274 2.6843724 -0.81284589
1.6872919 2.6806512 -0.81484622
1.6974607 2.6604517 -0.81184572
1.724791 2.667062 -0.81709665
1.7289194 2.6378009 -0.81134564
1.74775 2.631176 -0.81259584
1.7627807 2.6187959 -0.81209576
1.7744527 2.6015306 -0.81009543
1.7881807 2.5874071 -0.80909526
1.7851462 2.5494161 -0.80059385
1.8091564 2.550262 -0.80434448
1.8377632 2.5571997 -0.81009543
1.8465827 2.5364804 -0.80709493
1.8667076 2.5313375 -0.80909526
1.8740945 2.5089741 -0.80559468
1.890622 2.4989722 -0.80609477
1.9082749 2.4903991 -0.80709493
1.9181787 2.4717579 -0.80484456
1.9386922 2.466794 -0.80709493
1.9670532 2.4715216 -0.81259584
1.9870405 2.4654374 -0.81459618
1.9929502 2.4419451 -0.81084555
2.0091293 2.4311635 -0.81134564
2.0351908 2.4321582 -0.81584638
2.0375607 2.4048476 -0.81084555
2.0554297 2.3959751 -0.81209576
2.0586662 2.370158 -0.80759501
2.0667782 2.3502095 -0.8050946
2.0875967 2.3447165 -0.80759501
2.0980556 2.3275473 -0.80609477
2.1142552 2.316776 -0.80684489
2.1244895 2.2994916 -0.80534464
2.1385591 2.2864127 -0.80534464
2.1505511 2.2711382 -0.80459452
2.165786 2.2592981 -0.8050946
2.1917429 2.258476 -0.80959535
2.1974182 2.2366955 -0.80659485
2.2138317 2.2259166 -0.80759501
2.2233267 2.2081964 -0.80609477
2.231997 2.1897652 -0.80434448
2.2280121 2.1591797 -0.79809344
2.2510087 2.1548436 -0.80159402
2.2712221 2.147645 -0.80409443
2.2949686 2.1435845 -0.80784506
2.2988291 2.1209254 -0.80459452
2.3003514 2.0963428 -0.80059385
2.3182073 2.0867243 -0.80234414
2.3287973 2.0705302 -0.80159402
2.3472772 2.0613143 -0.80359435
2.3613434 2.048142 -0.80409443
2.3863642 2.0443256 -0.80834514
2.3951678 2.0265169 -0.80709493
2.3971572 2.0030885 -0.80359435
2.4168694 1.9945064 -0.80609477
2.4358158 1.9851456 -0.80834514
2.435884 1.9604468 -0.80434448
2.4251308 1.9273864 -0.79684323
2.4765127 1.9435613 -0.80984539
2.4700263 1.9140916 -0.80384439
2.4855688 1.9018424 -0.8050946
2.494874 1.8848041 -0.80434448
2.4939761 1.8601955 -0.80034381
2.4952087 1.8373923 -0.79709327
2.5087852 1.8237556 -0.7978434
2.5309398 1.8162332 -0.80134398
2.5515161 1.8073874 -0.80434448
2.5617645 1.7911425 -0.80409443
2.5766904 1.7781405 -0.80534464
2.5811512 1.7579353 -0.80334431
2.5991204 1.7469271 -0.80559468
2.6025293 1.7261282 -0.80334431
2.614692 1.7111877 -0.80384439
2.6251421 1.695112 -0.80384439
2.6403928 1.6820949 -0.80534464
2.6555822 1.6689543 -0.80684489
2.6583676 1.6480356 -0.80459452
2.6791668 1.6382617 -0.80784506
2.6767333 1.6142888 -0.80409443
2.6957407 1.6032804 -0.80684489
2.6804745 1.5720098 -0.79934365
2.6967745 1.559412 -0.80134398
2.6995637 1.5389979 -0.79934365
2.706424 1.5209812 -0.79859352
2.7478867 1.5221813 -0.8080951
2.7291338 1.4899753 -0.79984373
2.7322567 1.4699893 -0.79809344
2.7762949 1.4717975 -0.80834514
2.7792666 1.4515958 -0.80659485
2.7709038 1.4256524 -0.80159402
2.8003249 1.4191321 -0.80759501
2.7674003 1.3811605 -0.79559302
2.7958069 1.3739803 -0.80134398
2.7771688 1.3437213 -0.79359269
2.8089609 1.3379018 -0.80034381
2.8320196 1.3276309 -0.80459452
2.8348379 1.3077943 -0.80309427
2.8410459 1.2895747 -0.80259418
2.8294566 1.2634292 -0.79709327
2.8344963 1.2448756 -0.79634315
2.8189726 1.217474 -0.78984207
2.8557973 1.2126485 -0.79809344
2.8462088 1.1880132 -0.79334265
2.8749418 1.1793504 -0.79934365
2.8569813 1.1515477 -0.79234248
2.9135022 1.1536107 -0.80609477
2.9259398 1.1378187 -0.80759501
2.9229171 1.116043 -0.80484456
2.934243 1.0997872 -0.80609477
2.9136765 1.0717293 -0.79859352
2.9256618 1.0558043 -0.80009377
2.9284341 1.0365398 -0.7990936
2.9621787 1.0280814 -0.80659485
2.9757636 1.0123827 -0.80859518
2.9562023 0.98552537 -0.80159402
2.9658749 0.96857101 -0.80259418
2.9643848 0.94799364 -0.80059385
2.9849291 0.93441778 -0.80459452
2.988755 0.91551745 -0.80409443
2.9850419 0.89438075 -0.80159402
2.988615 0.87550324 -0.80109394
2.9967232 0.85794902 -0.80184406
2.9786212 0.83302116 -0.79559302
2.9864783 0.81549472 -0.79634315
3.0194919 0.80463988 -0.80384439
3.0103164 0.78244102 -0.80009377
2.9953518 0.75895715 -0.7948429
3.0112319 0.74335068 -0.7978434
3.0270329 0.72757781 -0.80084389
3.0342684 0.70965266 -0.80159402
2.7128565 0.61688006 -0.71532953
2.7099726 0.59875894 -0.71357924
2.706969 0.58069646 -0.71182895
2.7114291 0.56427336 -0.71207899
2.6968079 0.54398406 -0.70732814
2.7181494 0.53095746 -0.71207899
2.7061346 0.51138908 -0.70807827
2.7063639 0.49425244 -0.70732814
2.6969504 0.47544903 -0.7040776
2.6902719 0.45726725 -0.70157719
2.6806056 0.43871558 -0.69832665
2.6870728 0.42286238 -0.69932681
2.6944034 0.40709123 -0.70057702
2.7140985 0.39305285 -0.70507777
2.7135818 0.37599275 -0.70432764
2.7110386 0.35869932 -0.70307744
2.7055037 0.34108728 -0.7010771
2.6912031 0.32251781 -0.6968264
2.6892831 0.30556071 -0.69582623
2.6622274 0.28594497 -0.68832499
2.6745279 0.27067938 -0.69107544
2.6732469 0.25398824 -0.69032532
2.6593244 0.23620647 -0.68632466
2.6964259 0.22284371 -0.69557619
2.6919501 0.20585024 -0.69407594
2.6902649 0.18912449 -0.69332582
2.6981385 0.17304918 -0.69507611
2.6943164 0.15620911 -0.6938259
2.6178701 0.13564727 -0.67382252
2.6186531 0.11958178 -0.67382252
2.6048255 0.10293477 -0.6700719
2.6044405 0.0869174 -0.66982186
2.6078284 0.071014993 -0.67057198
2.5927267 0.054681882 -0.66657132
2.5562248 0.038213126 -0.65706974
2.5893297 0.022825936 -0.66557115
2.4581652 0.0048344033 -0.67649996
2.4706781 -0.01030235 -0.67996532
2.4676769 -0.025431829 -0.6791656
2.4790387 -0.040764179 -0.6823644
2.3872027 -0.053897195 -0.65704066
2.3926077 -0.068710446 -0.65864003
2.4036999 -0.083794191 -0.66183883
2.4002514 -0.098422647 -0.66103917
2.396714 -0.11301193 -0.66023946
2.3786514 -0.12679033 -0.65544128
2.3778288 -0.14138307 -0.65544128
2.3778782 -0.15603371 -0.65570784
2.373992 -0.17041381 -0.65490812
2.36041 -0.18400191 -0.65144277
2.3649991 -0.19896711 -0.6530422
2.3685334 -0.21390876 -0.65437502
2.3479891 -0.22658394 -0.64904368
2.3580599 -0.24216957 -0.65224248
2.3536551 -0.25632045 -0.65144277
2.3166113 -0.266675 -0.64157987
2.3321536 -0.28297615 -0.64637804
2.3341975 -0.29776898 -0.64744431
2.3437898 -0.31362101 -0.65064311
2.3427761 -0.32813013 -0.65090966
2.336904 -0.34194034 -0.64984339
2.329998 -0.35554534 -0.64851058
2.3239651 -0.36922988 -0.64744431
2.3235576 -0.38379687 -0.64797741
2.3240087 -0.39853579 -0.64877713
2.3025413 -0.40941134 -0.64344579
2.2905073 -0.42178515 -0.64078015
2.2594731 -0.43041736 -0.63278317
2.2218008 -0.43738082 -0.62292027
2.1879072 -0.44466677 -0.61412358
1.5899234 -0.33322808 -0.44592074
1.5200208 -0.32831442 -0.42672801
1.5123329 -0.33637831 -0.42512861
1.4961482 -0.34242353 -0.42113015
1.4921427 -0.35115534 -0.42059702
1.4918334 -0.3607578 -0.42113015
1.4886565 -0.36967227 -0.42086357
1.4835584 -0.37808496 -0.42006388
1.490535 -0.38961992 -0.42272952
1.4964947 -0.40100503 -0.42512861
1.5274637 -0.41937202 -0.43472499
1.5443453 -0.43421823 -0.44032285
1.5277593 -0.43968514 -0.43632439
1.5768058 -0.46430552 -0.45125204
2.0602598 -0.62051505 -0.59173208
2.1991856 -0.67712259 -0.63304979
2.1913121 -0.68944639 -0.63198352
2.2209899 -0.71379435 -0.64184642
2.2000854 -0.7219972 -0.63704824
2.1937861 -0.73487061 -0.63651514
2.2120349 -0.75611383 -0.64317924
2.2109942 -0.77094215 -0.64424551
2.2134867 -0.78707814 -0.64637804
2.2077096 -0.80031645 -0.64611149
2.2090857 -0.81618661 -0.64797741
2.207644 -0.83108461 -0.64904368
2.209702 -0.84737647 -0.65117621
2.1945858 -0.85706103 -0.64824402
2.1955547 -0.87300426 -0.65010995
2.1803296 -0.88248068 -0.64717776
2.1944788 -0.90392035 -0.6530422
2.1693361 -0.90917021 -0.64717776
2.1699226 -0.92511058 -0.64904368
2.1889637 -0.94914621 -0.65650755
2.1901534 -0.96567112 -0.65864003
2.1604416 -0.96844411 -0.65144277
2.164983 -0.98647892 -0.65464157
2.1720076 -1.0058211 -0.65864003
2.1370175 -1.0055839 -0.64984339
2.1621094 -1.0336467 -0.65943974
2.1375208 -1.0380497 -0.65384185
2.1181459 -1.044749 -0.64984339
2.1246212 -1.0642022 -0.65384185
2.1197696 -1.0780927 -0.65437502
2.1122582 -1.0906367 -0.65410846
2.0713818 -1.0856755 -0.64344579
2.0919087 -1.1128533 -0.65197593
2.0553589 -1.1096388 -0.64264613
2.0730233 -1.1356614 -0.6503765
2.0634887 -1.1469548 -0.64957684
2.0656466 -1.164803 -0.65250903
2.0392199 -1.1664468 -0.64637804
2.0628679 -1.1968368 -0.65624094
2.0563159 -1.2099607 -0.65650755
2.0323007 -1.2126759 -0.65117621
2.0149271 -1.2191347 -0.64797741
2.0156236 -1.2365159 -0.65064311
2.0112717 -1.2508968 -0.65170938
2.0019281 -1.2621858 -0.65117621
1.9892734 -1.271331 -0.64957684
2.0194521 -1.3081455 -0.66210538
1.9912466 -1.3072858 -0.65544128
1.9855947 -1.3210812 -0.65624094
1.9838442 -1.3375508 -0.65837348
1.9628675 -1.3409977 -0.65410846
1.9490556 -1.3491757 -0.65224248
1.9344281 -1.3566815 -0.65010995
1.9150686 -1.3607085 -0.64637804
1.9293666 -1.388765 -0.65410846
1.9317108 -1.4085283 -0.65784037
1.9044269 -1.4066097 -0.65144277
1.894217 -1.4171135 -0.65090966
1.9008485 -1.4403532 -0.65624094
1.8873878 -1.4484681 -0.65464157
1.8693334 -1.4529229 -0.65144277
1.8724996 -1.4739051 -0.65570784
1.8581455 -1.4811608 -0.65384185
1.8400235 -1.4852687 -0.65064311
1.8472912 -1.5099521 -0.65650755
1.833537 -1.5175707 -0.65490812
1.824191 -1.5287925 -0.65490812
1.8382902 -1.5599147 -0.66343826
1.8177195 -1.5617423 -0.65943974
1.8350056 -1.5962744 -0.6693027
1.7955248 -1.5813824 -0.65837348
1.7829107 -1.5898036 -0.65730721
1.7774143 -1.604589 -0.65890664
1.7597102 -1.6083114 -0.65597439
1.758297 -1.6269345 -0.65917319
1.7616445 -1.6502135 -0.66423792
1.741696 -1.6517055 -0.66050601
1.7204055 -1.65168 -0.65624094
1.730971 -1.6823599 -0.66423792
1.7027551 -1.6753719 -0.65730721
1.6979054 -1.6912303 -0.65943974
1.689532 -1.70367 -0.66023946
1.6696054 -1.7043645 -0.65650755
1.6772101 -1.7332799 -0.66370481
1.674534 -1.7519002 -0.66690361
1.6425819 -1.7397138 -0.65837348
1.6450219 -1.7638584 -0.66370481
1.6198033 -1.7583219 -0.65784037
1.5895265 -1.7468395 -0.64984339
1.5974599 -1.7773501 -0.65757382
1.5890834 -1.790002 -0.65864003
1.5844237 -1.8069663 -0.66130573
1.5808772 -1.8253977 -0.66450447
1.5671414 -1.8321335 -0.66343826
1.556492 -1.8424511 -0.66370481
1.5408361 -1.846786 -0.66183883
1.5331522 -1.860669 -0.66343826
1.5150158 -1.861817 -0.66050601
1.507789 -1.8763375 -0.66237199
1.5046339 -1.8961247 -0.6661039
1.4888105 -1.9000102 -0.66423792
1.4724066 -1.9030107 -0.66210538
1.4612873 -1.9127754 -0.66237199
1.4466217 -1.917858 -0.66103917
1.4330999 -1.924379 -0.66023946
1.4189819 -1.9300297 -0.65917319
1.4003201 -1.9293391 -0.65597439
1.3845268 -1.9324102 -0.65410846
1.3670793 -1.9329994 -0.65144277
1.3557446 -1.9421417 -0.65170938
1.3454424 -1.9528049 -0.65250903
1.332893 -1.9602267 -0.65224248
1.3288946 -1.9803741 -0.65624094
1.315122 -1.9860797 -0.65544128
1.3002754 -1.9900773 -0.65410846
1.2817746 -1.9882964 -0.65090966
1.2757562 -2.0058837 -0.65410846
1.2572787 -2.003876 -0.65090966
1.2444524 -2.0107331 -0.65064311
1.230585 -2.0158629 -0.64984339
1.2186897 -2.0242016 -0.65010995
1.2087063 -2.0357852 -0.65144277
1.1952184 -2.0414999 -0.65090966
1.1923045 -2.0654907 -0.65624094
1.1791319 -2.0719299 -0.65597439
1.1630963 -2.0732415 -0.65410846
1.157814 -2.0938354 -0.65837348
1.1481726 -2.1068244 -0.66023946
1.1292968 -2.1027908 -0.6567741
1.1177251 -2.1122363 -0.65757382
1.0989527 -2.1079438 -0.65410846
1.0899597 -2.1223638 -0.65650755
1.0738721 -2.1229911 -0.65464157
1.0775819 -2.1631875 -0.66503763
1.0693808 -2.1801431 -0.66823643
1.0597548 -2.1944754 -0.67063552
1.0504068 -2.2096417 -0.67330116
1.028662 -2.1985846 -0.66796982
1.0232121 -2.2223654 -0.67330116
1.0135326 -2.2373817 -0.6759668
1.0056684 -2.2567647 -0.67996532
0.99876469 -2.2787831 -0.68476349
0.98400074 -2.2830982 -0.68423033
0.97862005 -2.309505 -0.69036138
0.97887975 -2.350167 -0.70075744
1.0053234 -2.4560354 -0.73061275
0.97801006 -2.4317534 -0.72154951
0.96908951 -2.4529481 -0.72608113
0.98399466 -2.5361266 -0.74900579
0.97150201 -2.5502229 -0.75140488
0.96427292 -2.578706 -0.75806904
0.94810021 -2.5836694 -0.75780243
0.92994463 -2.5830898 -0.7559365
0.91375673 -2.5878384 -0.75566989
0.8893497 -2.5688047 -0.74847263
0.86923617 -2.561435 -0.74474072
0.86140788 -2.5905004 -0.75167143
0.85265851 -2.617732 -0.75806904
0.83716595 -2.6247511 -0.75860214
0.82937211 -2.6565199 -0.76633257
0.81615275 -2.6716986 -0.76926476
0.79891664 -2.6738856 -0.76846504
0.77709186 -2.6602337 -0.76313376
0.75599378 -2.6482689 -0.75833559
0.74205911 -2.6612136 -0.76073468
0.72318542 -2.6564169 -0.75806904
0.70786184 -2.6645303 -0.75913525
0.69198257 -2.6706893 -0.75966841
0.67699802 -2.6804922 -0.76126778
0.66376066 -2.6976986 -0.76499969
0.64427775 -2.6895354 -0.76153433
0.62623215 -2.6868672 -0.75966841
0.6107986 -2.6953592 -0.76100123
0.59321296 -2.6943498 -0.75966841
0.57566279 -2.6932263 -0.75833559
0.55814868 -2.6919887 -0.75700277
0.54010218 -2.6878033 -0.75487024
0.51881641 -2.6664684 -0.74793953
0.50066382 -2.6601293 -0.74527389
0.48295328 -2.6555653 -0.74314135
0.46631688 -2.6565797 -0.74260819
0.45048973 -2.6622422 -0.74340791
0.4349204 -2.6697125 -0.74474072
0.41644469 -2.6589997 -0.74100882
0.4029853 -2.6805675 -0.74634016
0.38433266 -2.6677258 -0.74207509
0.36598438 -2.6557119 -0.73807657
0.34804925 -2.6454847 -0.73461121
0.33145103 -2.6447015 -0.73381156
0.31282565 -2.6265872 -0.72821367
0.30015963 -2.6591051 -0.73674375
0.28496149 -2.6714389 -0.739676
0.26894948 -2.6769731 -0.74074227
0.25269952 -2.6804922 -0.74127537
0.23590969 -2.6781518 -0.7402091
0.2191581 -2.6757064 -0.73914284
0.20244539 -2.6731565 -0.73807657
0.18590584 -2.6724255 -0.73754346
0.1696873 -2.6764014 -0.73834318
0.15326202 -2.6773922 -0.73834318
0.13697819 -2.68117 -0.73914284
0.12112865 -2.6954398 -0.7428748
