# .PCD v0.7 - Point Cloud Data file format
VERSION 0.7
FIELDS x y z
SIZE 4 4 4
TYPE F F F
COUNT 1 1 1
WIDTH 1483
HEIGHT 1
VIEWPOINT 0 0 0 1 0 0 0
POINTS 1483
DATA ascii
56.156528 -15.175234 4.372972
56.121941 -15.536013 4.3776207
56.431377 -15.9951 4.409337
32.045673 -9.2962341 2.5079513
56.818779 -16.860855 4.4554486
56.736198 -17.215832 4.4571733
57.04285 -17.691832 4.4897141
57.042542 -18.076147 4.4983368
56.994122 -18.446386 4.5033603
57.212204 -18.905565 4.5296779
57.336071 -19.337517 4.5487971
57.324772 -19.726273 4.5574198
58.211319 -20.431658 4.6377969
58.636909 -20.986023 4.6818848
58.612896 -21.384037 4.6903572
58.630131 -21.798876 4.702354
58.523251 -22.168812 4.7046032
58.554512 -22.592457 4.7181745
37.022625 -16.961521 3.0610693
58.301956 -38.44751 5.2502232
6.6894555 -6.5291162 0.70193863
6.6265669 -6.5476127 0.6995393
6.5897923 -6.5916753 0.69991422
6.5471206 -6.6298566 0.69968927
6.487515 -6.6506329 0.69766486
6.3981485 -6.6400523 0.69241631
6.3311582 -6.6517401 0.68956715
6.2833939 -6.6831975 0.68881738
6.2449827 -6.7245483 0.68911725
6.0687766 -6.6157823 0.6741215
0.76555473 -0.84577829 0.0848637
0.78229797 -0.87497896 0.087338001
0.77757502 -0.88050961 0.087412976
0.77543718 -0.88901973 0.087787867
0.7738753 -0.89829177 0.08823774
0.76899552 -0.90378237 0.088312723
0.75958377 -0.90390551 0.087862849
0.75657237 -0.9116171 0.088162765
0.75159705 -0.91701305 0.08823774
0.74595624 -0.92160749 0.08823774
0.74402559 -0.93083876 0.088687614
0.73768175 -0.93460411 0.088612638
0.73377365 -0.94147134 0.088837571
0.72737443 -0.94516605 0.088762596
0.72276884 -0.95119864 0.088912554
0.71991313 -0.95960218 0.089287445
0.71638739 -0.96720546 0.089587361
0.71043926 -0.97158289 0.089587361
0.70446432 -0.97592372 0.089587361
0.69788378 -0.97941607 0.089512378
0.69186115 -0.98367983 0.089512378
0.68581235 -0.98790646 0.089512378
0.68030185 -0.99291825 0.089587361
0.67475563 -0.99789953 0.089662336
0.67083573 -1.0053377 0.089962251
0.66684985 -1.012765 0.090262167
0.65844816 -1.0134941 0.089962251
0.65491003 -1.0217113 0.09033715
0.64916205 -1.026553 0.090412125
0.64443576 -1.0330542 0.090637058
0.65011513 -1.0565159 0.092361569
0.65604824 -1.0809376 0.094161063
0.64889079 -1.0840874 0.094086081
0.64476341 -1.0923408 0.094460979
0.63855088 -1.097138 0.094535954
0.62733608 -1.0932537 0.093861148
0.62061614 -1.0970824 0.093861148
0.6124146 -1.0982578 0.093636207
0.60181814 -1.0950056 0.093036383
0.59651417 -1.1013075 0.093261316
0.59256548 -1.1102238 0.09371119
0.57970232 -1.1023682 0.092736468
0.57889676 -1.1174119 0.09371119
0.57384449 -1.1244947 0.094011106
0.56424421 -1.1226501 0.093561232
0.55026019 -1.1117955 0.092361569
0.54430264 -1.1169432 0.092511527
0.53355265 -1.1121725 0.091836721
0.52629215 -1.1145239 0.091761746
0.51860213 -1.115924 0.091611788
0.51091486 -1.1172718 0.09146183
0.50364017 -1.1194764 0.091386847
0.49676168 -1.1225457 0.091386847
0.48986453 -1.1255727 0.091386847
0.4829489 -1.1285572 0.091386847
0.47872543 -1.1379319 0.091911703
0.47478655 -1.1482183 0.092511527
0.4722428 -1.1621935 0.093411274
0.46880493 -1.1743284 0.094161063
0.46596476 -1.188321 0.095060803
0.46261156 -1.2013921 0.095885575
0.45734987 -1.2098033 0.096335448
0.45269701 -1.2200646 0.096935272
0.44793537 -1.230314 0.097535104
0.44004196 -1.2321005 0.097460128
0.43181345 -1.2328954 0.097310171
0.42359176 -1.2336359 0.097160213
0.41601431 -1.2362117 0.097160213
0.40654486 -1.2330599 0.096710339
0.39927822 -1.2364799 0.096785314
0.39921102 -1.2626727 0.098659784
0.39086536 -1.2631934 0.098509826
0.38542241 -1.2732021 0.099109657
0.37817001 -1.2774551 0.099259615
0.36921391 -1.2759204 0.098959699
0.36219344 -1.2810402 0.09918464
0.35273093 -1.2774719 0.098734766
0.34488586 -1.2796122 0.098734766
0.33626556 -1.2788116 0.098509826
0.32915708 -1.2837481 0.098734766
0.31957835 -1.2789724 0.09820991
0.31077957 -1.2770342 0.097909994
0.30478069 -1.2866787 0.098509826
0.2948606 -1.27978 0.097835019
0.28962347 -1.2932409 0.098734766
0.28232017 -1.2979165 0.098959699
0.27373159 -1.2966976 0.098734766
0.2687771 -1.3130052 0.099859446
0.26207691 -1.321476 0.10038429
0.25603667 -1.3338305 0.10120906
0.25058445 -1.3500817 0.10233374
0.24547164 -1.36926 0.10368336
0.23859911 -1.379583 0.10435817
0.23226658 -1.3938072 0.10533289
0.22497669 -1.4030824 0.10593272
0.2168202 -1.4073927 0.10615766
0.20993549 -1.4205335 0.1070574
0.20205647 -1.4277186 0.10750727
0.19517019 -1.4427652 0.10855698
0.18682614 -1.4478914 0.10885689
0.17915848 -1.4589074 0.10960668
0.17124672 -1.4688931 0.11028149
0.1621207 -1.468925 0.11020651
0.15393455 -1.4778262 0.11080634
0.1437895 -1.4678266 0.10998157
0.13478038 -1.4686813 0.10998157
0.12576619 -1.4694806 0.10998157
0.11674725 -1.4702247 0.10998157
0.10816365 -1.4768802 0.11043145
0.099435568 -1.4824907 0.11080634
0.090337299 -1.483073 0.11080634
0.08129061 -1.4845951 0.11088132
0.072179772 -1.4850658 0.11088132
0.063279957 -1.4904621 0.11125621
0.054316625 -1.4958049 0.1116311
0.045625798 -1.5120575 0.11283077
0.036420334 -1.5152997 0.1130557
0.027761893 -1.5503902 0.11567996
0.018418683 -1.564491 0.11672966
0.0088853268 -1.5755434 0.11755443
-0.00078261702 -1.5815513 0.1180043
-0.010523954 -1.5874997 0.11845417
-0.020375241 -1.5963793 0.11912898
-0.030299036 -1.6032033 0.11965383
-0.040037364 -1.5989996 0.11935391
-0.050522387 -1.6206517 0.12100345
-0.061090734 -1.6372516 0.12227809
-0.071307123 -1.6408311 0.122578
-0.081765726 -1.6483305 0.12317783
-0.091933273 -1.6487935 0.12325281
-0.10217079 -1.6501889 0.12340277
-0.1124962 -1.6525156 0.1236277
-0.12292744 -1.6557722 0.12392762
-0.13332334 -1.6579688 0.12415256
-0.14426458 -1.6660612 0.12482736
-0.15586042 -1.6800389 0.12595204
-0.16870911 -1.7048527 0.12790149
-0.17885502 -1.7008101 0.12767655
-0.19115733 -1.7165295 0.12895119
-0.20273072 -1.7242379 0.12962601
-0.2152608 -1.7387962 0.13082565
-0.2318233 -1.7829326 0.13427468
-0.24222173 -1.7775242 0.13397476
-0.25326419 -1.7769917 0.13404974
-0.26650503 -1.7911865 0.13524941
-0.2794722 -1.8023283 0.13622414
-0.28957495 -1.7946727 0.13577425
-0.30436531 -1.815483 0.13749877
-0.31652248 -1.8194762 0.13794863
-0.32750404 -1.8165184 0.13787366
-0.33992198 -1.8213371 0.13839851
-0.35278854 -1.8280296 0.13907333
-0.36574998 -1.8346326 0.13974813
-0.38201541 -1.856774 0.1416226
-0.39629352 -1.8680526 0.1426723
-0.41051176 -1.8782513 0.14364703
-0.42421427 -1.8854265 0.14439681
-0.46653417 -2.0158947 0.1546689
-0.47198042 -1.9838885 0.15241954
-0.48083448 -1.9673927 0.15136983
-0.50089514 -1.9963256 0.15384413
-0.51512128 -2.0009408 0.15444396
-0.52967709 -2.0064206 0.15511876
-0.5419783 -2.0031328 0.15511876
-0.55479115 -2.0016916 0.15526873
-0.57005399 -2.0088031 0.15609349
-0.58681393 -2.0205908 0.15729316
-0.59920096 -2.0169523 0.15729316
-0.62256783 -2.0494981 0.16014235
-0.65374082 -2.1056428 0.164866
-0.68622804 -2.1633809 0.16973962
-0.69089198 -2.132565 0.16764021
-0.71335012 -2.1566906 0.16988958
-0.7319873 -2.1683362 0.17116421
-0.74625146 -2.1666327 0.17138915
-0.76283407 -2.1714222 0.17213894
-0.77849537 -2.1732726 0.17266379
-0.79933441 -2.1890645 0.17431332
-0.81865877 -2.2000082 0.17558797
-0.83850062 -2.211729 0.17693758
-0.89369375 -2.3144619 0.1856351
-0.90277308 -2.2959411 0.18458541
-0.92128772 -2.3014688 0.18548515
-0.9553206 -2.3447223 0.18945903
-0.97350627 -2.3480289 0.19020881
-0.99021906 -2.3475246 0.19065869
-1.0073552 -2.3478203 0.19118354
-1.0396775 -2.3827281 0.19455758
-1.063574 -2.3972709 0.19628209
-1.1044874 -2.4488828 0.20108072
-1.1365209 -2.4792297 0.20415486
-1.1782269 -2.5291622 0.20887852
-1.1971347 -2.5290964 0.20947835
-1.2139262 -2.5243998 0.20970328
-1.2328924 -2.5240726 0.21030311
-1.2855631 -2.5915067 0.21660133
-1.3211701 -2.6227598 0.21990038
-1.4121259 -2.7611091 0.23227188
-1.3978086 -2.6922052 0.22717333
-1.4087245 -2.6729903 0.22627358
-1.4457849 -2.7029901 0.22957264
-1.4642451 -2.6975741 0.22987255
-1.4836549 -2.6937802 0.23032244
-1.5137703 -2.709003 0.23242183
-22.869024 -40.361439 3.4871736
-23.065567 -40.132172 3.4795256
-4.1300302 -7.0838337 0.61563814
-4.1957464 -7.0961294 0.61893719
-4.2192125 -7.0368953 0.61601299
-3.8417315 -6.3189559 0.5551303
-3.8652599 -6.2706461 0.55295593
-3.8296907 -6.1284137 0.54245889
-3.7749174 -5.9590583 0.52948755
-3.776933 -5.8820777 0.5246889
-3.801533 -5.8412404 0.52311438
-3.8290677 -5.8053169 0.5219897
-3.8518732 -5.7626438 0.52026516
-3.7490513 -5.5349593 0.5017454
-3.6859009 -5.3704281 0.4888491
-3.703984 -5.3264236 0.48689964
-3.6740036 -5.2147346 0.47872695
-3.6995599 -5.1831641 0.4779022
-3.7523248 -5.1894593 0.48060143
-3.7882204 -5.1719694 0.48112628
-3.8181012 -5.1462255 0.48090133
-3.8430171 -5.1139312 0.48007658
-3.86285 -5.0751772 0.47865197
-3.9018312 -5.0616474 0.47962672
-3.9469275 -5.0556908 0.48135123
-3.9840579 -5.0392013 0.48210099
-3.9276612 -4.9056711 0.47160399
-3.9539204 -4.8768311 0.47115412
-3.8945642 -4.7437973 0.46058211
-3.9408073 -4.7405171 0.46260652
-4.202251 -4.9924426 0.48974884
-4.2897186 -5.0333571 0.49634695
-4.356348 -5.0484676 0.50047082
-4.393147 -5.0284019 0.5011456
-4.4225969 -4.9998574 0.50099564
-4.4445448 -4.9629688 0.50002092
-4.4655371 -4.9252605 0.49897122
-4.5219693 -4.9264212 0.50189537
-4.5460038 -4.8920069 0.50122058
-4.5977974 -4.8872652 0.50361991
-4.6380134 -4.8697939 0.50474459
-4.7176356 -4.8929343 0.51014304
-4.724586 -4.8403449 0.50766873
-4.7738199 -4.8311267 0.50976813
-4.8125405 -4.8109097 0.5107429
-4.841969 -4.7812901 0.5107429
-4.8790669 -4.75915 0.51156765
-4.896688 -4.7180519 0.51036799
-4.9898262 -4.7491093 0.51704109
-5.0239573 -4.7231846 0.51756597
-5.0674567 -4.705842 0.5190655
-5.1182795 -4.6948843 0.52131486
-5.1425567 -4.6593728 0.52086502
-5.1688204 -4.6257358 0.52064008
-5.1903825 -4.5879893 0.51996529
-5.2792764 -4.6091833 0.52603853
-5.3278465 -4.5942879 0.52806294
-5.3718777 -4.5750895 0.52963752
-5.4921789 -4.61972 0.53870994
-5.550334 -4.6107874 0.54163414
-5.5939384 -4.5892954 0.54313368
-5.631289 -4.5624189 0.54403341
-5.89431 -4.71594 0.56667703
-5.9786854 -4.7235804 0.5720005
-6.0562987 -4.7248406 0.57664919
-6.2407899 -4.807487 0.59141999
-9.3788567 -7.1339936 0.88511169
-9.4176693 -7.0727186 0.88466179
-9.4737062 -7.024303 0.88586146
-9.5303068 -6.9760551 0.8871361
-9.5745468 -6.9186149 0.88728607
-9.6078892 -6.8533659 0.88646126
-9.655467 -6.7983031 0.88698614
-9.7035494 -6.7434835 0.887586
-9.7356987 -6.6776118 0.88676119
-9.7987843 -6.6328425 0.8887856
-9.8492479 -6.5792408 0.88968539
-9.8927622 -6.5208783 0.88998526
-9.9217205 -6.4529862 0.88901055
-9.9535761 -6.3871388 0.88833576
-9.9934216 -6.326478 0.88841075
-10.044739 -6.2729645 0.88953543
-10.087284 -6.2138281 0.88991028
-10.139709 -6.1606197 0.89118493
-10.194427 -6.1085396 0.89268452
-10.24631 -6.0544977 0.89395916
-10.289297 -5.9950275 0.89448398
-10.340588 -5.9402261 0.89575863
-10.380312 -5.8786311 0.89605856
-10.418799 -5.816287 0.89628351
-10.474384 -5.7633061 0.89800799
-10.529712 -5.7098622 0.89973253
-10.569826 -5.6479654 0.90018237
-10.61487 -5.5885797 0.90108216
-10.663124 -5.5306897 0.90228182
-10.717282 -5.4755936 0.9040063
-10.767602 -5.4182477 0.90543091
-10.814047 -5.3587193 0.90655559
-10.857478 -5.2975125 0.90745533
-10.907756 -5.239429 0.90895492
-10.955024 -5.1796484 0.91022956
-11.00016 -5.1186433 0.91135424
-11.056746 -5.0626769 0.91345364
-11.10124 -5.0008826 0.91457832
-11.153596 -4.9423695 0.91637778
-11.20108 -4.8814096 0.91780239
-11.246403 -4.8192668 0.91907704
-11.289546 -4.7559772 0.92020172
-11.341548 -4.6961551 0.92207617
-11.359066 -4.6219654 0.92117643
-11.469619 -4.5851293 0.92784953
-11.50589 -4.5179472 0.92852437
-11.552003 -4.4544396 0.93002391
-11.623881 -4.400423 0.9336229
-11.684313 -4.3415227 0.93632215
-11.730405 -4.2769217 0.93789667
-11.763 -4.2072158 0.93842155
-11.731194 -4.1148238 0.93384784
-14.406907 -4.9544501 1.144613
-14.470108 -4.8771062 1.1472373
-14.525328 -4.7966714 1.1492617
-14.581052 -4.7160492 1.1513611
-14.635382 -4.6346221 1.1533855
-14.712119 -4.5597916 1.1572095
-14.763678 -4.4766688 1.159084
-14.761231 -4.3772068 1.1567596
-14.664262 -4.2507315 1.1470873
-14.659367 -4.1519766 1.144688
-14.698982 -4.0659385 1.1458127
-14.800669 -3.9964702 1.151811
-14.866377 -3.9165051 1.1550351
-14.919102 -3.8326578 1.1572845
-14.975226 -3.7492793 1.1598338
-15.038639 -3.6672468 1.1629828
-15.11713 -3.5882621 1.1673316
-15.181614 -3.5053103 1.1706307
-15.244674 -3.4214835 1.1738547
-15.305326 -3.3365896 1.1769289
-15.364534 -3.2508733 1.1799281
-15.419359 -3.1637542 1.1826273
-15.519658 -3.0852244 1.1888505
-15.680283 -3.0172672 1.1997224
-15.965157 -2.9706256 1.2201166
-16.053747 -2.8853128 1.2255151
-16.124205 -2.7959569 1.229564
-16.182367 -2.703872 1.2327131
-16.236065 -2.6105447 1.2355622
-16.295137 -2.5175741 1.2388613
-16.276741 -2.412569 1.236312
-16.339615 -2.3195212 1.2399859
-17.498774 -2.3746784 1.3268863
-17.586197 -2.2767398 1.3324348
-17.743341 -2.1864796 1.3433067
-17.84259 -2.0876524 1.3498298
-17.730183 -1.9642931 1.3403825
-17.674461 -1.8484101 1.335284
-17.722187 -1.7435406 1.3380581
-18.168468 -1.67497 1.3709738
-18.208208 -1.5660235 1.3732232
-18.182684 -1.451492 1.3705989
-18.248926 -1.3441485 1.3749477
-18.503571 -1.2488114 1.3935424
-18.559656 -1.1382449 1.3972164
-17.182312 -0.9479363 1.2929959
-17.099161 -0.83814132 1.2863228
-16.517179 -0.70802921 1.2421603
-16.140545 -0.59267461 1.2135185
-16.062147 -0.49112442 1.2073703
-15.925294 -0.3891435 1.1968732
-15.822696 -0.28950056 1.1890005
-15.806227 -0.19218989 1.1876508
-15.832038 -0.095352292 1.1895254
-16.058685 0.0018091038 1.2065455
-15.95666 0.099711999 1.1988976
-15.853047 0.19635065 1.1911749
-15.739878 0.29155576 1.1827772
-15.654054 0.38606673 1.176479
-15.533779 0.47849315 1.1676315
-15.398014 0.56890666 1.1576593
-15.37929 0.66273308 1.1565347
-15.418756 0.75924212 1.1598338
-15.523332 0.85989773 1.1680814
-15.554588 0.95739603 1.1708556
-15.700642 1.0631198 1.1823274
-15.726642 1.1618602 1.1848017
-15.90112 1.272889 1.1985228
-15.960569 1.376255 1.2036213
-16.025303 1.4809487 1.2091697
-16.105228 1.5880532 1.2159178
-16.16361 1.6940122 1.2210914
-16.261934 1.8052564 1.229339
-16.372372 1.9192793 1.2385614
-16.50478 2.037534 1.2495083
-16.584925 2.1508186 1.2565563
-16.677143 2.2669084 1.2645791
-16.762632 2.3833683 1.2721518
-16.885786 2.5066712 1.2826489
-16.965677 2.6250198 1.2899219
-17.043766 2.7442839 1.2971197
-17.180033 2.8744755 1.3088164
-17.264252 2.9975736 1.3166143
-17.362324 3.1244609 1.3255367
-17.47027 3.2546725 1.335284
-17.546909 3.3804789 1.3427068
-17.733175 3.5293386 1.3586023
-17.804958 3.6573391 1.3658003
-17.922661 3.7962694 1.3765973
-18.067577 3.9429457 1.3895686
-18.188986 4.0865149 1.4008154
-18.264612 4.2213936 1.4086132
-18.3577 4.3617325 1.4178356
-18.541779 4.5258317 1.4341809
-18.64134 4.6715088 1.4440781
-18.77844 4.8285084 1.4569744
-18.910452 4.9863482 1.4695709
-19.036413 5.1446877 1.4817924
-6.0284672 1.6694574 0.46942961
-5.9912472 1.6988021 0.46733019
-5.9711337 1.7327538 0.46658042
-5.9355335 1.7619838 0.46463096
-5.88167 1.7853414 0.46125692
-5.8563185 1.8169661 0.46013224
-5.8260474 1.8468412 0.45863265
-5.8041701 1.8791769 0.4578079
-5.7622318 1.9047436 0.45540857
-5.719254 1.9295479 0.45293427
-5.705421 1.9639553 0.45278433
-5.7054954 2.0032191 0.45375904
-5.6865239 2.0358377 0.4532342
-5.5924244 2.0409579 0.44671103
-5.6536355 2.1026869 0.45263436
-5.5930686 2.1193225 0.44881046
-5.5539098 2.1435506 0.44671103
-5.5183773 2.1688366 0.44491154
-5.513299 2.2059889 0.44558635
-5.3897538 2.1950312 0.4366639
-5.354074 2.2189007 0.4348644
-5.3284125 2.2466755 0.43388969
-5.3108611 2.277756 0.43358976
-5.3370037 2.3278368 0.43688884
-5.3253551 2.3617527 0.43711376
-5.2725806 2.3771746 0.43396467
-5.2361374 2.399514 0.43216518
-5.180635 2.4126577 0.42879114
-5.1413956 2.4328868 0.42676669
-5.1155853 2.4592047 0.42586696
-5.1568551 2.5181062 0.43059063
-5.1645355 2.5612171 0.43254006
-5.0017614 2.5188704 0.42016858
-5.0004182 2.5567749 0.42136824
-4.9669342 2.5782228 0.41986865
-4.9351397 2.6002855 0.41851905
-4.9032626 2.6220555 0.41716942
-4.8923407 2.6549454 0.41761929
-4.9519587 2.7267516 0.42414245
-4.9307814 2.7546535 0.42376757
-4.8357019 2.7406149 0.41701946
-4.8127427 2.7667565 0.41649461
-4.7569079 2.7736366 0.41312057
-4.7063222 2.7829812 0.41019639
-4.6575122 2.7928357 0.40742218
-4.6973796 2.8560641 0.41244575
-4.7111769 2.9041905 0.41521999
-4.6848116 2.9277592 0.4144702
-4.5968366 2.9121647 0.40824696
-4.5763636 2.9386995 0.40802202
-4.554903 2.9645491 0.40772212
-4.5407891 2.9951861 0.408097
-4.5156927 3.0185592 0.40749717
-4.4648852 3.0244036 0.40457299
-4.4487104 3.0534353 0.40479794
-4.4356227 3.0846593 0.40532279
-4.3701429 3.0790856 0.40104899
-4.3471093 3.102946 0.4006741
-4.3190985 3.1231346 0.39984933
-4.2885904 3.1413293 0.39879963
-4.2636285 3.1634259 0.39827478
-4.227396 3.1769488 0.39670023
-4.2157583 3.2088666 0.39745003
-4.2117863 3.2468479 0.39894959
-4.157197 3.2456336 0.39565054
-4.1395512 3.2729354 0.39587545
-4.1007071 3.283318 0.39407599
-4.0735116 3.3027666 0.39340118
-4.0539408 3.3283315 0.39347616
-4.0441785 3.3620665 0.39452586
-3.977695 3.3482935 0.39002714
-4.0056524 3.4140289 0.39482576
-4.0019946 3.4535246 0.39655027
-3.924402 3.4288146 0.39092687
-3.9152412 3.4633996 0.39212653
-3.890945 3.4846971 0.3918266
-3.8606241 3.5004692 0.39092687
-3.8273177 3.5133038 0.38972721
-3.7932692 3.5251832 0.38845256
-3.7650304 3.542243 0.38777778
-3.7656119 3.5865953 0.39010212
-3.7507131 3.6165538 0.39085189
-3.726311 3.6374102 0.39062697
-3.6982467 3.6545994 0.39002714
-3.6672924 3.6687608 0.38912737
-3.6363034 3.6826797 0.38822764
-3.6087639 3.6999261 0.38770279
-3.5936055 3.7298977 0.38852754
-3.5761518 3.7576556 0.38912737
-3.5379996 3.7635455 0.38747784
-3.5480936 3.8209848 0.39115182
-3.5191884 3.8368053 0.39055198
-3.4600904 3.8191638 0.38657811
-3.4312708 3.8343787 0.38597828
-3.4433458 3.8957024 0.39002714
-3.4377425 3.937788 0.39212653
-3.3177776 3.8478043 0.38110465
-3.3348436 3.9159131 0.38582832
-3.3614686 3.9965835 0.39175165
-3.3432555 4.0248036 0.39250141
-3.2647297 3.9797168 0.38612822
-3.2502942 4.0120697 0.38732788
-3.2106621 4.0132518 0.38552842
-3.2379105 4.098597 0.3918266
-3.1930709 4.0932302 0.3894273
-3.1252925 4.0574512 0.38417879
-3.1027527 4.0797257 0.38447869
-3.143537 4.1863933 0.39272636
-3.1177907 4.2056031 0.39272636
-3.0671873 4.1908603 0.38957724
-3.0460875 4.2160668 0.39017707
-2.9720938 4.1672997 0.38395384
-2.9952691 4.2547603 0.39032704
-2.9611382 4.2615948 0.38927734
-2.9309855 4.2739277 0.38875249
-2.9047058 4.2918315 0.38875249
-2.9015827 4.344399 0.39190158
-2.8759689 4.3637857 0.39205155
-2.8306522 4.3529296 0.38950229
-2.8011971 4.3660202 0.38912737
-2.7679536 4.3730154 0.38822764
-2.7516344 4.4068327 0.38972721
-2.7203581 4.4168415 0.38912737
-2.6885452 4.4257803 0.38845256
-2.6613386 4.4421935 0.38845256
-2.6355538 4.4610152 0.38867751
-2.6156626 4.490026 0.38980219
-2.6024694 4.5310659 0.39197657
-2.5795326 4.5556254 0.39272636
-2.5515316 4.5713677 0.39272636
-2.5234342 4.5869374 0.39272636
-2.5223391 4.6522989 0.39700013
-2.4960957 4.6720858 0.39737505
-2.4497266 4.6537843 0.39452586
-2.4183702 4.6634173 0.39407599
-2.3892567 4.6772804 0.39400101
-2.3605125 4.6918526 0.39400101
-2.3330078 4.7089281 0.39422593
-2.3119423 4.7392859 0.39557555
-2.2901597 4.7686629 0.3968502
-2.264267 4.7898369 0.39745003
-2.2432494 4.8217216 0.39894959
-2.2190192 4.8471813 0.39992431
-2.1978378 4.8797984 0.40149888
-2.1690664 4.8959274 0.4017238
-2.1381881 4.9073162 0.40157384
-2.1115723 4.9285922 0.40224865
-2.0843887 4.9488077 0.40284848
-2.0539844 4.9615035 0.40284848
-2.0231266 4.9730897 0.4027735
-1.9947954 4.9909654 0.4032234
-1.9736114 5.0272441 0.40517282
-1.9538509 5.0681014 0.40749717
-1.9297788 5.0986457 0.40899673
-1.9036684 5.1244116 0.41012141
-1.8694568 5.1285009 0.40952158
-1.8439993 5.156776 0.41087121
-1.817605 5.1830487 0.41207087
-1.7877142 5.1997619 0.41252074
-1.7618275 5.2285867 0.41394535
-1.7306505 5.2421393 0.41417027
-1.68679 5.2166061 0.41132107
-1.661976 5.2496734 0.41312057
-1.6338667 5.2731066 0.41417027
-1.609584 5.3097525 0.41626969
-1.583495 5.3415174 0.4179942
-1.5615193 5.388485 0.42091838
-1.5414727 5.4440174 0.42451733
-1.5104327 5.4620228 0.42519215
-1.4784499 5.476964 0.42564201
-1.447865 5.4975042 0.42654178
-1.4121205 5.498558 0.42594194
-1.384411 5.531302 0.42781639
-1.3492641 5.5348487 0.42744151
-1.3178113 5.5536957 0.42826629
-1.2877485 5.5791659 0.42961589
-1.2528359 5.5840435 0.42939097
-1.2196114 5.5964971 0.42976585
-1.18752 5.6146064 0.43059063
-1.1582594 5.6471848 0.43254006
-1.1255318 5.6639662 0.43328986
-1.5939642 8.285265 0.63348305
-1.5463809 8.3125353 0.63483268
-1.4988757 8.3414965 0.63633227
-1.454652 8.3908195 0.63940638
-1.4105365 8.4438467 0.64278042
-1.3647164 8.4897547 0.64562958
-1.3168629 8.5255623 0.64772904
-1.2694987 8.5670195 0.65027827
-1.2211144 8.6042662 0.65252763
-1.1727229 8.6442051 0.65500194
-1.1415603 8.8203449 0.66782331
-2.8816016 29.285521 2.2117102
1.4955691 18.684345 1.4084632
1.6128404 18.705616 1.4107876
1.7311625 18.734093 1.4137117
1.8467649 18.730064 1.4142365
1.9757859 18.853258 1.4244337
2.0947297 18.870514 1.4266831
2.2112899 18.864239 1.4272078
2.8358259 21.868666 1.6571677
3.7784967 20.99753 1.6032579
3.9196804 21.040613 1.6083565
4.6596551 20.161139 1.5549716
4.82476 20.306801 1.5684679
6.2557325 17.821644 1.4192601
6.3394299 17.711569 1.4135617
7.3996038 18.497646 1.4970881
7.1649823 17.292578 1.4065137
7.2326083 17.157316 1.3990909
7.3067045 17.040213 1.3931675
16.26059 30.414814 2.5923023
16.281425 30.009445 2.5662098
48.100483 68.285988 6.2794561
7.6764379 10.617699 0.98423356
7.5505567 10.309728 0.95994043
7.3475261 9.9043989 0.92635
7.2524247 9.651845 0.90685552
7.1768494 9.4302006 0.89013523
7.2004886 9.3417568 0.88593644
7.2466292 9.2832499 0.88458681
7.2125535 9.1236124 0.87356496
7.2434731 9.0480452 0.87056577
7.2366905 8.9267387 0.86314291
7.2527351 8.8351488 0.8585692
7.2819524 8.7605715 0.855645
7.3323588 8.7119112 0.85527015
7.3889098 8.6705513 0.855645
7.4758444 8.6643124 0.85954392
7.5183706 8.6062622 0.85834426
7.551218 8.5375586 0.8560949
7.5396047 8.4197445 0.84889692
7.5877767 8.3696299 0.84852207
7.6160645 8.2979345 0.84597278
7.6688728 8.2532387 0.84619772
7.6804266 8.1646261 0.84192395
7.6904955 8.0754604 0.83757514
7.6783066 7.9642248 0.83090204
7.6942954 7.88342 0.82737803
7.7179937 7.8112316 0.82475382
7.7368655 7.7348204 0.82167965
7.7628951 7.6661801 0.81943029
7.781951 7.5912457 0.81650615
7.8233571 7.5385103 0.81598127
7.8644099 7.4855518 0.81545645
7.9167304 7.4433041 0.81613123
7.9659061 7.3979807 0.81650615
8.0104141 7.3482895 0.81643116
8.0390949 7.2842684 0.81478161
8.0672932 7.2201729 0.81313211
7.9866824 7.0602341 0.80061066
8.1763201 7.1389961 0.8152315
8.1852341 7.0587339 0.81178248
8.2268734 7.0070839 0.81163251
8.2788706 6.9641767 0.81253225
8.3229799 6.9145222 0.81268221
8.3667917 6.8645883 0.81283218
8.3901606 6.7980537 0.81103271
8.4036856 6.7240152 0.80833346
8.456521 6.6815982 0.80945814
8.4910698 6.6246772 0.80885828
8.5260286 6.5681915 0.80833346
8.5328369 6.490396 0.80518436
8.5852575 6.4474988 0.80638403
8.6150465 6.3875718 0.80548424
8.6484451 6.3304677 0.80495942
8.6871243 6.2772822 0.80495942
8.716548 6.2174907 0.80413467
8.7211056 6.1403508 0.8010605
8.7668066 6.0924149 0.80181032
8.8286924 6.0554304 0.80405968
8.8376064 5.9821377 0.80151039
8.8525877 5.9133954 0.79956096
8.9020252 5.8677473 0.80076063
8.9378614 5.813015 0.80076063
8.9809151 5.7629113 0.80143541
9.0287437 5.7156987 0.80256009
9.0890179 5.6760392 0.80480945
9.1474457 5.6348085 0.80690885
9.202301 5.5910029 0.80870837
9.2389994 5.5359707 0.80893326
9.2813787 5.484251 0.80968308
9.3691339 5.4588275 0.81440675
9.5044804 5.4598556 0.82325423
9.5976715 5.4353442 0.82842773
9.8023643 5.4721165 0.84319854
10.009609 5.5075397 0.85811931
10.095809 5.4745417 0.86261803
23.687025 11.023004 1.9635308
23.814053 10.904859 1.9684793
29.287863 12.551497 2.3949583
29.300919 12.344837 2.3897848
26.667648 10.661696 2.1585505
27.629684 10.460687 2.2204828
23.363705 8.6819315 1.8731813
26.672987 9.7259159 2.1338074
26.597605 9.1473589 2.1139381
26.008781 8.7667456 2.0628026
25.805479 8.5222435 2.0424833
25.914213 8.3821583 2.046982
25.962305 8.2220907 2.0467572
4.2930117 1.3300548 0.33701718
4.3965187 1.3326283 0.34451503
4.3950524 1.3027912 0.34376526
4.2305689 1.225819 0.33026907
4.2053905 1.1905971 0.32771981
4.1703286 1.1530714 0.32442075
4.178288 1.1277211 0.3244957
4.1870575 1.1025705 0.32464567
4.1792569 1.0731361 0.32352099
4.1944685 1.0496525 0.3241958
4.2008305 1.023896 0.3241958
4.1769567 0.99096036 0.32187146
4.1644979 0.96104908 0.32044688
4.185884 0.93897283 0.32164651
4.1857209 0.91199636 0.32119665
4.2039204 0.88898003 0.32217139
4.2210183 0.86557418 0.32307112
4.2399421 0.84238082 0.32412082
4.2313223 0.81371063 0.32307112
4.2568226 0.79156393 0.32464567
4.1928978 0.75307912 0.31939715
64.944481 10.853463 4.9500084
3.5266788 0.50010532 0.26691204
3.4427259 0.46665302 0.26031393
3.4306905 0.44359905 0.25918925
3.429389 0.42205238 0.25888932
3.4437993 0.40239316 0.25978908
3.4590881 0.38268277 0.26076379
3.5000503 0.36549759 0.26368797
3.4803941 0.34186602 0.26203844
3.3344738 0.3068589 0.25086659
3.3362939 0.28639317 0.25086659
3.3320241 0.26544034 0.25041673
3.3604412 0.24696918 0.25244117
3.3907459 0.22829357 0.25461555
3.4597645 0.21163732 0.2597141
3.3713877 0.18545739 0.25296602
3.3625021 0.16427886 0.25221622
3.3614542 0.14355835 0.25206625
3.3622718 0.12293015 0.25206625
3.3619664 0.10226681 0.25199127
3.3685117 0.081782654 0.25244117
3.3739352 0.061203741 0.25281605
3.4001722 0.040816832 0.25476551
3.4063418 0.019989289 0.25521538
52.28056 0.059235446 3.0412385
52.316875 -0.26173809 3.0433877
52.344231 -0.58307725 3.0451303
52.344666 -0.90433073 3.0454206
52.359085 -1.2259853 3.0466406
52.621006 -1.5552251 3.062382
52.6404 -1.8791407 3.0641246
52.62389 -2.2019339 3.0638924
52.550556 -2.5219629 3.0604651
52.564995 -2.8460329 3.0622659
52.579426 -3.170495 3.0641828
52.576916 -3.4942484 3.0652282
31.006781 -2.2517924 1.8081729
29.508499 -2.3250732 1.7215656
52.793152 -4.4860234 3.0821316
29.731262 -2.7101238 1.7363777
52.81461 -5.1413741 3.0868366
52.807884 -5.4680152 3.0883467
29.872826 -3.2784853 1.7478789
29.803555 -3.4560845 1.7450327
29.842234 -3.646277 1.7485759
55.69368 -7.1522212 3.2664409
55.582935 -7.8324833 3.2653372
13.115334 -1.9301329 0.77062744
13.087455 -2.0081477 0.76969802
28.768042 -4.5952902 1.694381
55.953056 -9.290349 3.2994921
55.943203 -9.6418047 3.3023384
55.987164 -10.003497 3.3084955
56.010132 -10.36264 3.313549
56.028835 -10.722067 3.3184865
56.050137 -11.08308 3.3237143
56.086712 -11.448353 3.3299878
56.060352 -11.801739 3.3326597
56.045414 -12.158195 3.3361449
33.379616 -7.4558525 1.9893456
33.053032 -7.596127 1.9726166
56.382435 -13.322506 3.3702419
56.379177 -13.687525 3.375005
56.350105 -14.41497 3.3836017
56.456619 -14.811888 3.3953934
56.493858 -15.19276 3.403177
56.552601 -15.581277 3.4124129
56.587559 -15.965121 3.4203706
56.57198 -16.336132 3.4254241
56.638222 -16.732443 3.4355893
56.651081 -17.114876 3.4426761
56.770107 -17.531679 3.4563844
56.772854 -17.914831 3.4631805
56.80534 -18.309092 3.4719517
56.827534 -18.701925 3.480258
56.853664 -19.097944 3.488971
56.840233 -19.482363 3.4954188
56.929771 -19.904236 3.5083721
57.017204 -20.328274 3.5213835
57.07436 -20.744242 3.5327106
57.047104 -21.131504 3.5389838
57.059277 -21.535076 3.5478711
57.070496 -21.940306 3.5568745
57.215538 -22.399982 3.5744166
57.121532 -22.768372 3.5772049
56.977051 -23.116932 3.5769725
56.751087 -23.431812 3.5717447
56.672512 -23.807428 3.575927
36.905357 -16.853283 2.3599389
6.5888133 -6.5736556 0.54083627
6.5448427 -6.6104131 0.54054582
6.4217939 -6.5662265 0.53369159
6.348784 -6.5717597 0.53096151
6.3042054 -6.6062579 0.53061301
6.2519107 -6.6324654 0.52962554
6.2178998 -6.6780081 0.53020638
0.77875257 -0.91165978 0.069055676
0.77314407 -0.916421 0.069055676
0.76750642 -0.92114764 0.069055676
0.76183999 -0.92583966 0.069055676
0.75551534 -0.92972189 0.068997592
0.75042117 -0.93511885 0.069055676
0.74280953 -0.9373582 0.068881415
0.73888928 -0.94425726 0.069055676
0.73369175 -0.94956332 0.069113761
0.72361386 -0.94849062 0.068707153
0.71778035 -0.95291275 0.068707153
0.7154935 -0.96210617 0.069055676
0.70603263 -0.9616493 0.068707153
0.70011878 -0.9659633 0.068707153
0.69766307 -0.97511303 0.069055676
0.691091 -0.97855985 0.068997592
0.68393219 -0.98114377 0.068881415
0.68864751 -1.0009505 0.069985062
0.6757651 -0.99524492 0.069288023
0.67409015 -1.006008 0.069752716
0.67120755 -1.0151223 0.070101239
0.66496623 -1.0192217 0.070101239
0.66140097 -1.0274802 0.07039167
0.65722418 -1.0348904 0.070624016
0.65563059 -1.0465184 0.071146801
0.65391898 -1.0581656 0.071669579
0.65156937 -1.0689782 0.072134271
0.65631038 -1.0917815 0.07341218
0.64450955 -1.0871996 0.072831318
0.63430089 -1.0851002 0.07242471
0.63311291 -1.0984869 0.073063664
0.62586772 -1.1014829 0.073005572
0.62056053 -1.1079156 0.073179834
0.61760968 -1.1186949 0.073644526
0.60834891 -1.1180784 0.073354095
0.60100549 -1.1209102 0.07329601
0.59365022 -1.1236941 0.073237926
0.58582264 -1.1255442 0.073121749
0.57845008 -1.1282291 0.073063664
0.57016695 -1.1290836 0.072889403
0.55922884 -1.1245153 0.072366618
0.55319619 -1.1297187 0.072482795
0.54408705 -1.1285951 0.072192363
0.53458482 -1.1265004 0.07184384
0.52892959 -1.1324731 0.072018102
0.51947039 -1.1302544 0.071669579
0.51211429 -1.1325108 0.071611494
0.50434458 -1.1338073 0.071495317
0.49537823 -1.1323072 0.071204886
0.48999867 -1.1389939 0.071437232
0.4830007 -1.141979 0.071437232
0.47751689 -1.1486087 0.071669579
0.4738569 -1.159835 0.072192363
0.46747482 -1.1645738 0.072308533
0.46361473 -1.1757793 0.072831318
0.45891392 -1.1851189 0.073237926
0.45092428 -1.186046 0.073121749
0.44922057 -1.2037563 0.074051134
0.44422796 -1.2130525 0.074457742
0.43778861 -1.218574 0.074632004
0.43295622 -1.2287704 0.075096697
0.4270376 -1.236122 0.075387135
0.42104501 -1.2434471 0.075677566
0.41372168 -1.2469548 0.075735651
0.40452072 -1.2447225 0.07544522
0.40020391 -1.2576461 0.076084174
0.39277631 -1.2610312 0.076142259
0.38764924 -1.2720124 0.076665044
0.38154706 -1.2801076 0.07701356
0.37675574 -1.292968 0.077652514
0.36826864 -1.2933351 0.077536345
0.36086068 -1.2974941 0.077652514
0.35236973 -1.2977569 0.077536345
0.34414467 -1.2989296 0.077478252
0.3351697 -1.2971504 0.077245906
0.32696056 -1.2982143 0.077187821
0.31851327 -1.2982569 0.077071644
0.31030959 -1.2992158 0.07701356
0.3030093 -1.3040127 0.077187821
0.2963213 -1.3116902 0.077536345
0.28955045 -1.3193345 0.07788486
0.2826969 -1.3269449 0.078233384
0.27515522 -1.3315876 0.078407645
0.26776302 -1.3371664 0.078639992
0.26050258 -1.3436847 0.078930423
0.25243682 -1.3462392 0.078988507
0.24577202 -1.3566037 0.079511292
0.23795877 -1.3610367 0.079685554
0.22993463 -1.36444 0.079801723
0.22315529 -1.3756797 0.080382593
0.21670754 -1.3898464 0.081137717
0.21038949 -1.4059601 0.082009025
0.2020418 -1.4092009 0.082125194
0.19420414 -1.4163487 0.082473718
0.18654512 -1.4254327 0.08293841
0.17828859 -1.4305131 0.083170757
0.17138365 -1.4474427 0.084100142
0.16327718 -1.4554117 0.08450675
0.15476413 -1.4603572 0.084739096
0.14639448 -1.4672396 0.08508762
0.13813192 -1.4760622 0.085552312
0.12924591 -1.4788711 0.085668489
0.120734 -1.4866016 0.086075097
0.11198293 -1.492292 0.086365528
0.10275584 -1.491955 0.086307444
0.093661785 -1.4935539 0.086365528
0.084383287 -1.4921069 0.086249352
0.075075969 -1.4896055 0.086075097
0.066110477 -1.4940275 0.086307444
0.057017799 -1.4964001 0.086423613
0.048120733 -1.5057021 0.086946398
0.039111648 -1.5149509 0.087469175
0.030146893 -1.5321304 0.088456653
0.020919262 -1.5452634 0.089211777
0.011495331 -1.553349 0.08967647
0.0019887411 -1.575353 0.090954378
-0.0077424604 -1.5883135 0.091709509
-0.017666005 -1.604208 0.092638895
-0.027560655 -1.607064 0.092813157
-0.037491012 -1.6098588 0.092987418
-0.047456704 -1.6125921 0.09316168
-0.058704 -1.6501822 0.095368974
-0.06878648 -1.6487935 0.095310889
-0.078566983 -1.6413603 0.094904281
-0.089014538 -1.6478251 0.095310889
-0.099063635 -1.6462514 0.095252797
-0.1092954 -1.6476049 0.095368974
-0.11969212 -1.6508859 0.09560132
-0.12997635 -1.6521111 0.095717497
-0.14036465 -1.6542665 0.095891751
-0.15096556 -1.6583451 0.09618219
-0.1620087 -1.66633 0.096704967
-0.17305265 -1.6732486 0.09716966
-0.18538566 -1.69101 0.098273315
-0.19725305 -1.7027323 0.099028438
-0.20927122 -1.7143722 0.09978357
-0.22614463 -1.7625648 0.1026879
-0.23882057 -1.7749954 0.10350112
-0.25054309 -1.7794279 0.10384964
-0.26145673 -1.7778571 0.10384964
-0.27463189 -1.7910206 0.10472094
-0.29112795 -1.8238055 0.10675398
-0.30313072 -1.8269088 0.10704441
-0.31416517 -1.8240306 0.10698632
-0.32693166 -1.8309134 0.10750911
-0.33852303 -1.8308362 0.10762528
-0.35162687 -1.8385297 0.10820615
-0.3648378 -1.8461312 0.10878702
-0.37655792 -1.845814 0.10890318
-0.38911048 -1.8493302 0.10925171
-0.40023875 -1.8459321 0.10919362
-0.41177532 -1.8444159 0.10925171
-0.4602032 -2.0033638 0.11889411
-0.47202778 -1.9985592 0.11877793
-0.48404631 -1.9946553 0.11871985
-0.49893239 -2.0023029 0.1193588
-0.51442528 -2.0117769 0.12011393
-0.5285331 -2.015342 0.12052054
-0.54166681 -2.0149534 0.12069479
-0.55455053 -2.0135167 0.12081097
-0.56770802 -2.0129585 0.12098523
-0.58060259 -2.0113556 0.1211014
-0.59547871 -2.0163717 0.12162419
-0.61621243 -2.0403938 0.1233087
-0.62400728 -2.0213127 0.12237931
-0.68716925 -2.17834 0.13219598
-0.68520951 -2.1265738 0.12929164
-0.70979208 -2.1574156 0.13144085
-0.73573214 -2.1908736 0.13376431
-0.74689537 -2.1797073 0.1333577
-0.76190317 -2.1797955 0.13364814
-0.77526379 -2.1750793 0.13364814
-0.79098237 -2.1768494 0.13405475
-0.81923562 -2.2122095 0.13655248
-0.84054935 -2.227689 0.13783039
-0.86244178 -2.2439215 0.13916638
-0.91440839 -2.3361962 0.14526549
-0.92170256 -2.3129218 0.14416185
-0.95426804 -2.3525512 0.14700809
-0.97173303 -2.3540337 0.14747278
-0.98847866 -2.3535492 0.14782131
-1.0044703 -2.3511119 0.14805366
-1.0268359 -2.3632159 0.14921539
-1.0493876 -2.3751333 0.15037712
-1.0766242 -2.396879 0.15217781
-1.1215841 -2.4565194 0.15641814
-1.1765611 -2.5356176 0.16193639
-1.1959294 -2.5364769 0.16245916
-1.2136272 -2.5335927 0.1627496
-1.2295871 -2.5269961 0.16280769
-1.2680721 -2.5659413 0.1658282
-1.2891668 -2.568819 0.16652524
-1.382874 -2.7138472 0.17651616
-1.418309 -2.7416639 0.17889772
-1.4193223 -2.7028596 0.17692277
-1.4255487 -2.6747189 0.17564486
-1.4485836 -2.6782143 0.17645808
-1.4765188 -2.6902788 0.17785215
-1.4997987 -2.6933787 0.17866537
-3.3838925 -5.9895897 0.39956927
-3.4041989 -5.9401312 0.39765242
-3.4215176 -5.8863349 0.39544511
-3.4296861 -5.8179307 0.39225036
-3.4258752 -5.7307987 0.38777766
-3.4325109 -5.6627164 0.38458291
-3.4677145 -5.6423993 0.38464099
-3.5244443 -5.656601 0.38708064
-3.4220691 -5.4179535 0.37215233
-3.4471738 -5.384243 0.37128103
-3.4404738 -5.3018584 0.36704069
-3.4361851 -5.2247653 0.3631489
-3.462642 -5.1952758 0.36256802
-3.4676328 -5.1342225 0.35977986
-3.4584737 -5.0535331 0.35559762
-3.4376473 -4.9575644 0.35031173
-3.4674277 -4.9355612 0.35025364
-3.5410652 -4.9751911 0.35461015
-3.597801 -4.9898086 0.35722405
-3.6259947 -4.9644141 0.35699168
-3.6641068 -4.9525046 0.35774681
-3.6836493 -4.9155493 0.35670125
-3.6877866 -4.8586621 0.35420352
-3.601922 -4.6855659 0.34316704
-3.5980995 -4.6216283 0.34008846
-3.5998101 -4.5657549 0.33759072
-3.6221509 -4.5365596 0.33706793
-3.6285768 -4.4878554 0.33509299
-3.634542 -4.4392443 0.33311805
-3.603729 -4.3469238 0.32783213
-3.600807 -4.2895579 0.32516015
-3.5992572 -4.2346754 0.32266241
-3.5548418 -4.1307912 0.31638905
-3.5853677 -4.1149225 0.31685376
-3.9176593 -4.4409528 0.34386408
-4.2008724 -4.7034831 0.36622748
-4.3374577 -4.7968321 0.37557945
-4.4139972 -4.821671 0.37964553
-4.4631791 -4.8157301 0.38133004
-4.5227008 -4.8202858 0.38388586
-4.6078844 -4.8510723 0.38859087
-4.6493273 -4.83494 0.38957837
-4.6782103 -4.8056064 0.38952026
-4.7090101 -4.7782326 0.38963646
-4.7551632 -4.7662101 0.39103052
-4.7715487 -4.7243004 0.38998497
-4.8025875 -4.6970277 0.39015922
-4.8471136 -4.6827307 0.39143714
-4.8930893 -4.6694417 0.39283121
-4.9274597 -4.6448083 0.39329591
-4.974864 -4.632174 0.39480618
-5.020093 -4.6171041 0.39614215
-5.0535011 -4.5909138 0.39654878
-5.0622563 -4.5424848 0.39503852
-5.0638843 -4.488163 0.39300549
-5.0950832 -4.4602952 0.39329591
-5.157094 -4.4589825 0.3959679
-5.2124467 -4.4512415 0.3981171
-5.2610292 -4.4371958 0.39974353
-5.3050323 -4.4188871 0.40102145
-5.4870148 -4.5137258 0.4126969
-5.4828377 -4.4541659 0.41031533
-5.4680142 -4.3867068 0.40717864
-5.5151734 -4.3691902 0.4086889
-5.6362371 -4.4090772 0.41565931
-5.6426425 -4.3585443 0.41414905
-5.6994443 -4.3468447 0.41635635
-5.8528128 -4.4072714 0.42559215
-5.9013772 -4.3873577 0.42716047
-5.9257722 -4.3492928 0.42698622
-5.9531555 -4.313437 0.4270443
-6.0006227 -4.2919273 0.42855456
-6.0676217 -4.2838154 0.43145889
-6.2543306 -4.3583698 0.44284391
-6.2908263 -4.3267007 0.44354096
-9.7989073 -6.6511502 0.68837661
-9.8478279 -6.5964551 0.68895745
-9.8747921 -6.5270982 0.6880281
-9.9221811 -6.471293 0.68855083
-9.9667387 -6.4135318 0.6888994
-10.010962 -6.3554664 0.68924791
-10.051461 -6.29498 0.68936408
-10.100089 -6.2394834 0.69006109
-10.148415 -6.1836257 0.69075817
-10.194722 -6.1263819 0.69133902
-10.245863 -6.071856 0.69226843
-10.286373 -6.0108891 0.69250077
-10.329117 -5.951148 0.69290733
-10.371514 -5.891109 0.69331396
-10.425759 -5.8376017 0.69453377
-10.484107 -5.7860618 0.69604403
-10.536952 -5.7311635 0.69720578
-10.589518 -5.6758342 0.69836754
-10.63562 -5.6168118 0.69912267
-10.664571 -5.5486822 0.6987741
-10.700192 -5.4840522 0.69889027
-10.753247 -5.4281902 0.70016819
-10.803337 -5.3705506 0.70127183
-10.841466 -5.3067951 0.7016204
-10.903502 -5.2544746 0.70353723
-10.976127 -5.2067266 0.70615113
-11.031387 -5.1502604 0.70766139
-11.054617 -5.0787253 0.7071386
-11.097398 -5.0161448 0.70789373
-11.144386 -4.9552588 0.70893931
-11.187387 -4.8923845 0.7097525
-11.237372 -4.832324 0.71103042
-11.303593 -4.778831 0.71335387
-11.347452 -4.7155128 0.71428329
-11.334582 -4.6288137 0.71166939
-11.476732 -4.6049023 0.71881407
-11.507559 -4.5354939 0.7189883
-11.566825 -4.4770508 0.72096324
-11.618341 -4.4152141 0.7224735
-11.666727 -4.3518667 0.72380954
-11.705398 -4.2846599 0.72456461
-11.744621 -4.2174792 0.72537786
-11.739204 -4.1343932 0.72346097
-14.351822 -4.9557018 0.88273484
-14.418839 -4.8800282 0.88500023
-14.513893 -4.8131456 0.88900822
-14.588728 -4.7388029 0.89179641
-14.646071 -4.6582761 0.89353901
-14.689629 -4.5730691 0.89446837
-14.738422 -4.4892488 0.89574629
-14.804917 -4.4104161 0.89812785
-14.745436 -4.2943697 0.89290005
-14.685092 -4.1792202 0.88767225
-14.733542 -4.0954523 0.88906634
-14.79597 -4.0151682 0.89133167
-14.861825 -3.9352937 0.89382941
-14.918556 -3.8525155 0.89580441
-14.96999 -3.7679708 0.89748889
-15.043247 -3.6884069 0.90050942
-15.128713 -3.6110988 0.90428501
-15.191427 -3.5276864 0.90672469
-15.234211 -3.4392433 0.90800261
-15.291106 -3.3536158 0.91015178
-15.352407 -3.2684584 0.91259146
-15.433766 -3.186914 0.91625088
-15.503934 -3.1023393 0.91927141
-15.564821 -3.0153143 0.92176914
-15.982395 -2.9945762 0.94541043
-16.022079 -2.9003656 0.94668835
-16.108414 -2.8140261 0.95075446
-16.159834 -2.7209349 0.95278746
-16.198891 -2.625402 0.9541235
-16.321228 -2.5425525 0.96039683
-16.26247 -2.4312894 0.95604032
-16.325504 -2.3383946 0.95888656
-16.78661 -2.2994118 0.98514181
-17.603203 -2.3013103 1.0322502
-17.631851 -2.1951053 1.0331215
-17.81551 -2.1070426 1.0431124
-17.763617 -1.9904639 1.0393367
-17.7199 -1.8755472 1.0360838
-17.744982 -1.7681702 1.0368971
-18.163029 -1.697335 1.0607127
-18.203934 -1.5885469 1.0625134
-18.170551 -1.4733508 1.0600156
-18.200155 -1.3633965 1.0612354
-18.405378 -1.2652508 1.0727366
-18.595131 -1.1637024 1.0833665
-17.266306 -0.9742381 1.0055302
-17.151316 -0.8622123 0.99850178
-16.599766 -0.73241019 0.96608937
-16.186954 -0.61471194 0.94180906
-16.173458 -0.51483935 0.94082159
-15.971726 -0.41033769 0.92891383
-15.851174 -0.3099305 0.92176914
-15.812849 -0.21212856 0.91944569
-15.801874 -0.11501173 0.91874862
-15.884143 -0.018143514 0.92351174
-15.98079 0.079804942 0.92914617
-15.919106 0.17718118 0.92560285
-15.75502 0.27204412 0.91613472
-15.661234 0.36655965 0.91079074
-15.56489 0.45987561 0.9053306
-15.464004 0.55188066 0.89963812
-15.415441 0.64487737 0.89702421
-15.429143 0.74031407 0.89806974
-15.522998 0.84031522 0.90382034
-15.590294 0.93993348 0.90806067
-15.657947 1.0404752 0.91235912
-15.708021 1.140653 0.91567004
-15.859963 1.249562 0.92496395
-15.914664 1.3521787 0.92862338
-16.007475 1.4590483 0.93454826
-16.08864 1.5660433 0.93983412
-16.154196 1.6725465 0.94424874
-16.246834 1.7829626 0.95028973
-16.411114 1.9029732 0.96057111
-16.44372 2.0090828 0.96318501
-16.513269 2.1204965 0.96800619
-16.652311 2.2422984 0.97695154
-16.753899 2.3607316 0.98374772
-16.820087 2.4754071 0.98851085
-16.96641 2.6034005 0.99803704
-17.051657 2.7236755 1.00402
-17.167574 2.850327 1.0118617
-17.242239 2.9715505 1.0173218
-17.309181 3.0925677 1.0223753
-17.496027 3.2368574 1.0345737
-17.56016 3.3602874 1.039569
-17.607767 3.4815269 1.0436351
-17.853104 3.6440082 1.0594928
-17.918331 3.7719934 1.0647206
-18.019728 3.9089582 1.0721557
-18.130831 4.0497026 1.0802298
-18.195154 4.1814466 1.0855738
-18.461592 4.362112 1.1030579
-18.562536 4.5063982 1.1107254
-18.624622 4.6426678 1.1161274
-18.822102 4.814754 1.1297197
-18.917736 4.963089 1.137271
-19.07299 5.1291108 1.1484817
-19.112381 5.265667 1.1527802
-5.9781947 1.6864405 0.36070925
-5.9504704 1.718105 0.3596637
-5.9331141 1.7526041 0.35925707
-5.9126925 1.7860888 0.3586762
-5.8968525 1.8208619 0.35838577
-5.8208303 1.8365813 0.35443586
-5.8199039 1.8756316 0.35507482
-5.7912164 1.9056891 0.35402927
-5.7576485 1.9338758 0.35269326
-5.7201757 1.960428 0.35112494
-5.6825953 1.9865934 0.3495566
-5.7191958 2.0388572 0.35257709
-5.6493444 2.0531087 0.3490338
-5.6319594 2.086 0.34874338
-5.6031761 2.1145251 0.34775591
-5.5574822 2.1363275 0.34572285
-5.5098743 2.1569211 0.34357366
-5.5058093 2.1943851 0.34415451
-5.399734 2.190594 0.33834586
-5.3677363 2.2160652 0.3371841
-5.3439131 2.2447059 0.33654517
-5.3144336 2.2707846 0.33555767
-5.3361077 2.3188694 0.33782306
-5.3747401 2.3749719 0.3411921
-5.2835732 2.3735397 0.3363128
-5.2207808 2.3839352 0.33323422
-5.1915665 2.4092002 0.33230484
-5.1694622 2.4376032 0.33184013
-5.1409035 2.4628062 0.33096883
-5.1113329 2.4873142 0.33003944
-5.133563 2.537209 0.33247909
-5.1027308 2.5610471 0.33149162
-5.0042005 2.5501506 0.32608953
-4.9804788 2.576679 0.32556677
-4.9424791 2.5955851 0.32411459
-4.9150076 2.6197579 0.32335946
-4.8724985 2.6356163 0.32161686
-4.9708776 2.728394 0.32922623
-4.9453211 2.7539859 0.32864535
-4.7979541 2.7106152 0.31993234
-4.7673731 2.7320611 0.31900296
-4.7444787 2.75775 0.31859636
-4.7231679 2.7842746 0.31830591
-4.6862874 2.8014209 0.31696993
-4.6681561 2.8296051 0.31691185
-4.74086 2.9136059 0.32306904
-4.7000165 2.9283857 0.32150069
-4.6279421 2.9230483 0.31778315
-4.5350933 2.9034803 0.31261343
-4.5029564 2.9220138 0.31162593
-4.4740992 2.9424567 0.31087083
-4.4468231 2.963763 0.31023186
-4.4302087 2.99211 0.31034803
-4.4323621 3.0333331 0.31180021
-4.4464803 3.0832281 0.31412366
-4.3931708 3.0863488 0.31168401
-4.3692703 3.1097732 0.3113355
-4.3387709 3.1283493 0.31052229
-4.3114324 3.1490242 0.30994141
-4.2856088 3.1706691 0.30947673
-4.2269287 3.1675692 0.30663049
-4.2153654 3.1994812 0.30721134
-4.2186065 3.2429314 0.30889586
-4.1781487 3.2528093 0.30738559
-4.1581111 3.2783847 0.30738559
-4.1316757 3.2988534 0.30692092
-4.0997124 3.3147271 0.30604962
-4.0530343 3.3183167 0.30407467
-4.0095415 3.324008 0.30233207
-4.0326524 3.3851347 0.30564299
-3.9790978 3.3820128 0.30314529
-3.9938347 3.4369717 0.30587536
-3.9719181 3.4607568 0.30581728
-3.910183 3.4493983 0.30268058
-3.8867106 3.4713306 0.30250633
-3.8720019 3.5011401 0.30302909
-3.8548644 3.5288773 0.30337763
-3.8133702 3.5341408 0.30180928
-3.7908854 3.5567896 0.3017512
-3.7653708 3.5765452 0.30146077
-3.7714179 3.6265693 0.30372614
-3.7340732 3.6350179 0.30250633
-3.7081437 3.6543574 0.30221587
-3.6842377 3.6756313 0.3020997
-3.6602106 3.6967492 0.30198354
-3.6304786 3.7120011 0.30140266
-3.6000042 3.7263093 0.30076373
-3.5315855 3.70066 0.29692999
-3.5663309 3.7832823 0.30180928
-3.5389686 3.80071 0.30146077
-3.5169325 3.8238225 0.30157694
-3.4934039 3.84533 0.30157694
-3.459743 3.8555472 0.30070564
-3.4459527 3.8879101 0.30157694
-3.4364982 3.9255068 0.30285484
-3.3607659 3.8868585 0.29826599
-3.3446326 3.9165168 0.29896304
-3.3334107 3.9522283 0.30012476
-3.3851278 4.0638905 0.30703709
-3.3043199 4.0167375 0.30192545
-3.2500272 4.0005178 0.29919538
-3.2266686 4.0219421 0.29931155
-3.2329242 4.0807915 0.30221587
-3.221971 4.1186366 0.30355188
-3.1234095 4.0435195 0.29658148
-3.1203341 4.0911851 0.29867259
-3.1077828 4.1270018 0.29989243
-3.0984828 4.167625 0.30146077
-3.0935259 4.2147274 0.3034938
-3.01372 4.1592541 0.29814982
-2.9887235 4.1784797 0.29820791
-3.0090892 4.2619834 0.30285484
-2.9537735 4.2385941 0.29989243
-2.9294076 4.2591062 0.30006668
-2.9060223 4.2811308 0.3003571
-2.8846991 4.3063459 0.3008799
-2.8659279 4.3356247 0.30169311
-2.8387258 4.3522916 0.30163503
-2.8044045 4.3578744 0.30082181
-2.7834978 4.3842711 0.30146077
-2.7432973 4.3801155 0.30000859
-2.7200427 4.4028111 0.30041519
-2.7002482 4.4313536 0.3012284
-2.6843197 4.4666638 0.30250633
-2.6619515 4.4916387 0.30308717
-2.6363559 4.5113354 0.30331954
-2.6031432 4.5179114 0.30268058
-2.5827684 4.5468202 0.30355188
-2.5548213 4.562582 0.30355188
-2.5171304 4.5606914 0.30239016
-2.4757435 4.5514946 0.30076373
-2.5161507 4.6941853 0.30918631
-2.4383509 4.6168442 0.30308717
-2.4224172 4.6556306 0.30465552
-2.3915286 4.6659641 0.3043651
-2.3592548 4.6734209 0.30390039
-2.3314235 4.6895971 0.30401659
-2.3056769 4.7100906 0.30442318
-2.2828004 4.7367401 0.3052364
-2.2643898 4.7732072 0.30668858
-2.2451947 4.8087215 0.30808264
-2.2235649 4.8396435 0.30918631
-2.195061 4.8559251 0.30936056
-2.1648188 4.8683901 0.30930248
-2.1357059 4.8834109 0.30941865
-2.1100397 4.9065118 0.31005761
-2.0857251 4.9331594 0.31092891
-2.0565658 4.9486299 0.31110317
-2.0257854 4.9602313 0.31104508
-1.9971707 4.9772005 0.3113355
-1.9695219 4.9967914 0.31180021
-1.9420681 5.0171609 0.31232297
-1.9147929 5.0383153 0.31290385
-1.8890758 5.0639997 0.31377515
-1.8682623 5.1036201 0.31551775
-1.8399483 5.1234436 0.31604055
-1.8144459 5.1515861 0.3170861
-1.7837796 5.1654534 0.31726035
-1.7549316 5.1848116 0.31778315
-1.7397391 5.2457032 0.32086173
-1.698884 5.2296939 0.3192353
-1.6834047 5.2923446 0.32243007
-1.6520865 5.3063865 0.32266241
-1.6302584 5.3517585 0.32481164
-1.60024 5.3712287 0.32539251
-1.5728353 5.400116 0.32655424
-1.549508 5.4442325 0.32864535
-1.5080533 5.4247818 0.32690275
-1.4773535 5.4435678 0.32748362
-1.4492905 5.4727964 0.32870343
-1.4179291 5.4902854 0.32922623
-1.3966415 5.5482564 0.33218864
-1.3544893 5.5237556 0.3302137
-1.3356354 5.5950799 0.33398935
-1.2895378 5.5526028 0.33096883
-1.2578616 5.5711226 0.33160779
-1.2264342 5.5914125 0.33236292
-1.1908556 5.5929742 0.33201438
-1.158534 5.6099524 0.33259526
-1.6509705 8.2502203 0.48884863
-1.6052532 8.285677 0.49035886
-1.5586114 8.3179398 0.49169487
-1.5167904 8.3784285 0.49471536
-1.471537 8.4229813 0.4968065
-1.4236391 8.4544945 0.49814248
-1.3746111 8.4808083 0.49918807
-1.3294623 8.5334721 0.50180197
-1.2829807 8.5809622 0.50412542
-1.2288895 8.5787897 0.50354457
-1.1830014 8.6356239 0.50644892
-1.1288275 8.633811 0.50592613
-3.1766379 26.860083 1.5730377
-2.9824224 26.617151 1.5577029
-2.791414 26.373852 1.5424261
-2.6285448 26.380548 1.5418452
-2.465327 26.382265 1.541032
-2.3047905 26.412809 1.5419614
-2.1513128 26.532925 1.5481766
-1.9916757 26.588432 1.5506744
