# .PCD v0.7 - Point Cloud Data file format
VERSION 0.7
FIELDS x y z
SIZE 4 4 4
TYPE F F F
COUNT 1 1 1
WIDTH 1532
HEIGHT 1
VIEWPOINT 0 0 0 1 0 0 0
POINTS 1532
DATA ascii
1.0029263 -2.5681269 0.67166156
0.99862498 -2.6041625 0.67950523
0.99289215 -2.6375134 0.68663579
0.99116278 -2.6827359 0.69685626
0.9525075 -2.6275818 0.68093133
11.502544 -32.994926 8.5473833
11.386256 -33.31765 8.6127472
9.9079456 -29.58383 7.6313419
9.7077646 -29.587767 7.6168432
9.5970516 -29.867796 7.6736503
9.4238062 -29.958551 7.6819692
8.9703627 -30.465178 7.768249
6.2444401 -22.209543 5.6423864
6.184938 -22.52751 5.7134547
6.3852406 -23.828848 6.0336175
1.4925512 -5.7093825 1.4410508
1.3461893 -5.2816896 1.3307645
5.7013869 -22.959095 5.7857113
5.5542412 -22.968155 5.7792935
1.0351347 -4.397881 1.1025862
5.4331946 -23.739048 5.9561319
1.2128545 -5.4522943 1.3638029
5.1506991 -23.846661 5.9668279
5.2250361 -24.931177 6.2301836
4.6182466 -22.729626 5.6725726
4.4438081 -22.580265 5.6283631
4.0655065 -21.348524 5.3148556
0.98233432 -5.3356185 1.3245847
4.2167854 -23.723614 5.8931451
0.89003414 -5.1912184 1.2858419
0.83996791 -5.0863695 1.2585081
3.6998708 -23.296446 5.769073
0.69602042 -4.7578502 1.1736542
3.2747416 -23.391384 5.776679
3.349273 -25.041971 6.1793189
2.912508 -22.842051 5.6316905
0.5660674 -4.6664634 1.147271
2.8152707 -24.469248 6.0241103
2.381639 -21.881731 5.3830714
2.2264061 -21.692049 5.3329196
2.1034269 -21.81069 5.3588271
1.965631 -21.779652 5.3481317
1.9526197 -23.22674 5.7006197
1.8188909 -23.351587 5.7284288
0.39804196 -5.5479918 1.3580984
0.36056182 -5.4979892 1.3452634
0.31179014 -5.2470236 1.2832273
1.2303957 -23.10984 5.6599755
0.24751468 -5.2533655 1.2839404
0.21428277 -5.2305222 1.2779983
0.79967719 -22.981018 5.623847
0.65940428 -23.011707 5.6302648
0.10107412 -4.482923 1.0942671
0.077969305 -4.7524843 1.1601061
0.052176323 -5.0821409 1.2406816
0.022571443 -5.4679852 1.335043
-0.010827342 -5.3932276 1.3167411
-0.03886864 -4.7753067 1.1655729
-0.070212096 -4.9177513 1.2005126
-0.10068343 -4.9317946 1.204078
-0.13050355 -4.914577 1.2000374
-0.16415173 -5.0204744 1.2261828
-0.19185965 -4.9397826 1.2066926
-0.23649538 -5.2567902 1.2846535
-0.26398051 -5.1621132 1.2618357
-0.26846531 -4.6861882 1.1456072
-2.1704593 -34.191734 8.3805285
-0.4561359 -6.5517321 1.6041033
-2.57938 -34.024017 8.3465385
-0.37672186 -4.5968685 1.1256416
-2.6487234 -30.043011 7.3770185
-0.52562946 -5.572485 1.3666551
-0.59871584 -5.6100445 1.3775886
-0.63596201 -5.6313605 1.3837686
-0.52899641 -4.440033 1.0911772
-0.53725356 -4.285388 1.0538605
-0.57291985 -4.3532753 1.0714493
-0.65123546 -4.7239881 1.1639091
-0.91858155 -6.3735189 1.5727288
-0.6591652 -4.3832951 1.0816697
-0.68153691 -4.3503795 1.0745392
-0.70790493 -4.3441982 1.0740638
-0.70730752 -4.1788769 1.0341326
-0.75343299 -4.2911758 1.0631303
-5.2285047 -28.736828 7.1443238
-11.173548 -59.341034 14.772852
-0.7331838 -3.7674401 0.93620598
-0.766433 -3.8133419 0.94880331
-0.840321 -4.0520482 1.0096509
-0.90782201 -4.2462883 1.0595649
-8.200531 -37.232147 9.3260422
-13.183934 -58.156342 14.588883
-1.4121779 -6.0574164 1.5190117
-1.3021824 -5.434649 1.3645159
-1.3259859 -5.387886 1.3547708
-1.4082737 -5.5745907 1.4039718
-1.4284601 -5.2459426 1.3274369
-1.0721197 -3.7550895 0.95260632
-1.1195105 -3.7463033 0.95379472
-1.1325413 -3.706851 0.94547576
-12.756604 -40.848228 10.468598
-1.4722984 -4.6152835 1.1824485
-1.5063069 -4.6237102 1.1869646
-1.5018457 -4.5157595 1.1615322
-18.962471 -51.661556 13.463203
-21.462019 -45.86314 12.387674
-24.990622 -47.218742 13.069833
-28.353027 -50.53196 14.175548
-28.675045 -50.378986 14.181727
-35.535946 -57.408978 16.518417
-33.00563 -49.83744 14.624061
-38.662636 -53.261265 16.101755
-16.273506 -17.662922 5.8738928
-16.306046 -17.48176 5.8467965
-21.952984 -21.863852 7.5785761
-21.745356 -21.392904 7.4613967
-21.194237 -20.596348 7.2287021
-20.866133 -20.030033 7.0746818
-20.392334 -19.336206 6.8735995
-20.505632 -19.206068 6.8719358
-20.618101 -19.07527 6.8702717
-20.743362 -18.956263 6.8731241
-20.89822 -18.863773 6.8859591
-21.066502 -18.782377 6.9033103
-21.2178 -18.684858 6.9151945
-21.356968 -18.575991 6.9232759
-21.491175 -18.46232 6.9299312
-17.465181 -14.818495 5.6017423
-21.832262 -18.294523 6.96701
-21.997236 -18.204187 6.9838858
-22.185236 -18.131569 7.0081296
-22.327818 -18.020725 7.0181127
-22.448605 -17.891859 7.02144
-22.597656 -17.785019 7.0337996
-22.775387 -17.699671 7.0551915
-22.935961 -17.599802 7.0713544
-23.124815 -17.520327 7.0963111
-23.278549 -17.413015 7.1105723
-23.412304 -17.290051 7.1188912
-23.570541 -17.184408 7.1348162
-23.720476 -17.0718 7.1483645
-23.90555 -16.983315 7.1726084
-24.038734 -16.856947 7.1814027
-24.211201 -16.757223 7.2020812
-24.364897 -16.643417 7.2172933
-24.600264 -16.583733 7.2567492
-24.77515 -16.481434 7.2783785
-24.904234 -16.347763 7.2866974
-25.064402 -16.233721 7.3042865
-25.255213 -16.138201 7.3309073
-25.420317 -16.024891 7.3501596
-25.58333 -15.909135 7.368937
-25.722692 -15.77776 7.3810587
-25.93454 -15.689518 7.4140973
-26.107899 -15.576375 7.436202
-26.281679 -15.462184 7.4585443
-26.438234 -15.336699 7.4761333
-26.606884 -15.217108 7.4972873
-26.809752 -15.115582 7.5281863
-27.070951 -15.044692 7.5754862
-27.18746 -14.891837 7.5823789
-27.316786 -14.7455 7.5930748
-27.467638 -14.609996 7.6099505
-27.61355 -14.470941 7.6256375
-27.801943 -14.352921 7.6532092
-27.951828 -14.213761 7.6703224
-70.610695 -33.220474 19.092081
-32.987583 -15.273392 8.8922653
-6.8714585 -1.9776808 1.7467148
-6.7791524 -1.639485 1.7036937
-6.7786837 -1.5954103 1.7010791
-6.7845573 -1.5529203 1.7001284
-6.731379 -1.4973432 1.6844412
-6.6360006 -1.4334548 1.6582958
-6.6151996 -1.3865336 1.6509274
-6.611208 -1.3434032 1.6478375
-6.6298103 -1.3048755 1.6504521
-6.62815 -1.2623541 1.6480752
-6.5373764 -1.2035487 1.6235936
-7.1951022 -0.96244401 1.7733357
-7.2018356 -0.91840047 1.7735734
-7.2140851 -0.87501204 1.7752372
-6.7731624 -0.65332562 1.6620986
-6.86798 -0.61996037 1.6844412
-6.7138824 -0.56454515 1.6456983
-7.8047438 -0.60803968 1.9126196
-7.7763557 -0.55784637 1.904776
-7.780601 -0.51018465 1.9050137
-7.8737612 -0.46778959 1.9271184
-8.1102457 -0.43191233 1.9844007
-6.8184066 -0.32120037 1.6673278
-6.5306082 -0.22737215 1.596022
-6.6716967 -0.19130221 1.6302488
-6.6630335 -0.15014327 1.6278719
-7.9953609 -0.13105318 1.9537393
-7.8901439 -0.08090879 1.9278315
-6.8744769 -0.028332563 1.6792121
-7.7360997 0.015606465 1.8900394
-7.3347077 0.059794195 1.7918751
-7.3749948 0.10538183 1.8018579
-7.2800088 0.14870551 1.7788025
-7.2197285 0.19179708 1.7643036
-7.1659913 0.23437697 1.7514685
-7.1935363 0.27947423 1.7585992
-7.3285069 0.32976758 1.7921128
-7.1982961 0.36817572 1.7607384
-6.9961329 0.40088481 1.7117751
-6.0658345 0.38491002 1.4843097
-6.35115 0.44216594 1.5549023
-7.4863782 0.56741041 1.8341832
-6.7954092 0.55697984 1.6654263
-8.0090895 0.70598829 1.9644351
-8.2889194 0.78194469 2.0343149
-7.2624078 0.73007077 1.7830808
-7.2230206 0.77090645 1.7745241
-6.6930842 0.75589782 1.645223
-7.2197685 0.86029065 1.7761879
-6.7189641 0.84244752 1.6540173
-7.2067413 0.94856995 1.7757125
-9.7189589 1.3400136 2.3977365
-7.3637652 1.0613279 1.8175453
-7.3532724 1.1059133 1.8165945
-6.7081938 1.0510112 1.6585335
-6.7495532 1.0999651 1.6704177
-6.6967063 1.1335762 1.6590087
-6.4973278 1.140874 1.6112339
-7.0110359 1.2754849 1.7407727
-7.2035365 1.3562256 1.7906867
-7.2179618 1.4048544 1.7963912
-7.218729 1.451031 1.798768
-7.2163477 1.4966779 1.8004318
-9.8714094 2.1106632 2.4671409
-9.828866 2.1647162 2.4597726
-9.768033 2.2142465 2.4478881
-7.1727138 1.6722224 1.7992435
-7.139648 1.7107691 1.7935389
-6.7611718 1.6640042 1.7008415
-6.6274657 1.6742887 1.6697047
-8.6743803 2.2481654 2.1897614
-9.4677544 2.5158985 2.3941712
-9.0247717 2.4575579 2.2857864
-10.835795 3.0940814 2.754503
-9.014369 2.6338832 2.2950561
-9.7341928 2.9091661 2.4830658
-9.4495535 2.8873713 2.41485
-9.3491402 2.9195278 2.3936958
-9.06639 2.8923998 2.3257177
-9.4899321 3.0918114 2.4393315
-9.2449675 3.074872 2.3810985
-9.5837793 3.3187311 2.4787874
-9.873723 3.4871356 2.5593629
-9.7799435 3.5216548 2.5405858
-16.201321 5.9465985 4.2200742
-16.087196 6.0169706 4.1998711
-16.024559 6.1058826 4.1932158
-14.44013 5.6038518 3.7872481
-15.986365 6.3170619 4.2031984
-15.775183 6.3457928 4.1578007
-15.758421 6.4516692 4.1637425
-15.437889 6.4313202 4.0893469
-14.800722 6.2727246 3.9305727
-15.297149 6.5941348 4.0731845
-15.067801 6.6051946 4.0227947
-14.767038 6.5816612 3.9531529
-20.765766 9.4085178 5.5755968
-20.523247 9.4508419 5.5259204
-20.492144 9.5893545 5.533289
-20.610998 9.7995815 5.5815392
-25.833981 12.673918 7.0383158
-25.760075 12.83436 7.0395041
-20.216085 10.227466 5.5408945
-25.661121 13.180575 7.0561423
-20.083027 10.471635 5.5392308
-20.025265 10.5983 5.5411325
-36.809387 27.76882 11.27982
-37.567444 29.07089 11.620662
-36.981628 28.982098 11.494213
-36.988846 30.103033 11.666773
-36.953362 30.452974 11.714311
-36.000626 30.04063 11.470445
-36.516777 30.853378 11.695058
-35.694958 30.53635 11.491599
-9.4182873 8.2592936 3.0623062
-8.7798119 7.7951922 2.8700185
-8.6480198 7.7735915 2.8424468
-8.5089245 7.7434783 2.8122606
-8.5191145 7.8488545 2.8315132
-9.141325 8.5264225 3.0558887
-8.3126898 7.8494372 2.794672
-8.1513281 7.7922301 2.7564046
-8.0901003 7.8292642 2.7518885
-8.1168432 7.9521732 2.7775586
-8.9334068 8.8602762 3.0758543
-8.8905268 8.9266243 3.079895
-8.3505688 8.4879942 2.9106627
-8.6144629 8.8643847 3.021662
-7.8791819 8.2079248 2.7811239
-7.7952538 8.2208729 2.7692397
-8.900034 9.5021114 3.1828129
-8.4352226 9.1173315 3.0363984
-7.818222 8.5551319 2.8329394
-7.8000765 8.6411581 2.8455367
-7.8580904 8.8135605 2.8864188
-7.8102827 8.8689003 2.8887956
-8.2567616 9.4927187 3.0756166
-8.1578512 9.496047 3.0604048
-8.4387779 9.9458866 3.1887553
-8.3507662 9.9654646 3.1785347
-8.0448456 9.7209272 3.0846488
-7.8504319 9.6053944 3.0325956
-7.682148 9.5180817 2.9900498
-7.6453953 9.5923853 2.9986064
-7.5551558 9.5994234 2.9862468
-7.5044575 9.6563387 2.9895744
0.10949957 2.1432467 0.52215713
0.12237026 2.1376855 0.52096874
0.13591534 2.1436803 0.52263254
0.14980851 2.1534648 0.5252471
4.562274 6.9818406 2.0378802
5.6460562 8.5256243 2.4992285
5.7545571 8.5747004 2.5239477
5.1548591 7.5802064 2.2401507
4.5156407 6.5534382 1.9444696
5.264173 7.5402708 2.2472813
5.3395085 7.5490651 2.2596409
4.2094698 5.8746748 1.7654921
6.2032161 8.5457382 2.5809922
5.7100301 7.7656546 2.3556662
7.3543315 9.8743 3.0097778
6.5261855 8.6511068 2.6487329
6.217638 8.1377697 2.5030313
6.3310604 8.1816626 2.5284638
6.1786265 7.8842497 2.4481258
6.2286987 7.8484721 2.4488389
6.2566581 7.785121 2.4409955
6.342936 7.7940469 2.4559696
5.546803 6.7310281 2.1312907
5.3963213 6.4671621 2.0580833
5.4039302 6.3960896 2.0459614
5.3186808 6.2174048 1.9991373
5.3236609 6.1464744 1.9867777
5.327971 6.0757174 1.9744179
6.9064989 7.7788968 2.5424871
7.0015025 7.7891068 2.5598383
8.6894979 9.5484276 3.1561923
6.3179374 6.8575139 2.2786558
6.3420062 6.7994399 2.2722383
6.09551 6.4553075 2.169558
6.4122157 6.7077618 2.2677224
8.3115778 8.5884666 2.9215963
5.5477948 5.6627512 1.9368635
9.4841061 9.5623684 3.292624
8.954154 8.917944 3.0894024
9.6062765 9.4507132 3.2945254
5.9623423 5.7943196 2.0314627
6.0139003 5.773097 2.0369294
9.8512068 9.3411322 3.3190069
9.8551655 9.2307091 3.3011806
9.0146589 8.3402338 3.0021718
6.5194578 5.9579501 2.1581492
39.493999 35.64904 13.015879
8.510499 7.5878921 2.787066
9.639431 8.4888201 3.1400297
8.6476812 7.5217686 2.8015649
8.2854824 7.1179104 2.6698868
8.3786259 7.1090417 2.6858118
7.9195423 6.6363897 2.5253739
7.9765768 6.6012959 2.5306029
5.9538851 4.8661609 1.8786305
6.102303 4.9253159 1.9159472
5.8885779 4.6934452 1.83965
6.5904961 5.1870704 2.049289
6.3261485 4.9164643 1.9575423
9.0749226 6.9637318 2.796098
6.5602055 4.9704428 2.0110216
6.7344756 5.0377331 2.0549934
6.7480693 4.9836216 2.0497644
6.6482291 4.8471322 2.0103085
6.617928 4.7631259 1.9922444
9.3440933 6.6384912 2.8018026
9.1190224 6.3947654 2.7224154
21.495619 14.877719 6.3939495
6.7432542 4.6064014 1.9953343
6.6827955 4.5052142 1.9691888
6.3690248 4.2370882 1.8688854
6.3437452 4.1643486 1.8539112
8.9234552 5.7796798 2.5985811
7.9380736 5.072608 2.3021867
8.3240232 5.2475772 2.4048672
6.951324 4.3228683 2.000088
7.0025573 4.2953701 2.0072186
8.304513 5.024087 2.3720665
8.3652134 4.990953 2.3806231
8.4609814 4.9779491 2.3991625
8.5073309 4.9352007 2.4036787
16.88666 9.6579542 4.7572446
10.784951 6.0807734 3.0266533
11.13875 6.1904821 3.1153102
9.1046619 4.9871793 2.5372581
9.1521864 4.9404478 2.5420117
16.091846 8.5593109 4.457047
16.206009 8.4928751 4.4741607
7.0363212 3.6326897 1.9347245
16.373079 8.325943 4.4917493
16.458599 8.2427216 4.5012565
16.554167 8.1639185 4.5136161
16.624044 8.0719481 4.519083
16.758268 8.0104256 4.5421386
16.811499 7.9095154 4.5433269
16.982235 7.8629408 4.5763655
17.037233 7.7618127 4.5782671
8.4493208 3.7870021 2.2627308
17.271633 7.6140623 4.6158214
17.363478 7.5276461 4.627943
11.15447 4.7548103 2.9641421
17.528904 7.34516 4.6476712
17.625736 7.2589202 4.6614571
17.742876 7.1801476 4.6807094
17.788404 7.0718617 4.6811848
17.902037 6.9901376 4.6997242
18.030754 6.9131956 4.7223043
18.167377 6.838016 4.7470241
18.260017 6.7452626 4.7603345
18.315674 6.6383891 4.7641373
18.442093 6.5564666 4.7864799
18.538841 6.4630089 4.8012161
18.688448 6.3868289 4.8297386
18.779785 6.2896209 4.8432865
18.894627 6.1994052 4.8630147
19.001669 6.105639 4.8808408
19.061012 5.9959269 4.8865457
19.222771 5.9174371 4.918633
10.447979 3.1462827 2.6670346
7.0595298 2.0787926 1.7978173
19.562733 5.6300335 4.978292
19.666107 5.5293474 4.9958811
19.806446 5.4378905 5.0229774
19.830994 5.3139954 5.0208378
20.01829 5.2327461 5.0600562
20.136616 5.131886 5.0819235
20.212976 5.0194697 5.0933323
20.259445 4.8992324 5.097373
24.830425 5.8435373 6.2389784
10.814211 2.4054294 2.7079165
10.810727 2.3351331 2.7034006
10.86383 2.2769244 2.7131457
9.8533583 2.0021238 2.4573958
9.6081305 1.890987 2.3932204
9.5785227 1.8241838 2.3829999
9.5981331 1.7669594 2.3851392
26.352629 4.6840639 6.5465436
26.317686 4.5114474 6.5308566
26.388958 4.3571587 6.54179
7.9137478 1.2569537 1.9577799
26.711226 4.0742998 6.6088176
7.825737 1.1447047 1.9323475
27.058384 3.7880857 6.6827378
6.0936928 0.81514227 1.501423
6.1332674 0.78215939 1.5099797
6.3279138 0.76754797 1.5568038
7.3833642 0.84960365 1.8156438
7.7505536 0.84369445 1.904776
7.7275629 0.79324621 1.8978831
7.8415394 0.75635153 1.9247416
7.7821832 0.70246059 1.9090543
7.9189529 0.66584367 1.9416173
7.1045837 0.5535084 1.7407727
6.8908234 0.49434149 1.6875311
29.298218 1.9206417 7.1816406
29.375385 1.7447507 7.197803
30.456057 1.4341148 7.4578314
7.630641 0.31253031 1.8657955
7.7508473 0.26982391 1.8947932
1.7664888 0.050779797 0.42945966
1.7589984 0.039765012 0.42755818
1.7553244 0.028907659 0.42660743
1.7253587 0.01782855 0.41923916
1.7079517 0.0071699969 0.41496083
1.6502204 -0.0046233558 0.36765656
1.6355256 -0.014624383 0.36437166
1.6236976 -0.024488108 0.36174372
1.6079086 -0.034126163 0.3582398
1.6037675 -0.043886445 0.35736382
1.6054183 -0.053790625 0.3578018
1.5933584 -0.063181616 0.35517386
1.5929407 -0.072957091 0.35517386
1.5885653 -0.082529083 0.35429788
1.542246 -0.089635201 0.34400514
1.5309558 -0.09841305 0.34159619
1.5585501 -0.10978018 0.34794703
1.5140662 -0.1160075 0.33809227
1.5065188 -0.12473511 0.3365593
1.4901743 -0.13260034 0.33305541
1.4873899 -0.14155743 0.3326174
1.4796977 -0.14999565 0.33108443
1.470988 -0.15824096 0.32933247
1.4670808 -0.16693427 0.32867551
1.511564 -0.18137503 0.33896825
1.6159458 -0.2039151 0.36283869
1.6127295 -0.21357118 0.36240071
1.6142883 -0.2238635 0.36305767
1.5742564 -0.22818315 0.35429788
1.521691 -0.2301293 0.34269115
1.5009722 -0.23643449 0.33831125
1.5158635 -0.24831362 0.34203419
1.5085394 -0.25663099 0.34072021
1.5127022 -0.2668969 0.34203419
1.5167955 -0.27722353 0.34334815
1.5160247 -0.28670606 0.34356713
1.5218985 -0.29749677 0.34531909
1.521001 -0.30702201 0.34553811
1.5267311 -0.31793681 0.34729007
1.5371547 -0.3299551 0.350137
1.5503463 -0.34274378 0.35364091
1.5577291 -0.35441044 0.35583085
1.5897312 -0.37194914 0.36371467
1.6016508 -0.38511199 0.3669996
1.6125208 -0.39820147 0.37006551
1.6081554 -0.40760955 0.36962754
1.6197906 -0.42114615 0.37291244
1.6256622 -0.43333527 0.37488341
1.6408584 -0.44817919 0.37904429
1.6512343 -0.46191332 0.38211024
1.6708841 -0.47847381 0.38736612
1.7128675 -0.50186801 0.39787784
1.6994733 -0.50929165 0.39546892
9.4433355 -2.8897822 2.2137828
9.242897 -2.8906021 2.1708598
9.3737011 -2.9947612 2.205899
10.207638 -3.330286 2.407155
8.7993088 -2.9307749 2.078882
8.3395634 -2.8346508 1.9742024
8.2934341 -2.8758605 1.9674135
8.2655134 -2.9231162 1.9650047
8.2979069 -2.991976 1.9770494
10.268641 -3.7737384 2.4527061
9.4201508 -3.5277357 2.2549539
8.9160585 -3.4015236 2.1391056
8.6994743 -3.3802052 2.0920217
11.026731 -4.3623195 2.6587801
10.394542 -4.26051 2.5186236
10.176383 -4.2442222 2.4719777
10.118711 -4.2932467 2.4643128
8.8665991 -3.8264527 2.1647279
10.122449 -4.4421859 2.4783285
10.52361 -4.6954174 2.5836649
10.899815 -4.9436569 2.6835265
9.9999771 -4.6097841 2.4686928
9.8027344 -4.592011 2.4268646
9.9232721 -4.7229285 2.4638748
7.7339559 -3.739485 1.9253665
10.902443 -5.3539486 2.7233837
10.200523 -5.0872202 2.5556335
11.063122 -5.6023731 2.7805412
11.011183 -5.6612282 2.7761614
9.0757742 -4.7369404 2.2950299
9.0724058 -4.8062406 2.3015997
9.1321239 -4.9098639 2.3243752
9.0058899 -4.9134727 2.2998476
9.0839901 -5.0286469 2.3276601
2.0800281 -1.1688107 0.53277862
2.1660779 -1.2346752 0.55686808
2.1474783 -1.2415969 0.55402112
2.1423452 -1.2562301 0.55467814
2.1362743 -1.2703487 0.55511612
2.132618 -1.2859508 0.55621111
2.114696 -1.2929074 0.55358315
2.0959399 -1.2991788 0.55073625
2.0755341 -1.3042313 0.54745132
2.0337453 -1.2954597 0.53847253
2.0364165 -1.3147911 0.54131943
2.0119784 -1.3165811 0.53693956
1.9957289 -1.3235114 0.53474963
1.9875704 -1.335732 0.53474963
1.9817572 -1.3495492 0.53540659
1.9790618 -1.365561 0.53693956
1.9290535 -1.3486198 0.5255518
1.9279099 -1.3655045 0.5275228
1.920288 -1.3778768 0.52774179
1.9070607 -1.3861928 0.52642781
1.9024488 -1.4007596 0.5275228
2.0729723 -1.5459347 0.5776726
2.0836947 -1.57391 0.58336645
2.0856249 -1.5955555 0.58665138
2.0850532 -1.6154913 0.58927929
2.1027417 -1.6499307 0.59716314
2.0528464 -1.6312475 0.58577538
1.943194 -1.5637071 0.55708706
1.7625769 -1.4363517 0.50759423
1.7409332 -1.4365864 0.50387132
1.7530565 -1.4647523 0.51000321
1.7686244 -1.4962703 0.51723003
1.8009188 -1.5426277 0.52949375
1.7656134 -1.5312816 0.52182889
1.7943202 -1.5755525 0.53321666
1.7751366 -1.5781076 0.5303697
1.7755761 -1.5981054 0.53343564
1.7830508 -1.6247373 0.53869152
1.7895476 -1.650859 0.54372841
1.7915103 -1.6731266 0.54745132
1.7826289 -1.6854278 0.54788929
1.7863551 -1.7098236 0.55226916
17.831814 -17.269728 5.5687833
17.660715 -17.31529 5.5484166
17.464802 -17.334661 5.5201664
17.45929 -17.543159 5.5523586
17.226822 -17.523323 5.5125012
17.094244 -17.820715 5.5396566
36.899769 -44.619652 12.992706
8.1399603 -9.9677191 2.8856587
8.0933475 -10.035705 2.8909147
35.174156 -44.724133 12.767799
5.5809298 -7.467237 2.0896127
34.205753 -46.351231 12.92657
5.1892648 -7.3107553 2.0094607
5.1594272 -7.3640332 2.0153735
23.465988 -34.378563 9.3394356
22.781969 -33.820293 9.1495667
4.7480822 -7.2398062 1.9404773
4.7046309 -7.2704415 1.9409152
4.6473289 -7.2794352 1.9356593
4.9380131 -7.8403115 2.076911
4.8192606 -7.7569242 2.0469086
5.3854795 -8.7879543 2.3105783
20.929983 -34.624363 9.0779552
4.8510385 -8.1384869 2.123776
4.8207898 -8.201745 2.1325357
1.3485687 -2.3279498 0.60110503
1.3507196 -2.3649838 0.60855085
1.3299569 -2.3621757 0.60570389
1.3173326 -2.3737037 0.6065799
1.3121121 -2.3988605 0.61095977
1.294126 -2.4008548 0.60942686
1.2660906 -2.3837638 0.60307598
1.2641137 -2.4156904 0.60920781
1.2345062 -2.3947854 0.60198098
1.2184631 -2.3997054 0.60132402
1.2024058 -2.4045188 0.60066706
1.190217 -2.4171028 0.60198098
1.1749377 -2.4234827 0.601762
1.1629888 -2.4368095 0.60329497
1.1492602 -2.4465487 0.60395193
1.1362752 -2.4579823 0.60504693
1.1211718 -2.4649079 0.60504693
1.1096152 -2.4797556 0.60701787
1.0959519 -2.4900894 0.60789388
1.0825914 -2.5012438 0.60898882
1.0683707 -2.5105326 0.60964584
1.0544534 -2.5206406 0.61052179
1.0397097 -2.528868 0.61095977
1.0223447 -2.5306768 0.60986483
1.0150812 -2.5577593 0.61490172
1.005396 -2.5793927 0.61862463
0.99408722 -2.5973585 0.62147152
0.97710121 -2.6006694 0.62081456
0.99895841 -2.7091391 0.64534199
0.98231667 -2.7152176 0.64534199
0.9378823 -2.6430395 0.6267274
11.506164 -33.042801 7.8502707
9.8919191 -29.570915 6.9957533
9.6272888 -29.998522 7.0684595
9.4910069 -30.20969 7.1043744
8.651166 -29.419781 6.8799047
8.3295164 -28.981863 6.7653708
1.4288121 -5.0910335 1.1840692
1.4001273 -5.1091146 1.1862592
6.1172938 -22.862247 5.3090553
5.9852777 -22.931452 5.3165011
5.7154732 -22.460911 5.19912
5.5371552 -22.332666 5.1614528
17.538378 -72.634941 16.768177
5.3419189 -22.736134 5.2391958
5.0775418 -22.22249 5.113493
0.9730258 -4.3848786 1.0053694
0.94075465 -4.3659678 0.99967557
0.91514683 -4.377388 1.0009896
4.4245496 -21.817335 4.9937029
4.4677773 -22.745968 5.199996
4.3179231 -22.719275 5.1877322
0.83336461 -4.5395989 1.0331818
0.80344927 -4.5330982 1.0305538
0.80408424 -4.7043262 1.06844
3.7766714 -22.925264 5.2120404
0.74232364 -4.6887827 1.062746
0.71427387 -4.6980724 1.063841
0.70529819 -4.8385024 1.0947193
3.3195357 -23.774458 5.3850465
3.3381028 -25.027504 5.6642647
2.9172497 -22.946136 5.188827
2.7686684 -22.899673 5.1743736
0.54053324 -4.7182713 1.063184
2.7868843 -25.691668 5.7974138
2.2611966 -22.111017 4.9858189
0.36464158 -3.8018188 0.854482
0.34602559 -3.8564622 0.86630774
1.9529021 -23.332211 5.2523355
0.28577361 -3.6940687 0.82885963
0.2790117 -3.9186268 0.87900943
0.3518666 -5.4060659 1.2131954
0.32478681 -5.5113702 1.2364089
0.27426162 -5.1975656 1.1654546
0.20003062 -4.2936902 0.96200848
0.94628745 -23.321426 5.2359109
0.17222713 -5.0184059 1.1242836
0.13958088 -4.9540205 1.1096109
0.10896458 -4.9450293 1.107421
0.080889739 -5.0870667 1.1391753
0.31822219 -32.199612 7.2246027
0.12087109 -32.261452 7.2381806
-0.012621645 -5.02915 1.1260356
-0.040360197 -4.6621184 1.0436935
-0.072550714 -4.9066639 1.0986612
-0.10419653 -4.9802656 1.1153048
-0.13464789 -4.9756312 1.1144289
-0.16582002 -4.994215 1.1188087
-0.19363241 -4.9209552 1.1026031
-0.21697168 -4.7685924 1.0686589
-0.24547435 -4.7525549 1.065374
-0.28176337 -4.874671 1.0931864
-0.38467991 -6.0170012 1.3505052
-0.42908451 -6.1215959 1.3745947
-0.46234104 -6.0624185 1.3618929
-0.40451095 -4.9051852 1.1019461
-0.47046947 -5.3079047 1.193267
-0.50845599 -5.3622293 1.2061876
-0.54506999 -5.3958988 1.2145095
-0.57609051 -5.3730493 1.2101296
-0.60201824 -5.307364 1.1961139
-0.55849904 -4.6670475 1.0522343
-0.5603441 -4.4505506 1.0040555
-0.52048767 -3.9382088 0.88886422
-0.81157941 -5.8660798 1.3264158
-0.7861644 -5.4360828 1.2300581
-0.79957777 -5.2989755 1.2000558
-0.88248289 -5.614953 1.272981
-0.9359501 -5.7259512 1.2994795
-0.72448981 -4.2665443 0.96857828
-0.9339456 -5.3037033 1.2059686
-0.94809806 -5.1970825 1.1829742
-1.0139719 -5.3714247 1.2241452
-0.71263462 -3.6508396 0.83214456
-0.78568131 -3.8979642 0.88974017
-0.89597255 -4.0581603 0.93003523
-1.3712906 -6.0364828 1.3866394
-1.396323 -5.9766469 1.3748137
-1.4224946 -5.9243221 1.3647399
-0.88390905 -3.5830536 0.8255747
-10.39475 -41.082378 9.5084991
-1.4815413 -5.7054148 1.3202839
-11.13658 -39.872326 9.2888479
-1.1383152 -3.8882899 0.9066028
-11.574349 -38.6772 9.058465
-11.885953 -38.848976 9.1156225
-12.096731 -38.687775 9.0950375
-1.4631779 -4.5785894 1.0761048
-1.4954801 -4.5825119 1.0791707
-1.5100062 -4.5325165 1.0695349
-1.2615267 -3.7101839 0.87681949
-1.2996089 -3.7466247 0.88733125
-18.340178 -47.210014 11.364699
-21.01763 -47.899719 11.737429
-22.733927 -48.537628 12.026939
-23.087082 -48.5144 12.056066
-23.445053 -48.497448 12.087382
-23.690582 -48.247578 12.061103
-21.991774 -42.778889 10.793123
-22.233984 -42.605083 10.783487
-22.486765 -42.452339 10.779545
-25.290384 -45.037262 11.590264
-25.661873 -45.049103 11.633625
-25.972464 -44.950779 11.649174
-26.221148 -44.745113 11.637348
-26.418941 -44.455044 11.603842
-31.378756 -50.654263 13.370911
-35.851593 -57.089409 15.127687
-36.21484 -56.889755 15.133381
-32.35059 -47.534779 12.902481
-32.340328 -46.898407 12.783348
-33.237328 -46.349895 12.798458
-40.582829 -53.756981 15.114766
-16.297146 -17.675652 5.3933682
-16.410622 -17.581028 5.3951201
-23.644217 -24.414158 7.6253633
-23.056536 -23.516834 7.3890676
-22.568735 -22.738478 7.1878114
-22.225113 -22.119131 7.0349531
-21.701508 -21.334547 6.8275652
-21.29373 -20.678247 6.6591582
-20.873102 -20.022369 6.4889994
-20.44808 -19.375135 6.3197165
-20.545921 -19.229965 6.3133655
-20.664961 -19.10486 6.3138032
-20.7854 -18.980993 6.3148985
-20.920309 -18.870092 6.3205924
-21.08597 -18.78616 6.3357029
-17.272552 -15.199411 5.1612339
-21.408442 -18.607279 6.3635154
-21.559969 -18.507982 6.3746839
-21.71629 -18.411943 6.3873858
-21.879725 -18.320946 6.4022775
-22.022554 -18.211845 6.4112558
-22.177717 -18.112171 6.4239578
-18.574564 -14.980342 5.3530731
-22.497532 -17.917681 6.4524269
-22.640795 -17.80584 6.4620628
-18.561255 -14.413872 5.2718263
-22.969866 -17.612755 6.4938169
-23.107841 -17.494452 6.502358
-23.251482 -17.379791 6.5126505
-18.028534 -13.303948 5.026114
-23.550545 -17.156927 6.5369592
-18.468475 -13.281674 5.1029811
-18.123173 -12.865354 4.9856
-18.541374 -12.991883 5.0786729
-24.281487 -16.793037 6.6234622
-24.437258 -16.680038 6.6379156
-24.578798 -16.556492 6.6486464
-24.728678 -16.437778 6.6617861
-24.928608 -16.351025 6.6885033
-25.105465 -16.247593 6.7090888
-25.225245 -16.106371 6.7145638
-25.413586 -16.007975 6.7384343
-25.617411 -15.917657 6.7664657
-25.762016 -15.789235 6.7789483
-25.955273 -15.68942 6.8043518
-26.176767 -15.604812 6.8372011
-26.323334 -15.474064 6.8505597
-26.513174 -15.367549 6.8753061
-26.687449 -15.250569 6.8961105
-26.85108 -15.126282 6.9142871
-26.999687 -14.992506 6.928741
-27.211855 -14.892609 6.959619
-27.392895 -14.773995 6.9826136
-27.601068 -14.668372 7.0126157
-27.776127 -14.543549 7.034296
-27.96023 -14.422047 7.0583858
-28.136053 -14.294855 7.0805039
-28.337542 -14.179145 7.1091924
-28.538668 -14.061499 7.1378808
-28.689373 -13.917641 7.1540866
-28.937117 -13.819136 7.1946006
-29.144987 -13.699432 7.2252598
-29.283403 -13.545744 7.2388372
-29.510719 -13.431697 7.2745337
-29.684303 -13.291443 7.2970901
-29.884062 -13.16136 7.3262162
-30.041256 -13.011099 7.3450499
-30.304556 -12.904897 7.3899436
-30.483973 -12.760908 7.4144711
-30.734043 -12.644533 7.4562993
-30.933172 -12.505087 7.4858637
-31.144436 -12.368712 7.5184937
-31.35882 -12.231633 7.552
-31.590918 -12.099365 7.5898862
-31.694702 -11.916633 7.5971127
-31.770885 -11.723284 7.5979891
-7.1903853 -2.3070049 1.6921371
-7.216289 -2.2180209 1.6916991
-7.0136065 -1.2879322 1.5977503
-7.0626884 -1.2522019 1.6071671
-7.1539111 -1.223157 1.6262196
-6.5990391 -1.0865977 1.4983268
-7.6483054 -1.2113307 1.7352791
-6.6601071 -1.0128758 1.5092765
-6.8776417 -1.0028446 1.5572363
-7.0363488 -0.98194838 1.5918375
-7.0838289 -0.94430387 1.6012542
-6.8204045 -0.86660194 1.5403737
-6.9098682 -0.83492821 1.5594263
-6.6062732 -0.71607465 1.488691
-6.6629581 -0.68088782 1.5005167
-6.7796755 -0.65081918 1.52592
-6.9079323 -0.62039202 1.5539514
-6.9252214 -0.57913387 1.5570173
-6.9539375 -0.53859222 1.5627112
-7.9916754 -0.56976569 1.7955027
-6.5900335 -0.42908528 1.4794931
-8.1811829 -0.48246771 1.8366737
-6.6181874 -0.34942028 1.4847491
-7.6924419 -0.31164667 1.7252053
-6.4606485 -0.22192979 1.4481769
-7.7766399 -0.21951768 1.7433819
-7.8636837 -0.17370099 1.7626535
-7.8714304 -0.12555662 1.7641864
-8.1179237 -0.07969144 1.8193731
-7.8762813 -0.028967319 1.7650623
-7.6450644 0.018813794 1.7131606
-7.3911252 0.063565575 1.656222
-7.3788886 0.10874408 1.653594
-7.3693027 0.15383562 1.6516231
-7.3448114 0.19841981 1.6463672
-6.7339597 0.22333381 1.5094955
-7.9940829 0.31410733 1.7928747
-6.0844703 0.27664623 1.3643019
-8.1211758 0.41895813 1.8224391
-7.9616203 0.45973888 1.7871809
-6.6752529 0.42668477 1.4985458
-6.3639588 0.44604415 1.4291244
-6.7531843 0.51493931 1.5173793
-6.9191017 0.57029516 1.5554844
-6.7764864 0.60043901 1.5241681
-6.6561093 0.63097012 1.4978887
-9.2935438 0.99591398 2.0950875
-9.6188354 1.0904853 2.1699839
-6.5804896 0.78718179 1.4847491
-7.2164197 0.90813017 1.6297235
-6.8460255 0.90426093 1.5471625
-6.9128385 0.95627058 1.5635872
-6.925189 1.00132 1.5677481
-10.085465 1.52117 2.286489
-6.9162354 1.0868328 1.568624
-9.4285555 1.540699 2.1415145
-7.1168995 1.2080146 1.6174599
-11.236691 1.9778895 2.5580425
-6.5908685 1.2021695 1.5009546
-6.1336832 1.1577611 1.398246
-6.9625258 1.3584046 1.5894285
-7.1998868 1.4506036 1.6457102
-9.6059113 1.9965239 2.1993291
-9.806241 2.1009955 2.2481649
-7.6074033 1.6789426 1.7457908
-7.3952384 1.6797895 1.6993639
-10.346459 2.416703 2.3819706
-7.3930435 1.7749679 1.7037438
-9.2994938 2.2929282 2.1469893
-9.3694363 2.3712454 2.1664798
-10.639141 2.7620554 2.4643128
-10.619164 2.8265312 2.4636557
-8.8911781 2.4252257 2.0657423
-8.9090223 2.4889214 2.0734072
-8.9357986 2.5556095 2.0832617
-8.8469048 2.5890203 2.0661802
-8.9121771 2.6675906 2.0852327
-9.2138081 2.8195622 2.15991
-9.7774458 3.0577323 2.2965627
-9.1041565 2.9086673 2.1423905
-9.7215614 3.1717374 2.2924018
-9.6426697 3.2115996 2.2783861
-9.250473 3.1441898 2.1901312
-14.912674 5.1705661 3.5397964
-14.821793 5.2411551 3.5257807
-9.8243885 3.5422394 2.3412378
-16.419563 6.033752 3.923475
-14.696309 5.5031662 3.5194297
-15.94224 6.0814443 3.8268983
-9.7299509 3.7805085 2.3401427
-9.7074785 3.840498 2.3403618
-15.129762 6.0928698 3.6580534
-15.783678 6.4690046 3.8258035
-15.88958 6.626565 3.8612807
-16.689379 7.080596 4.0662599
-15.231494 6.6838698 3.7305408
-21.134588 9.4290247 5.1914549
-20.861288 9.4610062 5.1384583
-20.772715 9.5749445 5.1310124
-20.605772 9.6517334 5.1042953
-20.51004 9.7607965 5.0953164
-25.754824 12.450992 6.4178257
-20.562132 10.0969 5.1386771
-25.700508 12.816177 6.4430103
-20.191198 10.224174 5.0769205
-25.411999 13.06413 6.4103799
-25.436014 13.473639 6.4576831
-36.915173 27.868702 10.378566
-36.834167 28.164024 10.404188
-36.713123 28.430126 10.41908
-36.756809 28.826462 10.481493
-36.446293 28.945871 10.443388
-36.596752 29.804993 10.590552
-36.77 30.323233 10.694356
-8.6749983 7.3354502 2.5470929
-8.6216717 7.3815608 2.5446839
-8.5474615 7.4094 2.5361431
-9.2718887 8.1374626 2.7660875
-9.1313362 8.1138401 2.7389324
-8.8557701 7.9667807 2.6708248
-8.8146553 8.0281954 2.6732337
-9.0507421 8.3453588 2.7603939
-9.1591434 8.5498695 2.8094485
-9.054739 8.5569878 2.793462
-8.167963 7.8144836 2.5343912
-8.1191597 7.8637753 2.5341721
-8.1466999 7.9879007 2.5580425
-8.1072302 8.0473595 2.5611086
-8.6950722 8.7373505 2.7638977
-8.615303 8.7640982 2.7555759
-8.16574 8.4094152 2.6281209
-8.2207108 8.570612 2.6627221
-8.0639429 8.5111122 2.628778
-7.8855476 8.4257946 2.5873878
-7.7515635 8.3851833 2.5602324
-7.7210226 8.4556437 2.5672402
-8.1807194 9.0701542 2.7387133
-7.8561907 8.8185759 2.6480494
-8.1841831 9.3009758 2.7779133
-7.7025743 8.8627701 2.6327198
-7.7999492 9.0868053 2.6850595
-7.8147202 9.2178469 2.7095869
-8.05369 9.6187172 2.8129525
-8.0604334 9.747654 2.8361659
-8.0097294 9.8082647 2.8394508
-7.8942666 9.7888727 2.8197412
-7.5416608 9.4700146 2.7144048
-7.5491595 9.5997086 2.7382753
-7.4769483 9.6288939 2.7334573
-7.3346028 9.5661907 2.7027981
-7.6909938 10.159445 2.8571894
-7.3896108 10.014395 2.7906151
-7.3117385 10.167693 2.8081346
-7.2503424 10.213957 2.8085725
0.1092768 2.107939 0.47102213
0.12215266 2.1062548 0.47080311
0.13532265 2.1093607 0.47167909
0.147718 2.1007037 0.46992713
0.14727011 1.9246341 0.43050808
4.5894513 6.9236574 1.8616391
5.7632117 8.467207 2.2961247
5.0019293 7.252492 1.9746404
5.9957709 8.5806112 2.3467126
4.1970592 5.9282603 1.6275337
5.1874557 7.2329373 1.9950069
5.259264 7.2388644 2.0055187
5.3961067 7.332201 2.0405579
5.8485765 7.8458033 2.1936352
5.8531041 7.7521424 2.1774297
5.9319706 7.757164 2.1890364
5.9531703 7.6866755 2.1794004
5.9062929 7.5302281 2.1452374
5.8735003 7.394516 2.1167681
5.9945869 7.45262 2.1439233
5.809763 7.1327386 2.0620193
5.8974948 7.1504035 2.0775681
5.8862243 7.0481744 2.0582964
6.1643386 7.2898488 2.1399815
6.814292 7.9590168 2.3489025
6.4808388 7.4761391 2.2179437
5.1248789 5.8389254 1.740973
6.9628773 7.8358865 2.3499975
6.8411694 7.6044035 2.2930589
6.7155747 7.3732738 2.2356822
6.5265613 7.0779815 2.1581581
6.5279245 6.9928641 2.1443613
5.4153967 5.7300215 1.7668144
5.6824727 5.93923 1.8421485
5.7371354 5.9231763 1.8480614
6.4578123 6.5859976 2.0674942
9.107234 9.1751232 2.8987985
9.4780264 9.43225 2.998441
8.8976889 8.7466412 2.7976229
8.6600037 8.4090977 2.706521
8.5607548 8.2112541 2.659656
8.5911455 8.13978 2.6535244
6.2224593 5.8232293 1.9100369
6.2724023 5.7981873 1.9144168
8.4390726 7.7058887 2.5622034
6.5981112 5.9508262 1.991503
6.5332379 5.8200059 1.9610628
7.1650643 6.3045173 2.1393244
8.5586281 7.4382143 2.542275
5.9685149 5.1229405 1.7626535
5.9938827 5.0811739 1.7609015
5.9867954 5.0123525 1.7497327
8.953639 7.403779 2.6049075
29.498276 24.091055 8.5453606
5.6967816 4.593802 1.6397973
8.0603352 6.4188938 2.3099215
8.7898169 6.9121885 2.5070167
26.26523 20.396826 7.4611173
5.9169779 4.5363288 1.6706756
24.851151 18.814341 6.9931254
10.005595 7.4783754 2.8009079
10.20831 7.5327182 2.8447068
6.4823475 4.7218451 1.7972546
8.9723616 6.452054 2.4776714
8.8208342 6.2613192 2.4251127
8.837512 6.1919589 2.4191999
21.460745 14.842114 5.8536954
8.749238 5.971374 2.3747439
10.354825 6.9746003 2.7993748
7.0017061 4.653594 1.8841956
7.0586839 4.6292753 1.8918604
7.2163787 4.669641 1.9264616
7.1503224 4.5648856 1.9012772
7.1418719 4.498044 1.8916414
7.1958575 4.4706173 1.8986492
8.2663536 5.0657797 2.1732688
7.927371 4.791348 2.0762539
7.9666781 4.7486119 2.078882
8.4742756 4.9810042 2.20349
8.4126654 4.8755779 2.1796196
17.02149 9.7266483 4.3973799
8.797452 4.9554014 2.2634945
7.2291231 4.0136189 1.8530983
7.180861 3.9293675 1.8344837
16.008987 8.6338968 4.0796185
16.059076 8.5341311 4.0789614
16.131884 8.4462967 4.0842171
9.9069433 5.1095371 2.4991329
9.9363689 5.0477695 2.4986949
16.479204 8.2452993 4.1330533
16.553993 8.156105 4.139185
16.64411 8.0739698 4.1492586
16.770819 8.0086956 4.1685305
16.839952 7.9151874 4.1735673
16.90237 7.8182654 4.1770711
17.015741 7.744319 4.1932769
17.125275 7.6676803 4.2086062
17.232723 7.589201 4.2234979
17.292395 7.4891372 4.2267828
8.3618116 3.5602307 2.0370538
8.5482063 3.5778089 2.0771301
17.601465 7.2412252 4.2690487
17.672703 7.1440601 4.2756186
17.75248 7.0498943 4.2843785
17.92539 6.9915404 4.3156948
18.028091 6.9044547 4.3301487
9.9572878 3.7432339 2.3848176
18.224054 6.7242508 4.3570848
18.316347 6.6309056 4.3693485
18.433924 6.5458226 4.3877439
18.549301 6.4589038 4.4057016
18.641216 6.3629341 4.4181843
18.706741 6.257411 4.4245353
18.783726 6.1552734 4.433733
18.997662 6.0965567 4.4753418
19.06822 5.9904037 4.4832258
19.199747 5.9025397 4.5055633
7.8950405 2.3737922 1.8476235
7.9019685 2.323102 1.8458714
6.0030489 1.7247113 1.3991221
19.659155 5.5195255 4.5802407
19.745348 5.4132438 4.592504
19.840401 5.3086343 4.6069579
19.937742 5.2038002 4.6220684
20.019411 5.0941215 4.6336751
9.729414 2.4118915 2.2470698
9.9507961 2.4020751 2.2948108
10.397532 2.4425297 2.3944535
7.2096133 1.6468034 1.6570979
7.1938643 1.5968238 1.651185
8.4987888 1.8319666 1.94858
8.5194197 1.7817827 1.95077
8.0864906 1.6394776 1.8491564
8.4152212 1.6524626 1.9220817
8.4673786 1.6088139 1.9317174
8.4483013 1.5515391 1.9251475
8.2828102 1.468653 1.8852905
8.2830095 1.4163222 1.8833196
8.287693 1.3648374 1.8824435
8.2785654 1.3112104 1.8785017
8.2729502 1.2583342 1.8754357
8.283412 1.2079712 1.8760928
8.8347216 1.233103 1.9993868
9.1593485 1.2211913 2.0712171
27.372484 3.4801316 6.1902905
7.7225804 0.93321425 1.7431629
7.7708135 0.89070469 1.7527987
7.7906828 0.8445859 1.7560836
6.5037699 0.66460317 1.4646015
7.4721775 0.71736997 1.6820633
7.7796421 0.69876993 1.7503897
7.2849813 0.6092568 1.6380454
7.6164179 0.58997071 1.7118466
7.0583296 0.5031389 1.5854867
7.0262322 0.45753428 1.5776029
8.3477421 0.49230477 1.8741218
8.46558 0.4471575 1.8999631
6.9642625 0.32489136 1.5620542
10.518743 0.4264133 2.3600712
8.4021664 0.28883851 1.8841956
1.7334645 0.048374463 0.38649014
1.7171454 0.037369393 0.3827672
1.698806 0.026535122 0.37860632
1.6794233 0.015917661 0.37422642
1.6589992 0.0055353893 0.36962754
7.7772136 -0.019756125 1.598179
1.7230721 -0.014809588 0.35214627
1.6524348 -0.024335708 0.33763173
1.6532336 -0.034494936 0.33783332
1.6549491 -0.044691432 0.33823651
1.6487701 -0.054649841 0.33702695
1.6405741 -0.064456992 0.33541423
1.6421045 -0.074611284 0.3358174
1.6191181 -0.083522581 0.33118081
1.6068412 -0.092776902 0.32876173
1.5505258 -0.099068195 0.31727105
1.5430492 -0.10810022 0.31585991
1.5355207 -0.11704426 0.31444877
1.5162266 -0.1249334 0.31061855
1.5105532 -0.13380176 0.30961061
1.5028783 -0.14242016 0.30819947
1.496129 -0.15104795 0.30698991
1.5127039 -0.16210583 0.31061855
1.5311453 -0.17359364 0.31465039
1.57187 -0.18799154 0.32331878
1.5531945 -0.1954298 0.31969014
1.6102276 -0.21265732 0.33178559
1.6263564 -0.22495098 0.33541423
1.621068 -0.23436488 0.33460787
1.6205679 -0.24445334 0.33480945
1.5851721 -0.24906741 0.32775378
1.583614 -0.25878918 0.32775378
1.5713743 -0.26669714 0.32553628
1.5571682 -0.27412486 0.32291558
1.5506392 -0.2827951 0.32190764
1.5440625 -0.29139555 0.3208997
1.5393615 -0.30030131 0.32029492
1.53845 -0.30993456 0.3204965
1.5317246 -0.3183713 0.31948856
1.5642197 -0.33515513 0.32674581
1.5650032 -0.34538025 0.32735059
1.6125206 -0.36626315 0.33783332
1.605474 -0.37503594 0.33682537
1.6307617 -0.39151385 0.34267148
1.6540047 -0.40784672 0.34811443
1.6600165 -0.42015168 0.34992877
1.6555114 -0.42983693 0.34952557
1.6575751 -0.44124714 0.35053355
11.077547 -3.0228198 2.3607969
10.646561 -2.9755158 2.2727017
10.980292 -3.141556 2.3480968
10.942009 -3.2033665 2.344065
9.2585344 -2.7722769 1.9866444
9.3265772 -2.8551264 2.0049891
8.5283375 -2.6680884 1.8366609
8.288825 -2.6490974 1.7884806
10.468009 -3.4165442 2.2638319
12.127851 -4.0408216 2.6285095
8.7236509 -2.9661319 1.8939127
9.1605711 -3.1775377 1.9930954
11.360723 -4.0190167 2.4777195
9.5143108 -3.4316204 2.0791745
9.0849028 -3.3398697 1.9896683
8.7477989 -3.2770026 1.9201195
8.6415081 -3.2977879 1.9011699
10.876965 -4.2275782 2.3993008
10.236073 -4.0509391 2.263227
7.8352742 -3.1565175 1.7360671
7.6952281 -3.1551125 1.7092555
7.6305265 -3.1834128 1.699176
8.4078789 -3.5684662 1.8773823
8.3354673 -3.5982492 1.8660932
10.808277 -4.7446566 2.4269187
10.107251 -4.5110745 2.2755241
9.929533 -4.5050178 2.2416568
9.8545628 -4.5441208 2.2309725
9.9790459 -4.6759868 2.265646
9.8122072 -4.6714458 2.2341979
11.163303 -5.3989811 2.5496876
11.192384 -5.4980383 2.5640004
9.3564482 -4.6676192 2.1495297
9.2201605 -4.6704988 2.1247342
10.515283 -5.4079065 2.4311521
10.49319 -5.4782181 2.4337728
9.1248407 -4.8352928 2.1229198
10.481245 -5.6367288 2.4468763
2.211164 -1.2419887 0.51946664
2.1541445 -1.227405 0.50777435
2.1363969 -1.2347172 0.50535524
2.1262457 -1.2463167 0.50475049
2.1168747 -1.2583385 0.50434732
2.0965314 -1.2637181 0.50132346
2.0778737 -1.2699176 0.49870276
2.0600519 -1.2764518 0.49628368
2.0496926 -1.2875048 0.4956789
2.0367973 -1.2969005 0.49446937
2.0197492 -1.3035306 0.49225187
2.0092537 -1.3142903 0.49164709
1.9970701 -1.3238877 0.49063915
1.9832181 -1.3322928 0.48922801
1.9766252 -1.3455391 0.48963118
1.9618821 -1.3531927 0.48801845
1.9567534 -1.3674495 0.48882481
1.934737 -1.3698076 0.48539779
1.9254998 -1.3810821 0.48519617
1.9106506 -1.3882644 0.48358345
1.8965749 -1.3958972 0.48217231
1.8942558 -1.412192 0.48378506
1.8566355 -1.4019475 0.4763262
1.8511103 -1.4156935 0.47713256
1.8803301 -1.4564172 0.48701051
1.9160538 -1.5029927 0.49870276
1.8899239 -1.5013167 0.49426776
1.8516773 -1.4895532 0.48660731
1.8462995 -1.50398 0.48761529
1.8355255 -1.5140339 0.48721209
1.8126702 -1.5139651 0.48358345
1.7607197 -1.4890046 0.47209278
1.7850277 -1.5284501 0.48116437
1.785236 -1.5477157 0.48378506
1.8044125 -1.583842 0.49164709
1.7844111 -1.5857739 0.48882481
1.7812001 -1.6025896 0.49063915
1.7937788 -1.6339374 0.49688846
1.8492385 -1.7053424 0.51523322
1.8337286 -1.7119778 0.51382208
1.8246131 -1.7245429 0.51422524
1.7885219 -1.7113267 0.50696802
17.896732 -17.33816 5.126018
17.769032 -17.427069 5.1199703
17.10433 -16.9823 4.9582944
17.228987 -17.53113 5.056469
17.006454 -17.734875 5.0546546
16.921564 -17.864491 5.0619121
8.1965437 -10.039604 2.6649976
8.087451 -10.030994 2.6494749
8.0660143 -10.131003 2.66278
5.4948745 -7.3536253 1.886857
34.217514 -46.384712 11.860764
5.2602491 -7.3167334 1.8521833
5.2661562 -7.5179172 1.8866554
5.0400171 -7.289855 1.8215415
23.415831 -34.317963 8.5482235
22.617813 -33.589233 8.3319159
5.6714749 -8.5349197 2.106591
5.6055722 -8.5490808 2.1015513
23.387077 -36.641628 8.9441471
5.498929 -8.7328691 2.1215086
4.7336144 -7.6207314 1.8439182
21.426905 -34.973747 8.4391623
20.970284 -34.704685 8.3430042
4.8688068 -8.170186 1.9549947
4.7942691 -8.1585283 1.9451168
1.3717268 -2.3671832 0.56059116
1.3498889 -2.362798 0.5575673
1.3344043 -2.3693292 0.55716407
1.3226935 -2.382611 0.55837363
1.3136901 -2.4009933 0.56079274
1.3035811 -2.4176304 0.56280863
1.2923983 -2.4325037 0.56442136
1.2819903 -2.4490657 0.5664373
1.2570642 -2.4377334 0.5620023
1.2332129 -2.4279344 0.55797046
1.214787 -2.4284475 0.55635774
1.1920739 -2.4200392 0.55272913
1.1772023 -2.4273081 0.55272913
1.1631304 -2.4362533 0.5531323
1.1510755 -2.4495499 0.55454344
1.1376679 -2.4601228 0.55534977
1.1213347 -2.4643824 0.55474502
1.104992 -2.4685345 0.55414021
1.0890354 -2.4734752 0.55373704
1.0746161 -2.4819086 0.55414021
1.0616688 -2.4938629 0.55534977
1.0497493 -2.5084622 0.55716407
1.0365729 -2.5202913 0.55837363
1.02219 -2.5293286 0.55897844
1.009542 -2.542836 0.56059116
0.99818963 -2.5599334 0.56301022
0.99366856 -2.5952818 0.56946117
0.98358279 -2.6169167 0.5728882
0.98479158 -2.66977 0.58316934
0.99105376 -2.7383924 0.59687752
0.96637005 -2.7222683 0.59203929
0.94514114 -2.7151959 0.58921701
11.378837 -33.352982 7.2505832
9.8282185 -30.007914 6.4964323
9.6938648 -30.22341 6.530098
8.8782816 -28.275972 6.0972824
8.6775751 -28.241907 6.0783329
6.5278497 -22.212635 4.7625499
6.4255018 -22.37089 4.78795
6.2571568 -22.299559 4.7643642
6.2747622 -23.465662 4.996798
5.8204203 -22.314283 4.7438016
5.9450536 -23.378574 4.962326
5.7430754 -23.178831 4.9123316
5.3388667 -22.128181 4.682518
5.722147 -24.37179 5.1500072
5.0686622 -22.199671 4.6841307
0.9648875 -4.3481255 0.91418141
5.0889821 -23.62081 4.9705915
4.657577 -22.281538 4.682518
4.5904088 -22.653362 4.7546878
4.7346339 -24.124729 5.057477
4.4816365 -23.600981 4.9417639
4.5356541 -24.711836 5.1685534
4.1109667 -24.056974 5.020586
0.78449619 -4.7658792 0.99159229
3.6834538 -23.271688 4.8468146
3.7930033 -24.954571 5.192543
3.4145451 -23.431446 4.8710055
0.62810558 -4.7139125 0.97627139
0.59768927 -4.7060175 0.97385228
0.4712387 -3.9015255 0.80633032
2.8705871 -25.065594 5.1901236
2.5408206 -23.458479 4.8538704
2.4100659 -23.603222 4.880682
2.2039475 -22.978943 4.7486401
0.41601685 -4.6350775 0.95530593
0.35055226 -4.194407 0.86378372
0.35774621 -4.6222553 0.95167726
0.33779338 -4.7425804 0.97606975
0.33747706 -5.1873288 1.0673904
1.3712822 -23.292849 4.7998438
0.31168798 -5.9099917 1.2155596
0.26580754 -5.7053485 1.1730239
0.22589122 -5.5855169 1.1480267
1.0846457 -31.648907 6.5151801
0.89111966 -31.679441 6.5202198
0.11143867 -5.0609217 1.0393692
0.081081666 -5.1055808 1.0484408
0.050104719 -5.1422205 1.0558997
0.017904364 -4.9612308 1.0186055
-0.012027817 -4.7624154 0.97768247
-0.071762264 -4.8490725 0.99562407
-0.10519077 -5.0238276 1.0317088
-0.13585514 -5.0172129 1.0304993
-0.16614929 -5.0016007 1.0274755
-0.19540869 -4.9642749 1.0200166
-0.22443913 -4.9316716 1.0135657
-0.32640043 -6.3172379 1.2994214
-0.32849947 -5.6814795 1.1687906
-2.2005301 -34.380791 7.0881009
-0.29685739 -4.2329149 0.87083936
-0.31842557 -4.1733928 0.85894555
-0.35860643 -4.3480439 0.89543343
-3.1266897 -35.253044 7.2816281
-2.906976 -30.638573 6.3317323
-3.5828025 -35.446877 7.3302116
-0.57647681 -5.3751173 1.1101277
-0.61353391 -5.4074883 1.1175865
-0.64553785 -5.3938966 1.1155705
-0.53285652 -4.2324286 0.87547594
-0.55599254 -4.2077169 0.87104094
-0.60946703 -4.4040909 0.91256869
-0.68304354 -4.7221012 0.97949684
-0.82969689 -5.4974613 1.1417774
-0.65269768 -4.1521664 0.86257416
-0.79197675 -4.8440566 1.0077195
-0.78658772 -4.6324587 0.96457911
-0.94125164 -5.3442559 1.114361
-0.97226727 -5.3287444 1.1123451
-1.0174862 -5.3890877 1.1262549
-1.0931309 -5.6009645 1.172016
-1.1654124 -5.7823424 1.2115278
-0.85923845 -4.1323996 0.86620277
-1.2771406 -5.9581895 1.2516444
-0.93058103 -4.2152743 0.88595867
-0.95838141 -4.218081 0.88777298
-0.97220796 -4.1606178 0.87688708
-1.4751338 -6.1421957 1.2976071
-1.0302298 -4.1769028 0.88293481
-1.0486267 -4.1420178 0.87688708
-1.0718056 -4.1269736 0.87507278
-1.0983684 -4.1250515 0.87608075
-1.113344 -4.0804377 0.86801714
-11.469114 -40.084835 8.5786638
-11.33341 -38.710854 8.2992582
-1.1465566 -3.8295081 0.82024008
-11.916555 -38.924755 8.3758631
-12.290581 -39.283707 8.4691992
-1.478371 -4.6259723 0.99703521
-1.5118942 -4.6326432 1.0004623
-1.5316216 -4.5972605 0.99481773
-13.345231 -39.24752 8.5294752
-13.319365 -38.396835 8.362155
-13.661535 -38.616337 8.4280748
-13.49676 -37.418774 8.1845531
-19.00304 -51.688419 11.33199
-24.469469 -49.04842 11.278973
-23.166346 -45.731739 10.548609
-27.881754 -53.404186 12.396793
-25.130587 -47.423141 11.043715
-25.408106 -47.2439 11.038072
-24.370794 -43.381474 10.238562
-28.859568 -50.641487 11.994015
-29.205536 -50.52536 12.008731
-26.471064 -43.305809 10.443782
-26.920481 -43.439793 10.515749
-27.07032 -43.08884 10.470795
-27.297895 -42.864925 10.456885
-32.616337 -49.193665 12.145611
-38.207115 -51.903145 13.262222
-38.26199 -51.31517 13.171708
-38.534222 -51.023937 13.157395
-38.919769 -50.882229 13.182191
-54.29044 -60.332302 16.702168
-54.633888 -59.969807 16.694305
-16.34123 -17.717812 4.9582944
-16.414207 -17.579268 4.9476099
-24.757395 -26.190487 7.4150815
-24.191671 -25.27949 7.198976
-23.700239 -24.46368 7.0078678
-23.118113 -23.571665 6.7927704
-22.62879 -22.791307 6.6077104
-22.154392 -22.041353 6.4295039
-21.792521 -21.416872 6.2861729
-21.402054 -20.776531 6.1365924
-16.868847 -16.17601 4.8077059
-20.487053 -19.405666 5.8053789
-20.565687 -19.242119 5.7940898
-17.069506 -15.775681 4.7812977
-20.818352 -19.004807 5.7991295
-16.530025 -14.905181 4.5784974
-17.182911 -15.303774 4.7333188
-16.605055 -14.607405 4.5492668
-21.450018 -18.637215 5.8458986
-17.128695 -14.69914 4.6430063
-17.573484 -14.894574 4.7387619
-21.898338 -18.330393 5.8751292
-22.023233 -18.206291 5.8785563
-22.138327 -18.073914 5.8795643
-16.946262 -13.6627 4.4777017
-16.958513 -13.501727 4.4589539
-16.762297 -13.178279 4.3859782
-17.054064 -13.239148 4.4410124
-18.493826 -14.175822 4.7933931
-17.164478 -12.990451 4.4279089
-23.425947 -17.504158 6.016243
-18.878527 -13.926622 4.8258491
-18.341297 -13.357314 4.6673989
-18.174782 -13.06614 4.6045027
-24.197533 -17.171696 6.1043382
-24.315277 -17.031891 6.1075635
-18.62974 -12.879779 4.6589322
-18.273943 -12.468778 4.5506778
-19.185305 -12.918805 4.7579131
-18.48105 -12.280452 4.5643859
-19.000008 -12.457909 4.6736484
-19.062111 -12.332047 4.6702213
-25.309839 -16.154457 6.1773138
-25.387764 -15.985808 6.1722741
-25.715014 -15.972366 6.2279134
-25.896891 -15.865961 6.2482738
-25.980341 -15.698657 6.2450485
-26.146854 -15.581066 6.261982
-26.366947 -15.493779 6.2918177
-26.612373 -15.419106 6.3277006
-26.754108 -15.282731 6.3389897
-26.911388 -15.154327 6.3541088
-27.09379 -15.038829 6.3752761
