# .PCD v0.7 - Point Cloud Data file format
VERSION 0.7
FIELDS x y z
SIZE 4 4 4
TYPE F F F
COUNT 1 1 1
WIDTH 1427
HEIGHT 1
VIEWPOINT 0 0 0 1 0 0 0
POINTS 1427
DATA ascii
1.8071798 -1.8448356 -0.7108869
1.7824233 -1.8420353 -0.70555562
1.7830731 -1.8654799 -0.71035379
1.7616692 -1.8658724 -0.70635527
1.7672765 -1.8949748 -0.71328598
1.7621454 -1.9128723 -0.71595168
1.765941 -1.9407591 -0.72234923
1.7031081 -1.8949226 -0.70129055
1.7036049 -1.9190332 -0.70635527
1.6937039 -1.9316245 -0.70715499
1.6780344 -1.9376086 -0.70555562
1.686159 -1.9713084 -0.7140857
1.6758972 -1.9838263 -0.71488541
1.6420852 -1.9681674 -0.70555562
1.6471367 -1.9990354 -0.71301943
1.6311904 -2.0046184 -0.71142006
1.6152377 -2.0100813 -0.70982063
1.6070669 -2.0252399 -0.71168661
1.5797504 -2.0160944 -0.70502245
1.5708885 -2.0303237 -0.70662189
1.5572311 -2.0383923 -0.70608872
1.5406322 -2.0425224 -0.70422274
1.5344019 -2.060441 -0.70715499
1.529722 -2.0806894 -0.7108869
1.4988127 -2.0650737 -0.70235682
1.4760109 -2.0601277 -0.69755864
1.4683503 -2.0762281 -0.69995773
1.4577895 -2.0883603 -0.701024
1.4427612 -2.0940907 -0.69995773
1.4347616 -2.1100779 -0.70235682
1.4260831 -2.1252446 -0.70448935
1.3938627 -2.1050227 -0.69489294
1.4136 -2.1635647 -0.71142006
1.3935105 -2.1616659 -0.7079547
1.3771175 -2.1652956 -0.70635527
1.3484411 -2.1492102 -0.6983583
1.3468924 -2.1762948 -0.70448935
1.3279907 -2.1754682 -0.7015571
1.3101437 -2.1761436 -0.69915801
1.2928309 -2.1775112 -0.69702548
1.277985 -2.1829076 -0.69622582
1.2645669 -2.1907079 -0.69622582
1.256344 -2.2076409 -0.69915801
1.2460748 -2.2211926 -0.701024
1.22263 -2.2110829 -0.69542611
1.2237958 -2.2456264 -0.70395619
1.1881099 -2.2123332 -0.69116104
1.1812733 -2.2323608 -0.69515955
1.1564171 -2.2181997 -0.6884954
1.1529095 -2.2449739 -0.69462639
1.1282394 -2.2305033 -0.68796229
1.1175396 -2.2434235 -0.68982822
1.1084211 -2.2597573 -0.69276047
1.0957917 -2.26912 -0.69356012
1.0768836 -2.2653546 -0.69036138
1.0711304 -2.2893803 -0.69569266
1.0510181 -2.2827768 -0.6916942
1.0274489 -2.2681112 -0.6852966
1.0095905 -2.2655687 -0.68263096
0.99644393 -2.2734864 -0.68316406
0.98285663 -2.2804427 -0.68343067
0.97110122 -2.2917554 -0.68503004
0.95665056 -2.2967811 -0.68476349
0.94253975 -2.3026078 -0.68476349
0.93486524 -2.3244441 -0.68956167
0.92837411 -2.349858 -0.69542611
0.90975571 -2.344727 -0.6922273
0.89638066 -2.3529673 -0.69302702
0.87585145 -2.3421726 -0.68822885
0.86909831 -2.3683145 -0.69435984
0.8454116 -2.3482101 -0.68689603
0.833233 -2.3597152 -0.68876195
0.79824853 -2.3055809 -0.67143518
0.7977106 -2.3505952 -0.68316406
0.77962422 -2.3444705 -0.67996532
0.76999873 -2.3638732 -0.68423033
0.7461108 -2.3391688 -0.67570025
0.73748672 -2.3621037 -0.68103158
0.72776455 -2.3822548 -0.68556321
0.71147865 -2.3811345 -0.68396378
0.69199204 -2.3688021 -0.6791656
0.67665088 -2.370223 -0.67836589
0.66287112 -2.3771155 -0.6791656
0.65510613 -2.4062481 -0.68636286
0.63290823 -2.3822763 -0.67836589
0.61610407 -2.3777177 -0.6759668
0.60574967 -2.3982742 -0.68076497
0.58319646 -2.3701243 -0.67170179
0.57156038 -2.3858433 -0.67516714
0.55734771 -2.3911827 -0.67570025
0.54117477 -2.3879776 -0.67383426
0.52526933 -2.3856053 -0.67223489
0.5067957 -2.3708751 -0.66717017
0.49595475 -2.3918717 -0.67223489
0.48013046 -2.3892002 -0.67063552
0.46546155 -2.392101 -0.67063552
0.45362595 -2.4100673 -0.67490053
0.44107017 -2.425133 -0.67836589
0.4270142 -2.4325404 -0.67969871
0.41272321 -2.438916 -0.68076497
0.39806026 -2.443305 -0.68129814
0.38216674 -2.4399881 -0.67969871
0.35544655 -2.3641312 -0.65784037
0.34793809 -2.4149208 -0.67143518
0.33311388 -2.4170103 -0.67143518
0.31903082 -2.4247422 -0.67303461
0.3035481 -2.4218726 -0.67170179
0.29232636 -2.4543154 -0.68023187
0.27736947 -2.4570208 -0.68049842
0.26126695 -2.4490924 -0.67783278
0.24584968 -2.4468136 -0.67676651
0.23010878 -2.4405994 -0.67463398
0.21445343 -2.4342844 -0.67250144
0.19825561 -2.4201849 -0.66823643
0.18471023 -2.4386549 -0.67303461
0.16994381 -2.442627 -0.67383426
0.15647508 -2.4676709 -0.68049842
0.13946138 -2.4358683 -0.67143518
0.12480702 -2.4424534 -0.67303461
0.11029293 -2.4537647 -0.6759668
0.094601385 -2.4380226 -0.67143518
0.0799537 -2.4481902 -0.67410088
0.065210216 -2.459233 -0.67703307
0.049924143 -2.4499507 -0.67436743
0.034768056 -2.4415374 -0.67196834
0.020140661 -2.4860389 -0.68423033
0.0047897208 -2.4340696 -0.66983581
-0.010116654 -2.4273067 -0.66796982
-0.025120581 -2.4378002 -0.67090207
-0.040173892 -2.4433823 -0.67250144
-0.054618787 -2.4190006 -0.66583735
-0.069793805 -2.430181 -0.66903609
-0.085007004 -2.4383759 -0.67143518
-0.09949182 -2.4262524 -0.66823643
-0.11433164 -2.4246335 -0.66796982
-0.12930958 -2.4258113 -0.66850299
-0.14373311 -2.4172752 -0.66637045
-0.15837286 -2.4134626 -0.66557074
-0.17345509 -2.4162908 -0.666637
-0.188728 -2.4209464 -0.66823643
-0.2035791 -2.4197428 -0.66823643
-0.21955098 -2.4309268 -0.67170179
-0.23511158 -2.4362493 -0.67356771
-0.24719697 -2.4069567 -0.66583735
-0.25976753 -2.3852737 -0.66023946
-0.28002545 -2.4324663 -0.67383426
-0.29517794 -2.432616 -0.67436743
-0.30619222 -2.4001653 -0.66583735
-0.32193708 -2.4058836 -0.66796982
-0.33548906 -2.3952727 -0.66557074
-0.34864369 -2.382679 -0.66263855
-0.3663125 -2.4005029 -0.66823643
-0.38118616 -2.3991621 -0.66850299
-0.39684308 -2.4024835 -0.67010236
-0.40945777 -2.3876541 -0.666637
-0.42882797 -2.4116664 -0.67410088
-0.43348733 -2.3540139 -0.65864003
-0.44900599 -2.3569903 -0.66023946
-0.46793041 -2.3768864 -0.666637
-0.4842346 -2.3824708 -0.66903609
-0.50042701 -2.387001 -0.67116863
-0.50875074 -2.354682 -0.6629051
-0.52905321 -2.3778579 -0.67036897
-0.5442791 -2.3773854 -0.67116863
-0.55907714 -2.3749392 -0.67143518
-0.57409245 -2.3733375 -0.67196834
-0.58980644 -2.3744473 -0.67330116
-0.60603195 -2.377321 -0.67516714
-0.61865622 -2.3660982 -0.67303461
-0.62991744 -2.3501554 -0.66956925
-0.64381522 -2.3443875 -0.66903609
-0.65662175 -2.3348262 -0.66743672
-0.67173582 -2.3335319 -0.66823643
-0.68141055 -2.3136492 -0.66370481
-0.69893092 -2.3204987 -0.66690361
-0.71599329 -2.3253775 -0.66956925
-0.72474998 -2.3034728 -0.66450447
-0.73739517 -2.2943947 -0.66317165
-0.76017773 -2.3163831 -0.67090207
-0.77590775 -2.3162444 -0.67223489
-0.79197645 -2.3169119 -0.67383426
-0.79951161 -2.2928979 -0.66823643
-0.81905681 -2.3033862 -0.67276806
-0.82134575 -2.2656984 -0.66317165
-0.84625882 -2.2904496 -0.67196834
-0.85282391 -2.2653704 -0.6661039
-0.86843395 -2.2645943 -0.66743672
-0.89879674 -2.3014171 -0.67996532
-0.90613282 -2.2788429 -0.67490053
-0.91756654 -2.2669864 -0.67303461
-0.92264676 -2.2399266 -0.666637
-0.94345361 -2.2511115 -0.67170179
-0.95346749 -2.2364144 -0.66903609
-0.9660213 -2.2278693 -0.66823643
-0.98083997 -2.2245457 -0.66903609
-0.9917106 -2.2123291 -0.66717017
-1.0156597 -2.2290049 -0.67410088
-1.0264816 -2.2166092 -0.67223489
-1.0437574 -2.2181175 -0.67463398
-1.0606744 -2.2186275 -0.67676651
-1.0767945 -2.2172792 -0.67836589
-1.0937909 -2.217545 -0.68049842
-1.0991737 -2.1944194 -0.6754337
-1.1126176 -2.1876338 -0.6754337
-1.1277889 -2.184191 -0.67649996
-1.1326666 -2.1610112 -0.67143518
-1.1363969 -2.136153 -0.66583735
-1.1494826 -2.1291399 -0.66583735
-1.1639147 -2.1245823 -0.666637
-1.1708405 -2.1064498 -0.66317165
-1.1827964 -2.0975471 -0.66263855
-1.1999522 -2.0977793 -0.66503763
-1.2098988 -2.0853753 -0.66343826
-1.2265826 -2.0845573 -0.66557074
-1.24182 -2.0811298 -0.66690361
-1.2640479 -2.0891378 -0.67196834
-1.2692815 -2.06902 -0.66796982
-1.291117 -2.0759237 -0.67276806
-1.2904629 -2.0467663 -0.66583735
-1.3102651 -2.0501785 -0.66956925
-1.3291092 -2.0518069 -0.67276806
-1.3205119 -2.0113876 -0.66210538
-1.35312 -2.0337374 -0.67223489
-1.37204 -2.0349855 -0.6754337
-1.3752563 -2.0130007 -0.67090207
-1.3919711 -2.0108635 -0.67303461
-1.3954272 -1.9896603 -0.66876954
-1.4115176 -1.9865599 -0.67063552
-1.411291 -1.9606537 -0.66477108
-1.441469 -1.9768759 -0.67330116
-1.4575807 -1.9734205 -0.67516714
-1.4713942 -1.9667549 -0.6759668
-1.4811056 -1.954617 -0.67490053
-1.497766 -1.9516087 -0.67703307
-1.4866419 -1.9127059 -0.666637
-1.5180253 -1.9285381 -0.6754337
-1.5244222 -1.9124049 -0.67303461
-1.5270458 -1.8917667 -0.66903609
-1.5550963 -1.902508 -0.67623341
-1.5636675 -1.8892182 -0.67490053
-1.5616084 -1.8633384 -0.66903609
-1.5711411 -1.851517 -0.66823643
-1.5881259 -1.8484205 -0.67063552
-1.5956417 -1.8342786 -0.66903609
-1.6132377 -1.8316855 -0.67170179
-1.6193141 -1.815998 -0.66956925
-1.6265508 -1.8017359 -0.66796982
-1.6265202 -1.7796284 -0.66343826
-1.6465744 -1.7795178 -0.66717017
-1.6561444 -1.7679745 -0.666637
-1.6629815 -1.7535837 -0.66503763
-1.679718 -1.7496034 -0.66743672
-1.6884063 -1.7371907 -0.666637
-1.7308084 -1.7590846 -0.6791656
-1.7640178 -1.7709633 -0.68796229
-1.7810109 -1.7662135 -0.69036138
-1.7491225 -1.7134403 -0.67383426
-1.7589102 -1.7020055 -0.67356771
-1.749113 -1.6718704 -0.66583735
-1.7957842 -1.6955096 -0.67969871
-1.7758422 -1.6561958 -0.66823643
-1.783844 -1.6433094 -0.66743672
-1.8088653 -1.6459532 -0.67303461
-1.8060263 -1.6232277 -0.66823643
-1.8310901 -1.6255511 -0.67383426
-1.8453784 -1.6180973 -0.6754337
-1.8436137 -1.5966495 -0.67116863
-1.8731534 -1.6022202 -0.67836589
-1.8593867 -1.5707958 -0.66983581
-1.8601084 -1.5519488 -0.666637
-1.8695959 -1.5405061 -0.666637
-1.8685459 -1.5204901 -0.6629051
-1.8755862 -1.5071853 -0.66210538
-1.8893292 -1.4992428 -0.66370481
-1.8931818 -1.483461 -0.66183883
-1.9045355 -1.4735861 -0.66263855
-1.9319243 -1.4759129 -0.66903609
-1.9286315 -1.454746 -0.66477108
-1.933656 -1.4400069 -0.66343826
-1.9572107 -1.4389608 -0.66850299
-1.9589822 -1.4218299 -0.6661039
-1.9770721 -1.4165182 -0.6693027
-1.9833657 -1.4026911 -0.66850299
-2.0124846 -1.4048365 -0.6754337
-2.0115418 -1.3859007 -0.67223489
-2.0192106 -1.3729903 -0.67196834
-2.0035853 -1.3444662 -0.66397136
-2.0254595 -1.3411916 -0.66850299
-2.012671 -1.315034 -0.66157228
-2.0190816 -1.3016156 -0.66103917
-2.0205235 -1.2850649 -0.65890664
-2.027554 -1.272131 -0.65864003
-2.0525334 -1.2703159 -0.66423792
-2.0668709 -1.2617147 -0.66637045
-2.0679674 -1.2450324 -0.66423792
-2.0730815 -1.2308444 -0.66343826
-2.0830903 -1.2195616 -0.66423792
-2.0579777 -1.1879689 -0.65384185
-2.0962238 -1.1929538 -0.66370481
-2.090054 -1.1725256 -0.65943974
-2.1022704 -1.1624771 -0.66103917
-2.1169808 -1.153706 -0.66343826
-2.1214724 -1.1393269 -0.66263855
-2.1412024 -1.1330488 -0.666637
-2.1429863 -1.1172166 -0.66503763
-2.1377971 -1.0978835 -0.66130573
-2.1462138 -1.0856154 -0.66183883
-2.1450696 -1.0685592 -0.65943974
-2.1420667 -1.0507092 -0.65650755
-2.1588891 -1.0425745 -0.65970629
-2.171339 -1.032204 -0.66157228
-2.1994576 -1.0290703 -0.66823643
-2.2144856 -1.0195851 -0.67090207
-2.2163103 -1.0039902 -0.66956925
-2.2136247 -0.98645008 -0.66690361
-2.2152219 -0.97091496 -0.66557074
-2.2308743 -0.96149945 -0.66850299
-2.2234199 -0.94215387 -0.66450447
-2.2282691 -0.928123 -0.66423792
-2.231246 -0.91333812 -0.66343826
-2.2287598 -0.89639437 -0.66103917
-2.2270467 -0.8798697 -0.65890664
-2.2476795 -0.87211335 -0.66343826
-2.2403784 -0.85350323 -0.65970629
-2.2852964 -0.85458982 -0.67143518
-2.284163 -0.83822787 -0.66956925
-2.2956114 -0.8264814 -0.67143518
-2.3142724 -0.81719238 -0.6754337
-2.3028483 -0.79730284 -0.67063552
-2.2912681 -0.77758431 -0.66583735
-2.3042276 -0.76624697 -0.66823643
-2.3116353 -0.75298935 -0.66903609
-2.3143754 -0.73820573 -0.66850299
-2.2931001 -0.71595109 -0.66103917
-2.3343215 -0.71312702 -0.67170179
-2.3155658 -0.69189471 -0.66503763
-2.3688021 -0.69199204 -0.6791656
-2.3359306 -0.66686529 -0.66850299
-2.3826859 -0.66442382 -0.68076497
-2.368118 -0.64472973 -0.6754337
-2.3599195 -0.6269713 -0.67196834
-2.3646553 -0.61272097 -0.67223489
-2.3711739 -0.59890789 -0.67303461
-2.3673165 -0.58250594 -0.67090207
-2.3839688 -0.5711115 -0.67463398
-2.3789799 -0.55450487 -0.67223489
-2.3729374 -0.53776813 -0.66956925
-2.3790164 -0.52381933 -0.67036897
-2.3793581 -0.50860798 -0.66956925
-2.36639 -0.49067414 -0.66503763
-2.3806956 -0.4784224 -0.66823643
-2.3750715 -0.46214989 -0.66583735
-2.4024897 -0.45220056 -0.67276806
-2.3938398 -0.43538234 -0.66956925
-2.392669 -0.42001969 -0.66850299
-2.4056547 -0.40709841 -0.67143518
-2.4100099 -0.39263967 -0.67196834
-2.4152303 -0.37829185 -0.67276806
-2.4337091 -0.36589935 -0.67729962
-2.4340005 -0.35068485 -0.67676651
-2.4322872 -0.3352176 -0.67570025
-2.427609 -0.31940767 -0.67383426
-2.4209161 -0.30342835 -0.67143518
-2.4294317 -0.28936535 -0.67330116
-2.4359503 -0.27499324 -0.67463398
-2.4682603 -0.26330957 -0.68316406
-2.4583216 -0.24700467 -0.67996532
-2.4741843 -0.23327149 -0.68396378
-2.4602075 -0.2167342 -0.67969871
-2.4614909 -0.20163459 -0.67969871
-2.477098 -0.18761763 -0.68369722
-2.4839714 -0.17281564 -0.6852966
-2.4676709 -0.15647508 -0.68049842
-2.4849427 -0.1422655 -0.68503004
-2.4626675 -0.12583764 -0.6786325
-2.4884272 -0.11184706 -0.68556321
-2.4524691 -0.095160306 -0.6754337
-2.4770894 -0.080894239 -0.68209785
-2.4785025 -0.065719016 -0.6823644
-2.4788592 -0.050509974 -0.6823644
-2.4877958 -0.035421561 -0.68476349
-2.4927855 -0.02019457 -0.68609631
-2.4774413 -0.0048701498 -0.68183124
-2.5207961 0.010516932 -0.69382674
-2.4541843 0.025291266 -0.6754337
-2.4809661 0.040796086 -0.68289751
-2.4758511 0.055908907 -0.68156469
-2.4667907 0.070849381 -0.6791656
-2.4701624 0.08611875 -0.68023187
-2.4840326 0.10186775 -0.68423033
-2.4621804 0.11610641 -0.67836589
-2.4537222 0.13080058 -0.67623341
-2.4586461 0.14619778 -0.67783278
-2.4557793 0.16115455 -0.67729962
-2.4537828 0.17615078 -0.67703307
-2.4622648 0.19195376 -0.67969871
-2.4629614 0.20722014 -0.68023187
-2.457804 0.22198148 -0.6791656
-2.4563956 0.2370581 -0.6791656
-2.4644825 0.25311154 -0.68183124
-2.4533017 0.26718402 -0.6791656
-2.4688506 0.28421816 -0.68396378
-2.4536653 0.2977345 -0.68023187
-2.4374514 0.31095317 -0.67623341
-2.4574692 0.32884586 -0.6823644
-2.4515872 0.34338322 -0.68129814
-2.4503877 0.35855907 -0.68156469
-2.4671969 0.37649763 -0.68689603
-2.487685 0.39526126 -0.69329357
-2.4547837 0.40548813 -0.68476349
-2.4351506 0.4176085 -0.67996532
-2.4524696 0.43608809 -0.68556321
-2.4364777 0.4486827 -0.68183124
-2.4526141 0.46723366 -0.68716258
-2.4563205 0.48357776 -0.6890285
-2.4636965 0.50075322 -0.69196075
-2.4634073 0.51645434 -0.69276047
-2.4611342 0.53176349 -0.69302702
-2.4314828 0.54099065 -0.68556321
-2.4450283 0.55977333 -0.69036138
-2.4546816 0.57785863 -0.69409329
-2.4445324 0.59132242 -0.6922273
-2.442729 0.60677558 -0.69276047
-2.4417615 0.62246698 -0.69356012
-2.4313691 0.63573027 -0.6916942
-2.4255607 0.6501376 -0.69116104
-2.4066558 0.66092294 -0.68689603
-2.4034829 0.67593849 -0.68716258
-2.3891022 0.68773931 -0.68423033
-2.3876109 0.70320278 -0.68503004
-2.418319 0.72840637 -0.69515955
-2.3778808 0.73216575 -0.68476349
-2.3788595 0.74847865 -0.68636286
-2.3824801 0.76571608 -0.68876195
-2.38781 0.78362721 -0.6916942
-2.3838706 0.7985701 -0.69196075
-2.3944294 0.81848359 -0.69649237
-2.3948226 0.83506477 -0.69809175
-2.3823888 0.84715927 -0.69595921
-2.378052 0.86208999 -0.69622582
-2.3844702 0.88100892 -0.69969118
-2.3465483 0.88339484 -0.69009477
-2.3527822 0.902264 -0.69356012
-2.3238606 0.9075647 -0.68662941
-2.3209348 0.92287529 -0.68742913
-2.3295221 0.94288623 -0.6916942
-2.3326044 0.96083397 -0.69435984
-2.3106654 0.96842086 -0.68956167
-2.3259571 0.99165487 -0.69595921
-2.3207128 1.0062915 -0.69622582
-2.3224316 1.0240127 -0.69862491
-2.2985153 1.0303566 -0.69329357
-2.3307385 1.062029 -0.70502245
-2.2944438 1.0625365 -0.69595921
-2.3035777 1.0839833 -0.70075744
-2.2907965 1.0951867 -0.69889146
-2.2901022 1.1121701 -0.70075744
-2.2719984 1.1206572 -0.69729209
-2.2616327 1.1328498 -0.69622582
-2.2589343 1.1488907 -0.69755864
-2.236428 1.1547685 -0.69276047
-2.2540553 1.1814477 -0.70049083
-2.2493162 1.1966144 -0.70129055
-2.2580445 1.2190949 -0.70635527
-2.2522123 1.2338535 -0.70688844
-2.2328057 1.2410926 -0.70315653
-2.236062 1.2609252 -0.70662189
-2.2098787 1.2640914 -0.70075744
-2.1937447 1.2727894 -0.69809175
-2.2000141 1.2945369 -0.70262337
-2.1779604 1.2996141 -0.69809175
-2.2012784 1.3319168 -0.70822126
-2.1667771 1.3292677 -0.69969118
-2.1684005 1.3486472 -0.70288992
-2.1388884 1.3485595 -0.69595921
-2.150063 1.3741169 -0.70235682
-2.1424 1.3878078 -0.70262337
-2.1233711 1.3940495 -0.69915801
-2.1155796 1.407586 -0.69942456
-2.1284785 1.4350907 -0.70662189
-2.1061049 1.4388794 -0.70209026
-2.1210086 1.4682348 -0.71008718
-2.1103818 1.4801145 -0.70955408
-2.103617 1.4947106 -0.71035379
-2.0936239 1.5070269 -0.71008718
-2.0905671 1.5243883 -0.71221972
-2.0710967 1.5297419 -0.70875436
-2.0608997 1.5418437 -0.70848781
-2.0475597 1.5515492 -0.70715499
-2.0372367 1.5634966 -0.70688844
-2.0283656 1.5765591 -0.70715499
-2.0141101 1.5853978 -0.70555562
-2.033735 1.6211597 -0.71595168
-1.996753 1.6118112 -0.70635527
-1.9733944 1.6130515 -0.7015571
-1.9887018 1.646027 -0.71062034
-1.9564058 1.6396234 -0.70262337
-1.9521869 1.6565863 -0.7047559
-1.9661077 1.6892637 -0.71355253
-1.9491618 1.6956017 -0.71115345
-1.9314889 1.7011585 -0.70848781
-1.910225 1.7033548 -0.70448935
-1.8968761 1.71246 -0.70342308
-1.8856215 1.7234166 -0.70315653
-1.838936 1.7015662 -0.68956167
-1.8052509 1.6910709 -0.68076497
-1.7759604 1.684207 -0.67356771
-1.7801918 1.7090913 -0.6791656
-1.7441015 1.6951246 -0.6693027
-1.7151201 1.6875409 -0.66210538
-1.7101954 1.703475 -0.66423792
-1.6874962 1.7016166 -0.65943974
-1.6729772 1.7078074 -0.65784037
-1.6604564 1.7159623 -0.65704066
-1.6538916 1.7302992 -0.65864003
-1.6399355 1.7369103 -0.65730721
-1.6312189 1.7490549 -0.65810692
-1.6171916 1.7554861 -0.6567741
-1.5973095 1.7553948 -0.6530422
-1.5839318 1.762295 -0.65197593
-1.5762876 1.7755851 -0.65330875
-1.5634571 1.7830492 -0.65250903
-1.5688902 1.8115536 -0.65943974
-1.5658885 1.8306684 -0.6629051
-1.5484073 1.8328788 -0.66023946
-1.5297234 1.8334635 -0.65704066
-1.5325395 1.8599252 -0.66317165
-1.5040675 1.8483593 -0.65570784
-1.4884725 1.8522937 -0.65384185
-1.480074 1.8651673 -0.65517473
-1.4632522 1.8673853 -0.65277559
-1.447049 1.8702296 -0.65064311
-1.4349613 1.8783073 -0.6503765
-1.408321 1.8670689 -0.64344579
-1.3922337 1.8694904 -0.64131331
-1.3755991 1.8710085 -0.63891423
-1.3612627 1.8755132 -0.63758135
-1.3469229 1.8799129 -0.63624853
-1.332024 1.8834202 -0.63464916
-1.3171329 1.8868157 -0.63304979
-1.3006102 1.8877182 -0.6306507
-1.284668 1.8892865 -0.62851816
-1.2639233 1.8835269 -0.62398654
-1.2401055 1.8727622 -0.61785555
-1.2201577 1.8674256 -0.61359048
-1.2044995 1.8683959 -0.61145794
-1.1883582 1.8684316 -0.60905886
-1.1691891 1.8634406 -0.6050604
-1.1435336 1.8476305 -0.59759653
-1.1286607 1.8488533 -0.5957306
-1.1237564 1.8664789 -0.59919596
-1.1132667 1.8749967 -0.59972906
-1.1032015 1.8842876 -0.60052878
-1.0930642 1.8935256 -0.60132843
-1.0790422 1.8960083 -0.59999561
-1.0683311 1.9042747 -0.60052878
-1.0524298 1.9032025 -0.59812969
-1.0365821 1.902007 -0.5957306
-1.0217007 1.9023875 -0.59386462
-1.0059524 1.9009532 -0.59146553
-0.99204212 1.9028163 -0.59013271
-0.97814691 1.9045805 -0.58879989
-0.96252781 1.9028056 -0.58640081
-0.94825631 1.9034991 -0.58480138
-0.93273968 1.9014933 -0.58240229
-0.91895962 1.902841 -0.58106947
-0.90561187 1.9049617 -0.5800032
-0.88982272 1.9017521 -0.57733756
-0.86604744 1.8809105 -0.56934059
-0.85210449 1.8809211 -0.56774122
-0.83427191 1.8720276 -0.56347615
-0.80768442 1.8426825 -0.55308008
-0.79331166 1.8405224 -0.55094755
-0.77749223 1.8347057 -0.5477488
-0.76251519 1.8305441 -0.54508311
-0.7454285 1.8209161 -0.5408181
-0.73244381 1.8209844 -0.53948528
-0.72019452 1.822755 -0.53868556
-0.70132887 1.8073708 -0.53282112
-0.68439454 1.7963278 -0.5282895
-0.67099714 1.7941738 -0.52642351
-0.65864795 1.7946379 -0.52535725
-0.64925575 1.8031797 -0.52669013
-0.62887591 1.7807727 -0.5189597
-0.60974151 1.7609168 -0.51202899
-0.59985411 1.7673632 -0.51282871
-0.5856542 1.76095 -0.50989646
-0.57424134 1.7626774 -0.50936335
-0.56077993 1.7579032 -0.50696427
-0.55027026 1.762231 -0.50723082
-0.53775805 1.7600435 -0.50563145
-0.52612102 1.7605394 -0.50483173
-0.51341754 1.7572583 -0.50296575
-0.49998081 1.7511073 -0.50030011
-0.48896801 1.7532136 -0.50003356
-0.4782013 1.756181 -0.50003356
-0.46692184 1.757219 -0.49950042
-0.45661423 1.761917 -0.50003356
-0.44414327 1.7581441 -0.49816757
-0.43311694 1.7599002 -0.49790102
-0.42118809 1.7578381 -0.4965682
-0.40973821 1.7575732 -0.49576849
-0.39766872 1.7544143 -0.49416912
-0.3848249 1.7474084 -0.49150345
-0.37449849 1.7516218 -0.49203658
-0.35787633 1.7255738 -0.4840396
-0.3446247 1.7145079 -0.4803077
-0.33336225 1.7128059 -0.47924143
-0.32266825 1.7138718 -0.47897488
-0.31145662 1.7120264 -0.47790861
-0.3011125 1.7148545 -0.47817516
-0.28913829 1.708117 -0.47577608
-0.27725816 1.7012973 -0.47337699
-0.26815531 1.7115364 -0.47577608
-0.25621656 1.7036184 -0.47311044
-0.24383581 1.6918026 -0.4693785
-0.23410794 1.698041 -0.47071132
-0.22267957 1.6918007 -0.46857882
-0.21277371 1.6969607 -0.46964508
-0.20144626 1.6905777 -0.46751255
-0.19150132 1.695613 -0.46857882
-0.18109363 1.6967561 -0.46857882
-0.17077538 1.6987944 -0.46884537
-0.16052929 1.7017293 -0.4693785
-0.15033805 1.7055626 -0.47017822
-0.14018443 1.7102954 -0.47124445
-0.13005103 1.7159287 -0.4725773
-0.11992057 1.7224634 -0.47417668
-0.10941036 1.7241286 -0.47444326
-0.099159136 1.730541 -0.47604266
-0.088587947 1.7320794 -0.47630921
-0.07804478 1.734516 -0.47684234
-0.068183012 1.7551874 -0.48244023
-0.057506159 1.7584625 -0.48323992
-0.046791669 1.7616727 -0.4840396
-0.036098536 1.7677084 -0.48563901
-0.025442006 1.7813888 -0.48937091
-0.014649751 1.7988595 -0.49416912
-0.0036279673 1.8075899 -0.4965682
0.0074838968 1.8123971 -0.49790102
0.018684737 1.8200272 -0.50003356
0.029915679 1.823733 -0.50109982
0.041083466 1.8225515 -0.50083321
0.052376769 1.8261188 -0.50189948
0.062873162 1.8055353 -0.49630162
0.073673345 1.7983744 -0.49443567
0.084479041 1.7930748 -0.49310285
0.095273897 1.788673 -0.49203658
0.10469961 1.7620777 -0.48483932
0.11449803 1.7460142 -0.48057425
0.12610777 1.7577761 -0.4840396
0.12886404 1.6541538 -0.45551708
0.13844492 1.6466091 -0.45365113
0.14845893 1.6447687 -0.45338458
0.15891901 1.6476642 -0.45445085
0.16942018 1.6504931 -0.45551708
0.1789175 1.6436737 -0.45391771
0.18899952 1.6425449 -0.45391771
0.19837718 1.6356136 -0.45231831
0.20877561 1.6372337 -0.453118
0.21779405 1.6282796 -0.45098549
0.22737949 1.6240492 -0.45018578
0.23720053 1.6216698 -0.44991922
0.24627341 1.6144671 -0.44831982
0.25617495 1.6129256 -0.44831982
0.2648094 1.6037161 -0.44618729
0.2739926 1.5982614 -0.44512105
0.28261229 1.5899078 -0.44325507
0.29079053 1.579613 -0.44085598
0.3010188 1.5806392 -0.4416557
0.31015292 1.5759256 -0.44085598
0.31962472 1.5730485 -0.44058943
0.32946858 1.5720009 -0.44085598
0.3378861 1.5642974 -0.43925661
0.34831578 1.5659578 -0.44032285
0.35834816 1.5656701 -0.44085598
0.38739252 1.6459987 -0.46431375
0.39544451 1.6351599 -0.46191466
0.39500979 1.5906113 -0.44991922
0.39332905 1.5433294 -0.43712407
0.39864478 1.5250354 -0.43259245
0.41123992 1.5346626 -0.43605781
0.41707397 1.5190992 -0.4323259
0.42690921 1.5183671 -0.43285903
0.43568426 1.5138667 -0.4323259
0.44578215 1.5139384 -0.43312559
0.45589736 1.5139432 -0.4339253
0.46716422 1.517565 -0.43579125
0.4782033 1.5201861 -0.43739063
0.4851619 1.5098828 -0.43525812
0.49291405 1.5022988 -0.4339253
0.50518519 1.5083848 -0.43659094
0.51224798 1.4988729 -0.43472499
0.52175272 1.4966116 -0.43499154
0.53124893 1.4942901 -0.43525812
0.53777909 1.4837537 -0.43312559
0.54353172 1.4713855 -0.43045995
0.55492747 1.4743366 -0.4323259
0.56672502 1.4781029 -0.4344584
0.57332879 1.4683136 -0.43259245
0.58410853 1.4692459 -0.4339253
0.59745318 1.4763546 -0.43712407
0.60723501 1.4744432 -0.43765721
0.62707734 1.4964666 -0.4453876
0.64834666 1.5209606 -0.45391771
0.65958446 1.5213749 -0.45525053
0.68213117 1.5472822 -0.46431375
0.70580876 1.5747278 -0.47391012
0.73104751 1.6045709 -0.48430619
0.74857628 1.6166714 -0.48937091
0.77531111 1.6478016 -0.50030011
0.78831792 1.6490999 -0.50216609
0.802212 1.6520344 -0.50456518
0.81915689 1.6609102 -0.50883019
0.85782778 1.7127254 -0.52642351
0.88842386 1.7469456 -0.53868556
1.0477349 2.0291929 -0.62825155
1.0632988 2.0287013 -0.63011754
1.0707463 2.0127795 -0.62718534
1.0830762 2.0061715 -0.62718534
1.099534 2.0070951 -0.62958443
1.1151071 2.0062075 -0.63145036
1.1330781 2.0094013 -0.63464916
1.152566 2.0149596 -0.63864762
1.1697456 2.0161855 -0.64131331
1.1879612 2.0189378 -0.64451206
1.2023026 2.0149209 -0.64557832
1.2006704 1.9844182 -0.63811451
1.2213933 1.9909788 -0.64264613
1.2442783 2.000633 -0.64824402
1.2621858 2.0019281 -0.65117621
1.2765222 1.9973942 -0.65224248
1.2866576 1.9862885 -0.65117621
1.3056986 1.9888296 -0.65464157
1.3082656 1.9663378 -0.64984339
1.3240784 1.9638671 -0.65170938
1.3295782 1.9461565 -0.64851058
1.3425918 1.9395466 -0.64904368
1.3561279 1.933639 -0.64984339
1.3562417 1.9087837 -0.64424551
1.3836966 1.9223269 -0.65170938
1.3994412 1.9192516 -0.6535753
1.4203546 1.9230319 -0.65784037
1.4407891 1.9258559 -0.66183883
1.4589828 1.9254284 -0.66477108
1.4748777 1.9217918 -0.666637
1.4860504 1.911945 -0.66637045
1.4995425 1.9050624 -0.66717017
1.5172119 1.9033617 -0.66983581
1.5088818 1.8692696 -0.66103917
1.5197129 1.8592299 -0.66077256
1.5353948 1.855067 -0.66263855
1.5547975 1.8552134 -0.6661039
1.567399 1.847108 -0.666637
1.5705369 1.8279531 -0.66317165
1.5994377 1.8386413 -0.67063552
1.6196089 1.8389176 -0.67436743
1.6436923 1.8433311 -0.67969871
1.6711203 1.8510944 -0.68636286
1.6869991 1.8457851 -0.68822885
1.6897823 1.8262035 -0.68476349
1.7286335 1.8453407 -0.69595921
1.7087488 1.8018335 -0.68343067
1.7551538 1.8281598 -0.69755864
1.7824621 1.8339419 -0.70395619
1.8044982 1.8339616 -0.70822126
1.8245606 1.8317311 -0.71168661
1.8241302 1.8089651 -0.70715499
1.8269324 1.7896458 -0.70395619
1.8177905 1.7589681 -0.69622582
1.8320332 1.7511106 -0.69755864
1.8364353 1.7338822 -0.69515955
1.8498595 1.7252104 -0.69622582
1.8618281 1.7151334 -0.69675893
1.872317 1.7036771 -0.69675893
1.9286172 1.7333853 -0.71381915
1.9759799 1.754148 -0.72741395
1.9729357 1.729919 -0.72234923
1.955096 1.6931758 -0.71195316
1.9573909 1.6742572 -0.70902097
1.9514278 1.6485336 -0.70315653
1.9755688 1.6482589 -0.70822126
1.9945719 1.6434598 -0.71142006
1.9934037 1.6220667 -0.70742154
2.0130868 1.6176523 -0.7108869
2.0441163 1.6220424 -0.71835077
2.0563066 1.6112524 -0.71915042
2.0318484 1.572068 -0.70715499
2.0383923 1.5572311 -0.70608872
2.0740731 1.564425 -0.71515197
2.1021872 1.5654832 -0.72154951
2.1389341 1.5725338 -0.73087931
2.1883268 1.5882485 -0.74447417
2.2215374 1.5916289 -0.75247115
2.2170961 1.5679519 -0.74767298
2.2322078 1.5581799 -0.7495389
2.2695074 1.5635896 -0.75886869
2.2758706 1.5474672 -0.75780243
2.2829216 1.5318629 -0.75700277
2.3043327 1.5258067 -0.76100123
2.3184931 1.5148014 -0.7626006
2.2775156 1.4681749 -0.74607354
2.3312142 1.4826158 -0.76073468
2.3296533 1.4616259 -0.75726932
2.3525112 1.4559251 -0.76180094
2.3655138 1.4439735 -0.76313376
2.3883674 1.4378812 -0.76766539
2.397974 1.4236914 -0.76793194
2.4041691 1.4074904 -0.76713222
2.3985686 1.3845224 -0.7626006
2.4078565 1.3702557 -0.76286721
2.4313502 1.363942 -0.76766539
2.4236469 1.3401381 -0.7626006
2.4174361 1.3174026 -0.75806904
2.455195 1.3185017 -0.76739883
2.463239 1.3034121 -0.76739883
2.516489 1.3118829 -0.7815268
2.5236337 1.2959771 -0.78126019
2.5323985 1.2809029 -0.7815268
2.5134647 1.2520211 -0.77326328
2.5072536 1.2297854 -0.76899821
2.5277717 1.2206637 -0.77299666
2.5308614 1.2030621 -0.77166384
2.5233541 1.1805683 -0.76713222
2.5165422 1.1586154 -0.76286721
2.5543332 1.1570686 -0.77219701
1.0646964 0.47461382 -0.31903553
1.0631746 0.46613801 -0.31770271
1.0660148 0.45960572 -0.31770271
1.0723647 0.45455986 -0.31876895
1.0662359 0.44426656 -0.31610331
1.0626976 0.43516076 -0.31423736
1.0644535 0.42827243 -0.31397077
1.0625792 0.41996276 -0.31263795
1.0786148 0.41866308 -0.31663644
1.0793619 0.41135091 -0.31610331
1.0818657 0.40472031 -0.31610331
1.100616 0.40404943 -0.32090148
1.11305 0.40087879 -0.3238337
1.1154888 0.39404169 -0.3238337
1.1361017 0.39349437 -0.32916501
1.1129385 0.37784618 -0.3217012
1.1106629 0.36949006 -0.32036835
1.114742 0.36326504 -0.32090148
1.1417434 0.36432338 -0.32809874
2.5921164 0.80927223 -0.74767298
2.5841279 0.78941113 -0.74394101
2.6350982 0.78733182 -0.75726932
2.6694856 0.77979344 -0.7657994
2.6779273 0.76445699 -0.76686567
2.681639 0.74775237 -0.76659912
2.6926866 0.73305565 -0.76846504
2.6980653 0.71676719 -0.76873165
2.7154748 0.70358181 -0.77246356
2.714134 0.6854912 -0.77086413
2.6031702 0.64051211 -0.73807657
1.241374 0.29752371 -0.34969056
1.2197092 0.28443417 -0.34302643
1.2167315 0.27588022 -0.34169361
1.2127537 0.26716644 -0.34009421
1.2087148 0.2585119 -0.33849481
1.2055594 0.25011259 -0.33716199
1.2004567 0.24138223 -0.33529603
1.2019153 0.23401181 -0.33529603
1.1872259 0.22360367 -0.33076441
1.1857308 0.21579769 -0.32996473
1.1756408 0.20651968 -0.32676592
1.1502768 0.19480234 -0.31930208
0.95928937 0.15645607 -0.26545584
0.90881121 0.14251916 -0.25106132
0.81149715 0.12219165 -0.22360505
0.77502626 0.11185392 -0.213209
0.7527827 0.10394078 -0.20681143
0.75245064 0.099194214 -0.20654486
0.73200554 0.091940776 -0.20068042
0.73159879 0.087333664 -0.20041385
0.72637445 0.082194947 -0.19881447
0.72303158 0.077327929 -0.1977482
0.7311644 0.073660024 -0.19988072
0.72776431 0.068810843 -0.19881447
0.72817284 0.064344071 -0.19881447
0.73239636 0.060189202 -0.19988072
0.72602439 0.05518537 -0.19801477
0.72154182 0.050395597 -0.19668193
0.7304945 0.046515323 -0.19908102
0.72595489 0.041757304 -0.1977482
0.72716004 0.037351221 -0.19801477
0.73411548 0.03319094 -0.19988072
0.7371946 0.028797649 -0.20068042
0.73832071 0.024305118 -0.20094699
0.73749244 0.019748969 -0.20068042
0.73085445 0.015086736 -0.19881447
0.72033232 0.010452252 -0.19588225
2.5332663 -0.023434965 -0.75496602
2.5378642 -0.039050847 -0.75640035
2.532788 -0.054520275 -0.75496602
2.5410242 -0.070296414 -0.7575478
2.5319283 -0.085597366 -0.75496602
2.5495427 -0.10185342 -0.76041639
2.5421708 -0.11718807 -0.75840837
2.5519273 -0.13333152 -0.76156378
2.5348032 -0.1480419 -0.75668716
2.5338471 -0.16359238 -0.75668716
2.5327957 -0.17913669 -0.75668716
2.5240073 -0.19408861 -0.75439233
2.5237236 -0.20965102 -0.7546792
2.5252523 -0.22538713 -0.75553977
2.5228682 -0.24078676 -0.7552529
2.5232494 -0.25645551 -0.75582659
2.529248 -0.27275285 -0.75812149
2.5256233 -0.28805026 -0.7575478
2.5314174 -0.30445498 -0.75984263
2.5276008 -0.31974179 -0.75926894
2.506598 -0.33272848 -0.75353175
2.480787 -0.34481135 -0.74636024
2.515599 -0.36538771 -0.7575478
2.4981544 -0.37852383 -0.752958
2.4844291 -0.39205605 -0.74951571
2.4744139 -0.40605372 -0.74722087
2.4709313 -0.42106813 -0.746934
2.4579239 -0.43439028 -0.74377853
2.4646358 -0.45118627 -0.74664712
2.4618211 -0.46630052 -0.74664712
2.4720759 -0.48397061 -0.75066316
2.4803281 -0.50140482 -0.75410545
2.4556344 -0.51212162 -0.74750769
2.2557538 -0.48495057 -0.6872673
0.90392059 -0.20052911 -0.2736167
0.91014582 -0.20777224 -0.27591157
0.90885383 -0.21335289 -0.27591157
0.9131161 -0.22026959 -0.27763271
0.90988731 -0.22540876 -0.27705899
0.90755856 -0.23075205 -0.27677214
0.91632402 -0.23896872 -0.27992758
0.91854304 -0.24557389 -0.28107503
0.92441177 -0.25322521 -0.2833699
0.92653072 -0.2599251 -0.28451735
0.93596959 -0.2687709 -0.28795964
0.9407379 -0.27639499 -0.28996766
0.94544768 -0.28408763 -0.29197568
0.94643456 -0.29072556 -0.29283625
0.94463283 -0.2965273 -0.29283625
0.95648175 -0.3066968 -0.29713914
0.96277732 -0.31523758 -0.29972085
0.96627748 -0.32295772 -0.30144203
0.96971893 -0.33073264 -0.30316317
0.96767133 -0.33667651 -0.30316317
0.96739334 -0.34324726 -0.3037369
0.96076375 -0.34755006 -0.3023026
0.91635859 -0.33788937 -0.28882021
0.92951691 -0.34922355 -0.29369682
2.2840331 -0.87315428 -0.72857499
2.30988 -0.89930886 -0.7386151
2.3052092 -0.91381788 -0.73890191
2.3013356 -0.9286617 -0.73947567
2.2823005 -0.93730938 -0.73517275
2.2791581 -0.95240313 -0.73603332
2.2759166 -0.96749347 -0.73689395
2.2646611 -0.97916031 -0.73517275
2.2647498 -0.99573493 -0.73718077
2.2629707 -1.011566 -0.7386151
2.2628269 -1.0282048 -0.74062312
2.2625642 -1.0448799 -0.74263108
2.2665184 -1.063624 -0.74607342
2.2417881 -1.0688578 -0.74004936
2.227427 -1.0788368 -0.73746765
2.2216253 -1.0929064 -0.73775452
2.191736 -1.0949638 -0.73000932
2.1140571 -1.0724387 -0.7062
2.0869942 -1.0748687 -0.69931543
0.81609774 -0.42710876 -0.2721824
0.80669105 -0.42851767 -0.26988754
0.79392374 -0.42801133 -0.26644522
0.78371578 -0.42874217 -0.2638635
0.76933938 -0.42704239 -0.25984746
0.7500034 -0.4223659 -0.25411028
0.73824388 -0.42173964 -0.25095484
0.72569138 -0.42050549 -0.24751253
0.71070337 -0.41767916 -0.24320965
0.7081272 -0.42203212 -0.24320965
0.70060271 -0.42340004 -0.24148849
0.68655062 -0.42069274 -0.23747246
0.68802696 -0.42742178 -0.23890676
0.67809224 -0.42704663 -0.23632503
0.67384344 -0.43016964 -0.23575132
0.6913088 -0.44729051 -0.24292278
0.69175726 -0.45362273 -0.24407022
0.70811915 -0.4705694 -0.25095484
0.71873349 -0.48399201 -0.25583145
0.74266815 -0.50673145 -0.26558465
0.75531244 -0.52216315 -0.27132183
0.76057249 -0.53970039 -0.27562472
1.9222693 -1.3985993 -0.70820802
1.9699576 -1.4518422 -0.72914875
1.9556373 -1.4598923 -0.72714072
1.9497 -1.4741746 -0.72828817
1.923882 -1.4733006 -0.72197723
1.9117771 -1.48273 -0.72082984
1.8981222 -1.4908834 -0.71910864
1.9009366 -1.5120403 -0.72369844
1.8975928 -1.5284816 -0.72599328
1.8844659 -1.5370697 -0.72455901
1.8742604 -1.5479938 -0.72427213
1.8647269 -1.5594648 -0.72427213
1.8463482 -1.5634508 -0.72082984
1.8374476 -1.5753738 -0.72111666
1.8226817 -1.5822239 -0.71910864
1.8114995 -1.5921135 -0.71853495
1.798833 -1.6006521 -0.7173875
1.7761633 -1.6001213 -0.71222407
1.7719755 -1.6161524 -0.7145189
1.7711775 -1.6354406 -0.71824807
1.7681092 -1.6528177 -0.72111666
1.7440151 -1.6504697 -0.71537948
1.7490773 -1.6757158 -0.72169042
1.7401381 -1.6877499 -0.72226411
1.7215446 -1.6903435 -0.71882182
1.7091017 -1.6988494 -0.71796125
1.7026982 -1.7133802 -0.7196824
1.6807415 -1.7121768 -0.71480578
1.6722053 -1.72452 -0.71566635
1.6622553 -1.7354397 -0.71595323
1.6542099 -1.7483892 -0.71710068
1.6441051 -1.7592061 -0.7173875
1.6215801 -1.7565939 -0.71222407
1.607543 -1.7629722 -0.71078974
1.5999019 -1.776361 -0.71222407
1.5934308 -1.7911533 -0.71423209
1.583043 -1.8016162 -0.7145189
1.573843 -1.8134657 -0.71537948
1.5601914 -1.8201797 -0.71423209
1.546517 -1.8267946 -0.71308464
1.5279028 -1.8274323 -0.70964235
1.5087292 -1.8271719 -0.70591313
1.4938558 -1.8319415 -0.70419198
1.4825871 -1.841073 -0.70419198
1.4688767 -1.8471369 -0.70304459
1.462842 -1.8628944 -0.70562631
1.4525583 -1.8733491 -0.7062
1.4422014 -1.8837475 -0.70677376
1.4346609 -1.8979095 -0.70878172
1.4264276 -1.9112822 -0.71050292
1.418084 -1.924625 -0.71222407
1.4079393 -1.9356138 -0.71308464
1.3949182 -1.9426602 -0.71251088
1.3813094 -1.9488384 -0.71165031
1.3643813 -1.9502141 -0.7090686
1.3463994 -1.9498793 -0.70591313
1.3419656 -1.9691848 -0.70992917
1.3293228 -1.9765871 -0.70964235
1.3166397 -1.9839084 -0.70935547
1.2991916 -1.983937 -0.70648688
1.2786722 -1.9789995 -0.70189714
1.2665052 -1.9868081 -0.70189714
1.2512294 -1.989677 -0.700176
1.2405131 -1.9997586 -0.70103657
1.2232174 -1.9991624 -0.69816798
1.1995385 -1.987769 -0.69157022
1.1927108 -2.0041459 -0.69472563
1.1934884 -2.0337305 -0.70247084
1.1790671 -2.037699 -0.70132339
1.1717658 -2.0540471 -0.70447886
1.1511538 -2.0470054 -0.69960225
1.130208 -2.0389512 -0.69443882
1.118595 -2.0475285 -0.69501251
1.1051019 -2.0526669 -0.69443882
1.0933845 -2.0611012 -0.69501251
1.0820491 -2.070318 -0.69587308
1.0719579 -2.0820279 -0.69759423
1.0643649 -2.0988176 -0.70103657
1.0536081 -2.1095934 -0.70247084
1.0427591 -2.120316 -0.70390517
1.0280585 -2.1232259 -0.70275772
1.0108871 -2.1208475 -0.69988912
0.99826193 -2.1278775 -0.700176
0.98558843 -2.1348321 -0.70046282
0.97128153 -2.1382234 -0.69960225
0.95071298 -2.127527 -0.69415194
0.93764079 -2.1333203 -0.69415194
0.9146452 -2.116173 -0.68669361
0.90801692 -2.1367319 -0.69157022
0.89747554 -2.1484501 -0.69357824
0.88609636 -2.1583469 -0.69501251
0.87283623 -2.1637435 -0.69501251
0.85848385 -2.1663868 -0.69415194
0.84308881 -2.1662576 -0.69243079
0.82635897 -2.1624422 -0.6895622
0.81240147 -2.1656783 -0.68898845
0.80042261 -2.1742179 -0.6901359
0.78771818 -2.1808901 -0.69070965
0.77304107 -2.182071 -0.6895622
0.76183981 -2.1931069 -0.69157022
0.74311513 -2.1823254 -0.68669361
0.72940713 -2.1859353 -0.68640673
0.71270394 -2.1803546 -0.68325132
0.69814289 -2.1810372 -0.68210387
0.68474716 -2.1852801 -0.68210387
0.67132568 -2.1894405 -0.68210387
0.65622616 -2.1880133 -0.68038273
0.63955045 -2.1809683 -0.67694038
0.6298548 -2.1977432 -0.68095642
0.61765039 -2.2061784 -0.68239075
0.60789478 -2.2237868 -0.68669361
0.59522724 -2.2311771 -0.68784106
0.5822503 -2.2375684 -0.68870163
0.56827408 -2.2401705 -0.68841475
0.55359751 -2.2398953 -0.6872673
0.53894573 -2.2395248 -0.68611991
0.52410072 -2.2381263 -0.68468559
0.50971913 -2.2384977 -0.68382502
0.4947311 -2.2359715 -0.68210387
0.48100209 -2.238965 -0.68210387
0.46823364 -2.2465632 -0.68353814
0.4531104 -2.2428212 -0.68153012
0.43952438 -2.2464993 -0.681817
0.42305544 -2.2350357 -0.67751414
0.40916088 -2.2366471 -0.67722726
0.39526251 -2.2381723 -0.67694038
0.38329375 -2.2509432 -0.68009585
0.37087247 -2.2617605 -0.68267757
0.35609075 -2.258316 -0.68095642
0.34179628 -2.257617 -0.68009585
0.32724816 -2.2549317 -0.67866153
0.31578252 -2.2739761 -0.68382502
0.29980439 -2.2606769 -0.67923528
0.28833506 -2.2814815 -0.68497247
0.27410164 -2.2813056 -0.68439871
0.25955513 -2.2781856 -0.68296444
0.2451601 -2.2759256 -0.681817
0.23167574 -2.2821522 -0.68325132
0.21538918 -2.2596903 -0.67607981
0.20126398 -2.2581067 -0.67521924
0.18645121 -2.247843 -0.67177695
0.17302321 -2.2537205 -0.67321122
0.16000421 -2.2662067 -0.67665356
0.14597227 -2.2652338 -0.67607981
0.13279839 -2.2785192 -0.67980897
0.11876501 -2.2783346 -0.67952216
0.10478318 -2.2790203 -0.67952216
0.090643831 -2.2757914 -0.67837471
0.076710649 -2.2772624 -0.67866153
0.062896051 -2.2834358 -0.68038273
0.048883967 -2.2837787 -0.68038273
0.034899827 -2.2859514 -0.68095642
0.020854808 -2.2842066 -0.68038273
0.0068231132 -2.2795017 -0.6789484
-0.0071445736 -2.272795 -0.67694038
-0.021046942 -2.2679186 -0.67550611
-0.034976732 -2.2687047 -0.67579299
-0.049120717 -2.2789826 -0.6789484
-0.063444644 -2.2910874 -0.68267757
-0.077212147 -2.282038 -0.68009585
-0.090833008 -2.2719491 -0.67722726
-0.10424522 -2.2598653 -0.67378497
-0.11860698 -2.26875 -0.67665356
-0.13285922 -2.2737176 -0.67837471
-0.14631614 -2.2652116 -0.67607981
-0.15933697 -2.2518485 -0.67235065
-0.17212614 -2.2374558 -0.6683346
-0.18514004 -2.2277653 -0.66575289
-0.19931543 -2.2323127 -0.66747403
-0.21382588 -2.2396305 -0.67005581
-0.22785386 -2.2411356 -0.67091638
-0.2424207 -2.2473152 -0.67321122
-0.25598878 -2.2438817 -0.67263752
-0.269638 -2.2413175 -0.67235065
-0.28350538 -2.2405713 -0.67263752
-0.29787701 -2.2435381 -0.67407179
-0.31229571 -2.2464125 -0.67550611
-0.3255237 -2.2406619 -0.67435867
-0.34055552 -2.2471471 -0.67694038
-0.35195199 -2.2298741 -0.67235065
-0.36888027 -2.2475255 -0.67837471
-0.37800395 -2.2178321 -0.67005581
-0.39293703 -2.2230182 -0.67235065
-0.40622529 -2.2186806 -0.67177695
-0.42161167 -2.225559 -0.67464554
-0.43286988 -2.2107081 -0.67091638
-0.44244519 -2.1882908 -0.66489232
-0.45918474 -2.2014782 -0.66976893
-0.47107536 -2.1911263 -0.66747403
-0.48575199 -2.1938069 -0.66919523
-0.5026049 -2.2057304 -0.67378497
-0.51460147 -2.1960757 -0.67177695
-0.52806664 -2.1928768 -0.67177695
-0.54426867 -2.2007556 -0.67521924
-0.55564314 -2.1890173 -0.67263752
-0.57026982 -2.1902022 -0.67407179
-0.58789361 -2.2023978 -0.6789484
-0.59786153 -2.1858118 -0.67493236
-0.60480845 -2.1590388 -0.66776091
-0.62068272 -2.1644962 -0.6706295
-0.63583827 -2.1670823 -0.67263752
-0.64582229 -2.1521285 -0.66919523
-0.66238385 -2.1591163 -0.67263752
-0.67533314 -2.1540971 -0.67235065
-0.6891216 -2.1517377 -0.6729244
-0.70290643 -2.1492901 -0.67349809
-0.71517169 -2.1422102 -0.67263752
-0.73447603 -2.1559196 -0.67837471
-0.74769074 -2.1513722 -0.67837471
-0.7637552 -2.1548712 -0.68095642
-0.77924007 -2.1564515 -0.68296444
-0.79378045 -2.1552258 -0.68411189
-0.80766243 -2.1521087 -0.68468559
-0.81948495 -2.1435328 -0.68353814
-0.82984334 -2.1313219 -0.6812433
-0.84184688 -2.123518 -0.68038273
-0.85378593 -2.1156471 -0.67952216
-0.86966079 -2.1174586 -0.681817
-0.8818987 -2.1103146 -0.6812433
-0.89557981 -2.106627 -0.681817
-0.91190857 -2.1090069 -0.68439871
-0.92020792 -2.0928471 -0.68095642
-0.93498564 -2.0915349 -0.68239075
-0.9406721 -2.0700576 -0.67722726
-0.95175034 -2.0607677 -0.67607981
-0.96193659 -2.049685 -0.67435867
-0.97820365 -2.0515275 -0.67694038
-0.99703366 -2.0584209 -0.6812433
-1.006264 -2.045387 -0.6789484
-1.0187953 -2.0391741 -0.6789484
-1.0334541 -2.0371568 -0.68038273
-1.0608399 -2.0597374 -0.6901359
-1.0597061 -2.0268686 -0.6812433
-1.0725716 -2.0211744 -0.68153012
-1.0867691 -2.0179293 -0.68267757
-1.0995896 -2.012064 -0.68296444
-1.1244513 -2.0279031 -0.69070965
-1.128423 -2.0059342 -0.68554616
-1.1392863 -1.9964762 -0.68468559
-1.1524743 -1.9911065 -0.68525928
-1.1617613 -1.9790399 -0.68353814
-1.165556 -1.9578784 -0.67866153
-1.1790318 -1.9531506 -0.67952216
-1.1894944 -1.9434278 -0.67866153
-1.1968528 -1.9287654 -0.67607981
-1.2076452 -1.9197633 -0.67550611
-1.225065 -1.9212037 -0.67866153
-1.2404685 -1.9192837 -0.68066955
-1.2621912 -1.9268646 -0.68611991
-1.2761089 -1.9222767 -0.6872673
-1.2830693 -1.9072556 -0.68468559
-1.2882752 -1.8898464 -0.6812433
-1.3009354 -1.8834829 -0.681817
-1.316311 -1.8809602 -0.68382502
-1.3294891 -1.875193 -0.68468559
-1.3420874 -1.8685566 -0.68525928
-1.3524005 -1.8587369 -0.68468559
-1.3518491 -1.8342062 -0.67866153
-1.3665153 -1.8304837 -0.68038273
-1.401979 -1.8541644 -0.69243079
-1.3824705 -1.8052087 -0.67722726
-1.3964556 -1.8004776 -0.67866153
-1.4116176 -1.79715 -0.68066955
-1.4190412 -1.7839553 -0.6789484
-1.4305614 -1.7759609 -0.67923528
-1.4408262 -1.7664071 -0.6789484
-1.4559065 -1.7627047 -0.68095642
-1.4654661 -1.7522682 -0.68038273
-1.4786657 -1.7461683 -0.68153012
-1.4912223 -1.7392447 -0.68239075
-1.498727 -1.7264441 -0.68095642
-1.5105566 -1.718655 -0.68153012
-1.5115241 -1.6986165 -0.67722726
-1.5257642 -1.6935815 -0.6789484
-1.5367725 -1.6848956 -0.67923528
-1.5457824 -1.6740265 -0.67866153
-1.546869 -1.6547103 -0.67464554
-1.5616009 -1.6500596 -0.67665356
-1.5723587 -1.6411386 -0.67694038
-1.5843993 -1.6335233 -0.67780095
-1.5984184 -1.6278733 -0.67952216
-1.6117526 -1.621433 -0.68095642
-1.6237092 -1.6135393 -0.681817
-1.6301619 -1.6001897 -0.68038273
-1.6433876 -1.5934924 -0.681817
-1.6496758 -1.5800647 -0.68038273
-1.6572529 -1.5679369 -0.67952216
-1.6710407 -1.5616645 -0.6812433
-1.6700355 -1.5416321 -0.67694038
-1.6794634 -1.5313559 -0.67694038
-1.6874048 -1.5197394 -0.67636669
-1.6981289 -1.510631 -0.67694038
-1.707366 -1.500183 -0.67694038
-1.720879 -1.4934472 -0.67866153
-1.73001 -1.4828598 -0.67866153
-1.7412691 -1.4740742 -0.67952216
-1.7385248 -1.4535276 -0.67493236
-1.7481493 -1.4434429 -0.67521924
-1.7525196 -1.4290558 -0.67349809
-1.7679688 -1.4236848 -0.67607981
-1.7819185 -1.4169852 -0.67808783
-1.7943459 -1.4089842 -0.67952216
-1.8052281 -1.3997093 -0.68038273
-1.8130221 -1.3880237 -0.68009585
-1.8215047 -1.3768731 -0.68009585
-1.8260808 -1.3628048 -0.67866153
-1.839035 -1.3549852 -0.68038273
-1.8449907 -1.3419845 -0.67952216
-1.8454103 -1.325049 -0.67665356
-1.8488173 -1.3103758 -0.67493236
-1.8481902 -1.292964 -0.67177695
-1.8584532 -1.283233 -0.67263752
-1.8702494 -1.2745041 -0.67407179
-1.8891613 -1.2704921 -0.67808783
-1.9057 -1.2647058 -0.6812433
-1.9206357 -1.2577142 -0.68382502
-1.8929192 -1.223021 -0.6712032
-1.8915036 -1.2057164 -0.66804779
-1.8802174 -1.1823533 -0.66145003
-1.8906926 -1.1728151 -0.66259748
-1.9043891 -1.1651936 -0.66489232
-1.9188836 -1.1579431 -0.66747403
-1.9358295 -1.152029 -0.67091638
-1.9544268 -1.1469204 -0.67493236
-1.9614273 -1.1349066 -0.67493236
-1.970018 -1.1238 -0.67550611
-1.9785463 -1.1126307 -0.67607981
-1.9828228 -1.0990757 -0.67521924
-1.9928914 -1.0887266 -0.67636669
-1.9961609 -1.0746607 -0.67521924
-2.0027173 -1.0623921 -0.67521924
-2.0142915 -1.0527475 -0.67694038
-2.0258226 -1.0430007 -0.67866153
-2.0338929 -1.0314178 -0.67923528
-2.0333281 -1.0154927 -0.67694038
-2.0317848 -0.99919027 -0.67435867
-2.0309806 -0.98336297 -0.67206383
-2.0266004 -0.96593356 -0.66862148
-2.0238175 -0.94940931 -0.66575289
-2.0426495 -0.9430002 -0.67005581
-2.0536299 -0.93282759 -0.67177695
-2.069809 -0.92490208 -0.67521924
-2.0701838 -0.90987033 -0.67349809
-2.0722108 -0.89562953 -0.67235065
-2.0776672 -0.88289785 -0.67235065
-2.0839293 -0.87050241 -0.67263752
-2.0892315 -0.85769928 -0.67263752
-2.0997846 -0.84701556 -0.67435867
-2.1093948 -0.83588135 -0.67579299
-2.1153767 -0.82327032 -0.67607981
-2.1302307 -0.81403947 -0.67923528
-2.1360824 -0.80128998 -0.67952216
-2.1355653 -0.78618091 -0.67780095
-2.1385472 -0.77241117 -0.67722726
-2.1324117 -0.75543296 -0.67378497
-2.1306729 -0.74013233 -0.67177695
-2.1270132 -0.72426349 -0.66919523
-2.1296 -0.71059173 -0.66862148
-2.1412039 -0.69989455 -0.67091638
-2.1600547 -0.69141996 -0.67550611
-2.1733973 -0.68102008 -0.67837471
-2.1784508 -0.66795266 -0.67866153
-2.1806731 -0.65402246 -0.67808783
-2.1837258 -0.64035994 -0.67780095
-2.187614 -0.62694883 -0.67780095
-2.1932645 -0.61403108 -0.67837471
-2.1979148 -0.60081476 -0.67866153
-2.2071133 -0.58880043 -0.68038273
-2.2116115 -0.57548827 -0.68066955
-2.2253146 -0.56450111 -0.68382502
-2.2259464 -0.55014592 -0.68296444
-2.2376623 -0.53849697 -0.68554616
-2.2315974 -0.52257001 -0.68267757
-2.2310257 -0.50801551 -0.68153012
-2.2331657 -0.49410942 -0.6812433
-2.2361555 -0.4803977 -0.6812433
-2.2475009 -0.46842936 -0.68382502
-2.2540884 -0.45538998 -0.68497247
-2.2549603 -0.4411822 -0.68439871
-2.2510364 -0.42608872 -0.68239075
-2.2470124 -0.41106004 -0.68038273
-2.2419455 -0.39592996 -0.67808783
-2.2424443 -0.38184407 -0.67751414
-2.2570338 -0.37009609 -0.6812433
-2.2280362 -0.35130763 -0.67177695
-2.2453041 -0.33992866 -0.67636669
-2.2625158 -0.32835093 -0.68095642
-2.2711296 -0.31538641 -0.68296444
-2.2682738 -0.30081406 -0.68153012
-2.2748289 -0.28749242 -0.68296444
-2.2708435 -0.27284166 -0.6812433
-2.2772338 -0.25944641 -0.68267757
-2.3025937 -0.24804026 -0.68984908
-2.3040724 -0.23390715 -0.68984908
-2.3169076 -0.22085923 -0.69329137
-2.317265 -0.20655347 -0.69300449
-2.306078 -0.19129817 -0.68927532
-2.3062534 -0.17707115 -0.68898845
-2.301563 -0.16251047 -0.6872673
-2.3015606 -0.14832342 -0.68698049
-2.3033838 -0.13425453 -0.6872673
-2.2945976 -0.11961734 -0.68439871
-2.28859 -0.10522584 -0.68239075
-2.3073792 -0.091910794 -0.68784106
-2.3021553 -0.077556141 -0.68611991
-2.3092909 -0.063615426 -0.68812788
-2.3086801 -0.049423922 -0.68784106
-2.3022349 -0.035152964 -0.68583304
-2.3110287 -0.021107169 -0.68841475
-2.2909975 -0.0068607326 -0.68239075
-2.2957861 0.0072104074 -0.68382502
-2.2909091 0.021253847 -0.68239075
-2.3003142 0.035455186 -0.68525928
-2.3067577 0.049711611 -0.6872673
-2.3121548 0.064022183 -0.68898845
-2.3136332 0.078272343 -0.6895622
-2.3159811 0.092581071 -0.69042277
-2.3067567 0.10639506 -0.68784106
-2.2984071 0.12014908 -0.68554616
-2.2995393 0.13436081 -0.68611991
-2.2958035 0.14828354 -0.68525928
-2.3101401 0.16344507 -0.68984908
-2.3138695 0.17798279 -0.69128335
-2.3146434 0.1923352 -0.69185704
-2.3134198 0.20653397 -0.69185704
-2.2997112 0.21954486 -0.68812788
-2.2983208 0.23365149 -0.68812788
-2.2930341 0.24733943 -0.68698049
-2.2895696 0.26118794 -0.68640673
-2.3031421 0.27705801 -0.69099647
-2.3090022 0.29214454 -0.69329137
-2.3147638 0.30731332 -0.6955862
-2.3242211 0.32309037 -0.69902855
-2.3070259 0.33514607 -0.69443882
-2.3049262 0.34929541 -0.69443882
