# .PCD v0.7 - Point Cloud Data file format
VERSION 0.7
FIELDS x y z
SIZE 4 4 4
TYPE F F F
COUNT 1 1 1
WIDTH 1456
HEIGHT 1
VIEWPOINT 0 0 0 1 0 0 0
POINTS 1456
DATA ascii
0.3541429 5.0649247 -0.81220913
0.38603863 5.0734859 -0.81395078
0.41659465 5.0641336 -0.81284243
0.44652826 5.0486965 -0.81078416
0.47833571 5.054708 -0.81220913
0.50844991 5.0428367 -0.81078416
0.53927749 5.03864 -0.81062585
0.5706284 5.0391607 -0.81125915
0.60001421 5.022819 -0.80920082
0.62638789 4.9837747 -0.80350095
0.65798944 4.9876685 -0.80476761
0.69074392 4.999187 -0.80730087
0.72168773 4.996809 -0.80761755
0.75189245 4.9893575 -0.80714256
0.78371775 4.9924536 -0.80840921
0.81529111 4.9933977 -0.80935919
0.84558439 4.9863539 -0.80904251
0.86966228 4.9441185 -0.80302596
0.89289981 4.8998342 -0.79669273
0.80013937 4.2432089 -0.69045305
0.82219172 4.2178674 -0.68712813
0.84942102 4.2195187 -0.68823642
0.87931252 4.233562 -0.69140303
0.9046523 4.2251906 -0.69092804
0.91673505 4.1568871 -0.68063658
0.94462866 4.1617756 -0.68237817
0.97261673 4.1664777 -0.68411982
1.000698 4.1709929 -0.68586147
1.0335971 4.1944938 -0.69076973
1.2155186 4.8054838 -0.79289281
1.2491983 4.8141823 -0.79558444
1.2827766 4.8216934 -0.7981177
1.312078 4.8127789 -0.79795939
1.3445055 4.8150988 -0.79970104
1.3770108 4.8172011 -0.80144268
1.4073743 4.8115044 -0.80191767
1.4329079 4.789535 -0.79970104
1.4628468 4.7825413 -0.80001771
1.4912804 4.770648 -0.79954267
1.5169194 4.7501211 -0.79764271
1.5500175 4.7529273 -0.79970104
1.587886 4.769558 -0.80413425
1.6212513 4.7718787 -0.80619258
1.6482366 4.7553105 -0.80508429
1.6787001 4.7488313 -0.80571759
1.7054631 4.7319393 -0.80460924
1.7276551 4.7028499 -0.80144268
1.763749 4.7115788 -0.80476761
1.7982554 4.7154293 -0.80730087
1.8303727 4.7125897 -0.80872583
1.8625227 4.7095337 -0.8101508
1.9065056 4.73557 -0.8166424
1.9340289 4.7201281 -0.81600904
1.9511744 4.6799212 -0.81110084
1.9775394 4.6624069 -0.8101508
2.0076749 4.6538115 -0.81078416
2.0373826 4.6441178 -0.81125915
2.0594039 4.6171012 -0.80872583
2.0750537 4.5765014 -0.80381763
2.1154945 4.5905848 -0.80856752
2.1595359 4.6114964 -0.81458408
2.1886394 4.5999422 -0.81490076
2.2185419 4.5899825 -0.81553406
2.2349138 4.5523529 -0.81125915
2.2707355 4.5544591 -0.81410909
2.3004224 4.5439644 -0.81474239
2.3210378 4.5157132 -0.81220913
2.3582947 4.5197692 -0.81553406
2.3845963 4.5025959 -0.81505907
2.4135816 4.490489 -0.81553406
2.4472361 4.4868631 -0.81759238
2.4728084 4.4683075 -0.81695902
2.5035629 4.4590769 -0.81806737
2.5450487 4.4685125 -0.82265896
2.5753829 4.4579415 -0.82360893
2.6046846 4.4454632 -0.82424223
2.6203108 4.4098744 -0.82060063
2.6361084 4.3751078 -0.81711739
2.6618743 4.3571658 -0.81680071
2.6963587 4.3533416 -0.81917566
2.7356217 4.3567834 -0.82297558
2.7649541 4.3440809 -0.82376724
2.7947686 4.3320117 -0.82471722
2.8158927 4.3065181 -0.82313395
2.8449914 4.2932744 -0.82392555
2.8861444 4.2978683 -0.82820052
2.9107947 4.2776294 -0.82772553
2.9291396 4.2483087 -0.82550889
2.9540205 4.2286367 -0.82519221
2.9975955 4.2354155 -0.83010048
3.0143209 4.2041044 -0.82756716
3.051666 4.2015071 -0.83073378
3.091433 4.2017899 -0.83453369
3.1195168 4.1859088 -0.83516705
3.1385984 4.1580205 -0.8334254
3.1640522 4.1386843 -0.8334254
3.1863647 4.1152887 -0.83263373
3.2133834 4.097991 -0.83310872
3.2378538 4.0774236 -0.83295041
3.2522917 4.0443993 -0.83025879
3.2814112 4.029727 -0.83136708
3.3129857 4.0178962 -0.83310872
3.3337796 3.9929452 -0.83215874
3.3556669 3.9693983 -0.83152544
3.3850963 3.9547343 -0.8327921
3.4183524 3.944335 -0.83500868
3.4346745 3.9143803 -0.83310872
3.4684651 3.904304 -0.83548367
3.4982991 3.8895555 -0.83690864
3.5240936 3.8702071 -0.83738369
3.5504515 3.8514147 -0.83801699
3.5733428 3.828835 -0.83785868
3.5988033 3.8089902 -0.83833367
3.6159644 3.7804153 -0.83690864
3.6212332 3.7397151 -0.8327921
3.6510239 3.7244761 -0.83437538
3.6835458 3.7118151 -0.83659202
3.7160492 3.6988952 -0.83880866
3.7619107 3.6988676 -0.84403354
3.7916188 3.6825943 -0.84561682
3.8155684 3.6606271 -0.8459335
3.8350911 3.6344299 -0.8453002
3.891921 3.6432173 -0.85290003
3.9185522 3.6232901 -0.85385001
3.9407105 3.5991783 -0.85385001
3.9663863 3.5782375 -0.85464168
3.9757347 3.5426664 -0.85195005
4.0085154 3.5279899 -0.854325
4.0345588 3.5072141 -0.85527498
4.0545044 3.4811063 -0.85495836
4.0810595 3.4606326 -0.85606664
4.1105437 3.4424996 -0.85780829
4.1384373 3.4228764 -0.85923326
4.1608911 3.3986683 -0.85954994
4.1770554 3.3693542 -0.85859996
4.1883826 3.3362789 -0.85669994
4.2157598 3.3160105 -0.85812491
4.2360268 3.2900803 -0.85812491
4.2537842 3.2622242 -0.85764992
4.2666359 3.2306979 -0.85622495
4.2697711 3.1920428 -0.85290003
4.29881 3.1728196 -0.85479999
4.332562 3.1568489 -0.85764992
4.3278027 3.1129098 -0.85290003
4.3299141 3.0742929 -0.8495751
4.3583994 3.0544667 -0.85147506
4.3721867 3.0242965 -0.85052508
4.3784289 2.9890625 -0.84815013
4.3901358 2.9577272 -0.84688348
4.4156017 2.9356539 -0.84830844
4.4244499 2.9025476 -0.8465668
4.4164796 2.8587139 -0.84165859
4.4597349 2.8480344 -0.8465668
4.4829745 2.8243003 -0.84767514
4.4700279 2.7779791 -0.84197521
4.4726777 2.7417276 -0.83928365
4.5046268 2.7234266 -0.84213358
4.5322776 2.7023084 -0.84419185
4.5385594 2.6684432 -0.84229189
4.5437417 2.6341078 -0.84023362
4.5323863 2.5905006 -0.83516705
4.5404539 2.55828 -0.83374208
4.5577917 2.5313308 -0.8340587
4.5637102 2.4981024 -0.83231711
4.5641789 2.4620845 -0.82962549
4.5739689 2.4312525 -0.82867551
4.5660577 2.3912325 -0.82455891
4.5727463 2.3590968 -0.82313395
4.6161847 2.3457544 -0.82835883
4.6216612 2.3129671 -0.82677555
4.5649104 2.2496512 -0.81410909
4.5857348 2.2250471 -0.81537575
4.6215758 2.2075057 -0.81933397
4.6135883 2.1690257 -0.81553406
4.6053028 2.1307268 -0.81173414
4.6084046 2.0979295 -0.80999249
4.6473241 2.0813158 -0.81458408
4.6708508 2.0575371 -0.81648403
4.6634545 2.0202048 -0.8130008
4.6430588 1.9776248 -0.80730087
4.6204958 1.9346089 -0.80128431
4.6423235 1.9103546 -0.80302596
4.6365652 1.8748021 -0.80001771
4.631464 1.8397568 -0.79716772
4.6362262 1.8087924 -0.79605943
4.6527696 1.7824301 -0.79700941
4.6645432 1.7541951 -0.79716772
4.6613235 1.7204134 -0.79479277
4.6634364 1.6887543 -0.7933678
4.6560321 1.6538298 -0.79035956
4.6623626 1.6239309 -0.7897262
4.6853213 1.5997586 -0.79194283
4.6791306 1.5656545 -0.78925121
4.6708217 1.5310718 -0.78624296
4.6820087 1.5029868 -0.78655958
4.6779552 1.4700866 -0.784343
4.6868873 1.4413555 -0.784343
4.689024 1.4105796 -0.78323466
4.6862235 1.3784386 -0.7813347
4.6936445 1.3493857 -0.78117639
4.6894779 1.3170904 -0.77911806
4.6479545 1.2747144 -0.77088487
4.6595039 1.2471921 -0.77151823
4.6393628 1.211346 -0.76692665
4.6409669 1.1813954 -0.76597667
4.6471701 1.1526591 -0.7658183
4.6426377 1.1213417 -0.76391834
4.6234784 1.0867352 -0.75964344
4.5963693 1.0506467 -0.75410187
4.6104407 1.0241367 -0.75536853
4.6060205 0.99353856 -0.75362688
4.5888352 0.96040469 -0.74982697
4.5888357 0.93105233 -0.74887699
4.5876799 0.90154582 -0.74776864
4.5970054 0.87411702 -0.748402
4.6168494 0.84857035 -0.75077695
4.6064138 0.81746632 -0.74824363
4.5685205 0.78186017 -0.7412771
4.5556951 0.75092399 -0.73842716
4.5865479 0.72712952 -0.74270207
4.5918994 0.69912189 -0.74286044
4.5863323 0.66950762 -0.7412771
4.589376 0.64121717 -0.74111879
4.6147556 0.61591786 -0.74460202
4.6302023 0.5890854 -0.74650198
4.6298084 0.56018972 -0.74586868
4.643949 0.53300911 -0.74761033
4.6343713 0.50311965 -0.745552
4.6295128 0.47387034 -0.7442854
4.6578875 0.4479112 -0.748402
4.6693988 0.42011833 -0.74982697
4.667953 0.39112997 -0.74919361
4.6712494 0.36255696 -0.74935198
4.6645226 0.33325511 -0.74792701
4.6605673 0.30424222 -0.74697703
4.6357336 0.27406788 -0.74270207
4.6008453 0.24368808 -0.73684388
4.5983095 0.21526876 -0.73621053
4.5955973 0.18688975 -0.73557723
4.5828419 0.15821201 -0.73336059
4.6034665 0.13064836 -0.7365272
4.5903611 0.10209296 -0.73431057
4.5751052 0.073671624 -0.73177731
4.551775 0.045363083 -0.72797734
4.5292578 0.017347347 -0.72433573
4.0782852 0.010580596 -0.73381442
4.0595756 -0.014380161 -0.73044002
4.0525222 -0.039223377 -0.72919685
4.0531893 -0.064103857 -0.72937441
4.0487843 -0.088886768 -0.72866404
4.032423 -0.11328824 -0.72582245
4.0287018 -0.13792802 -0.72528964
4.0317125 -0.16280329 -0.72600001
4.0463667 -0.18826772 -0.7288416
4.041204 -0.21288575 -0.72813123
4.009367 -0.23589109 -0.72262561
3.9990058 -0.25991461 -0.7210272
4.002244 -0.28479564 -0.72191525
4.01612 -0.31055909 -0.72475684
4.0111966 -0.33495048 -0.72422403
3.9816213 -0.35709932 -0.71925122
3.9803345 -0.38161713 -0.71942884
3.9671485 -0.40493527 -0.71747524
3.9587188 -0.42863494 -0.71640962
3.9403708 -0.4511286 -0.71356803
3.9375286 -0.47529778 -0.71356803
3.9413719 -0.50031543 -0.71481121
3.9118891 -0.52098632 -0.71001601
3.9027705 -0.5441649 -0.7089504
3.9168875 -0.5706526 -0.71214724
3.9249876 -0.59644777 -0.7142784
3.8755686 -0.61329776 -0.70593125
3.8678482 -0.63642776 -0.70522082
3.8619301 -0.65981728 -0.70486563
3.8742826 -0.68641716 -0.70788485
3.8709657 -0.71035391 -0.70806241
3.8491306 -0.73079103 -0.70486563
3.8146369 -0.74852568 -0.69936001
3.8427665 -0.77855653 -0.70539844
3.8273206 -0.79990774 -0.70344484
3.7569199 -0.80929536 -0.69136804
3.7797461 -0.83850849 -0.69651842
3.7726107 -0.861247 -0.69616324
3.7691715 -0.88482863 -0.69651842
3.7588878 -0.90678602 -0.69563043
3.7331927 -0.92486674 -0.69190079
3.7264936 -0.94751346 -0.69172323
3.7310848 -0.97309113 -0.69367683
3.7174377 -0.99393398 -0.69225603
3.715066 -1.0177646 -0.6929664
3.6945376 -1.0365553 -0.69030243
3.7183771 -1.0678928 -0.69598562
3.6862605 -1.0832014 -0.69119042
3.7276127 -1.1202365 -0.700248
3.6915054 -1.1341331 -0.69474244
3.6957448 -1.1602979 -0.69687361
3.7016757 -1.187158 -0.69936001
3.6774864 -1.2043384 -0.69616324
3.6588271 -1.2231382 -0.69403201
3.6503217 -1.2452476 -0.69385439
3.6491189 -1.2698852 -0.69509763
3.6384757 -1.2912649 -0.69456482
3.6082733 -1.3055338 -0.69030243
3.6094286 -1.3310525 -0.69207841
3.6168551 -1.3590566 -0.69509763
3.592823 -1.3752456 -0.69207841
3.5696456 -1.3915484 -0.68923682
3.5528073 -1.410159 -0.6876384
3.5532126 -1.4356171 -0.68941444
3.5397859 -1.4555217 -0.68852639
3.5371439 -1.4798717 -0.68976963
3.50898 -1.4934573 -0.68604004
3.5160077 -1.5219941 -0.68923682
3.4786789 -1.5312532 -0.6837312
3.4458616 -1.5421213 -0.67911363
3.4291675 -1.5599768 -0.67769283
3.424891 -1.5834655 -0.67875844
3.4151108 -1.6044505 -0.67875844
3.4140835 -1.6296126 -0.68053442
3.4305873 -1.6634066 -0.68586242
3.4167848 -1.6826864 -0.68515199
3.4107966 -1.7058201 -0.68604004
3.3739402 -1.713353 -0.68071204
3.3528664 -1.7286131 -0.67858082
3.3230131 -1.7391175 -0.67467362
3.2983727 -1.7520902 -0.67183203
3.2944906 -1.7760303 -0.67325282
3.2653985 -1.7862965 -0.66952324
3.2560978 -1.8072538 -0.66987842
3.2492354 -1.8296124 -0.67076641
3.2439299 -1.8529305 -0.67200959
3.2171707 -1.8639227 -0.66881281
3.2116134 -1.8871166 -0.67005599
3.2058923 -1.9103123 -0.67129922
3.2033765 -1.9355441 -0.67325282
3.1822083 -1.9495097 -0.67129922
3.1467767 -1.9544644 -0.6663264
3.1230648 -1.9663969 -0.66384
3.1291924 -1.9971675 -0.6677472
3.1135736 -2.0141928 -0.66703683
3.1085637 -2.0381143 -0.66863519
3.0886219 -2.0522494 -0.66703683
3.0759714 -2.0711622 -0.66703683
3.0697091 -2.0944328 -0.66845763
3.055181 -2.1121099 -0.66810238
3.0639298 -2.1460564 -0.67289764
3.0442827 -2.1602609 -0.67147684
3.0245771 -2.1743052 -0.67005599
3.0008359 -2.1852934 -0.6677472
2.9865787 -2.2030809 -0.66756964
2.9643314 -2.2148869 -0.66561604
2.9373436 -2.2229407 -0.66259682
2.9213052 -2.2391264 -0.66206402
2.9113984 -2.2600255 -0.66295201
2.9036663 -2.2827117 -0.6643728
2.8657351 -2.2814882 -0.65886718
2.8440197 -2.2928536 -0.6570912
2.8314221 -2.3115056 -0.65744638
2.8141515 -2.3263278 -0.65673602
2.8134098 -2.3549187 -0.65993279
2.7891462 -2.3638673 -0.65762401
2.7626381 -2.3706846 -0.65478241
2.741353 -2.3817835 -0.653184
2.7037776 -2.3784139 -0.64767843
2.7170637 -2.4198256 -0.65442723
2.6553817 -2.3942835 -0.6430608
2.6399138 -2.4098682 -0.64288318
2.6149573 -2.416672 -0.64039683
2.602236 -2.4346881 -0.64092958
2.6001108 -2.4627886 -0.64412642
2.5920546 -2.4855058 -0.6459024
2.5485055 -2.4739501 -0.63879842
2.5410001 -2.4971273 -0.64075202
2.5416789 -2.5286324 -0.64483678
2.5379052 -2.5560501 -0.647856
2.5159709 -2.5652521 -0.64625758
2.485801 -2.5658011 -0.642528
2.4407477 -2.5504384 -0.63489121
2.4304619 -2.5710866 -0.63631201
2.4300907 -2.6024921 -0.64039683
2.427423 -2.6318192 -0.64394879
2.4059258 -2.6408451 -0.642528
2.3936269 -2.6599464 -0.64359361
2.3582973 -2.6532559 -0.63844323
2.3491163 -2.6758099 -0.64039683
2.3268502 -2.6834829 -0.63879842
2.306499 -2.6932254 -0.6377328
2.307729 -2.7283626 -0.64270562
2.2726443 -2.720572 -0.63755518
2.247139 -2.7238393 -0.63506877
2.2415745 -2.7513072 -0.63826561
2.2265017 -2.7673092 -0.63879842
2.2002952 -2.7693627 -0.63613439
2.1619959 -2.7557163 -0.6299184
2.1625283 -2.7914879 -0.63506877
2.1417708 -2.8000152 -0.63400322
2.1281097 -2.8178153 -0.63506877
2.1007769 -2.8174102 -0.63204962
2.0752804 -2.8191533 -0.62956321
2.0602579 -2.8350179 -0.63027358
2.0382335 -2.8412099 -0.62885278
2.0338457 -2.8721325 -0.63293761
2.0370495 -2.9143984 -0.63950878
2.0208056 -2.9292724 -0.64004159
1.9917144 -2.9253495 -0.63648963
1.9589047 -2.9154632 -0.63169438
1.9605615 -2.9569516 -0.63808799
1.9332194 -2.9549274 -0.63506877
1.9251952 -2.9824414 -0.63844323
1.8936398 -2.9734488 -0.63400322
1.8800724 -2.9925106 -0.63560158
1.8601196 -3.0014811 -0.63506877
1.8252388 -2.9859719 -0.62938559
1.8007839 -2.9870028 -0.62725443
1.7597839 -2.9599349 -0.6192624
1.768474 -3.0165162 -0.62885278
1.738108 -3.0068645 -0.6245904
1.7186508 -3.015763 -0.62423521
1.7020426 -3.0296834 -0.62494558
1.6996349 -3.0693381 -0.63098401
1.6821847 -3.0823004 -0.63151681
1.6529821 -3.0734985 -0.62760961
1.6188805 -3.0548906 -0.62174881
1.603295 -3.0708723 -0.62299198
1.5862234 -3.0841525 -0.62370241
1.5694938 -3.0982163 -0.6245904
1.5574857 -3.1218765 -0.62743199
1.5404713 -3.1357901 -0.62831998
1.5134858 -3.1292381 -0.6251232
1.4879087 -3.125139 -0.62245917
1.4574261 -3.1101518 -0.61766398
1.4477973 -3.1395881 -0.62174881
1.4354211 -3.1636462 -0.62476802
1.4159822 -3.1723943 -0.62476802
1.3731409 -3.1278627 -0.61428958
1.3562642 -3.1416497 -0.61535519
1.3396546 -3.1562531 -0.61659843
1.3365642 -3.2034643 -0.62423521
1.3045567 -3.1815598 -0.61837441
1.2864822 -3.1931553 -0.61908478
1.2672275 -3.2019041 -0.6192624
1.2529075 -3.223377 -0.62192643
1.2309994 -3.2254877 -0.62086082
1.2001317 -3.2034926 -0.61517757
1.1790937 -3.2071018 -0.6144672
1.1634022 -3.2253842 -0.61659843
1.1475304 -3.2435942 -0.61872959
1.1285746 -3.2533636 -0.6192624
1.1082741 -3.2592955 -0.61908478
1.0848306 -3.255765 -0.61713117
1.0611669 -3.2511342 -0.61500001
1.042997 -3.2632084 -0.61606562
1.0256009 -3.2779989 -0.61766398
1.0011444 -3.2701161 -0.61500001
0.97851819 -3.2677133 -0.61340159
0.96675009 -3.3019879 -0.61872959
0.95053464 -3.3220489 -0.62139362
0.92271084 -3.3012824 -0.61642081
0.90140009 -3.3030846 -0.61571038
0.88314325 -3.3161604 -0.61713117
0.86055076 -3.3129451 -0.61553282
0.83174574 -3.2847745 -0.60931683
0.82148218 -3.3299437 -0.61677599
0.78815371 -3.2813382 -0.60683042
0.77136701 -3.3004861 -0.60949439
0.75241065 -3.3109145 -0.61056
0.72847092 -3.2991333 -0.60754079
0.70759469 -3.3006544 -0.60700798
0.68672723 -3.3020437 -0.60647517
0.66762125 -3.3119831 -0.60754079
0.65502417 -3.3556166 -0.61482239
0.63643283 -3.3702095 -0.61677599
0.61556482 -3.3730829 -0.61659843
0.59434366 -3.373889 -0.61606562
0.5726409 -3.3716514 -0.61500001
0.55114704 -3.3702457 -0.61411202
0.52938598 -3.3667591 -0.61286879
0.5081296 -3.3660517 -0.61215842
0.48591429 -3.358393 -0.61020482
0.46570379 -3.3642354 -0.61073762
0.44556898 -3.3709319 -0.61144799
0.4254927 -3.3784842 -0.61233598
0.40135717 -3.3526957 -0.6071856
0.38311219 -3.3756292 -0.61091518
0.36512658 -3.4033563 -0.61553282
0.34126258 -3.3761597 -0.61020482
0.321565 -3.3889666 -0.61215842
0.30268145 -3.4124413 -0.61606562
0.28011516 -3.3946192 -0.6125136
0.25875524 -3.3894053 -0.61127043
0.23822966 -3.3948557 -0.6119808
0.2178991 -3.4041104 -0.61340159
0.19455597 -3.363138 -0.60576481
0.17626199 -3.4094765 -0.6139344
0.15632759 -3.4321213 -0.6178416
0.13569373 -3.4438326 -0.6197952
0.11446154 -3.4416499 -0.6192624
0.093422383 -3.4452386 -0.6197952
0.072572507 -3.4595211 -0.62228161
0.051358696 -3.4608855 -0.62245917
0.03031449 -3.482785 -0.62636638
0.0089493655 -3.4848733 -0.62672162
-0.012356921 -3.4622285 -0.6226368
-0.033750467 -3.4778326 -0.62547839
-0.054765809 -3.4568963 -0.62174881
-0.076190367 -3.4663341 -0.62352479
-0.097485438 -3.4667847 -0.62370241
-0.1185878 -3.4612038 -0.62281442
-0.13879474 -3.434845 -0.61819679
-0.1593665 -3.423115 -0.61624318
-0.18036734 -3.4220726 -0.61624318
-0.20066965 -3.4091127 -0.61411202
-0.22126542 -3.4029071 -0.61322397
-0.24235021 -3.4044302 -0.61375678
-0.26172045 -3.3832555 -0.61020482
-0.28329217 -3.3913927 -0.6119808
-0.30102465 -3.3552847 -0.60576481
-0.32423207 -3.3808038 -0.61073762
-0.34566861 -3.3856037 -0.6119808
-0.36125255 -3.3354774 -0.6032784
-0.3894248 -3.4006619 -0.61553282
-0.40839908 -3.3825758 -0.61269122
-0.43112683 -3.3956268 -0.61553282
-0.4510456 -3.3860888 -0.61428958
-0.46896312 -3.3627892 -0.61056
-0.48590323 -3.3345284 -0.60594237
-0.51432985 -3.3840237 -0.61553282
-0.53001332 -3.3487272 -0.60967201
-0.55613756 -3.3793993 -0.615888
-0.57222646 -3.3487613 -0.61091518
-0.58778906 -3.317085 -0.60576481
-0.61416519 -3.3463268 -0.61180317
-0.62423217 -3.2873843 -0.60167998
-0.65196484 -3.3221209 -0.60878402
-0.67389882 -3.3257744 -0.61020482
-0.69308561 -3.3157971 -0.6091392
-0.71466041 -3.3172543 -0.61020482
-0.72988975 -3.289748 -0.60594237
-0.7540012 -3.3024776 -0.6091392
-0.77559912 -3.3035376 -0.61020482
-0.78478456 -3.252795 -0.60167998
-0.80662054 -3.2555606 -0.60310078
-0.83360922 -3.2782099 -0.60825121
-0.85271549 -3.2692242 -0.60754079
-0.87479126 -3.2715364 -0.60896158
-0.88653296 -3.2357337 -0.6032784
-0.90769869 -3.234971 -0.60416639
-0.9223727 -3.2113683 -0.60079199
-0.95426077 -3.2471943 -0.6086064
-0.9730348 -3.2375078 -0.60789597
-0.99634778 -3.2427657 -0.61002719
-1.0123961 -3.2243845 -0.60771841
-1.0288574 -3.2078032 -0.60576481
-1.0472962 -3.1976888 -0.60505438
-1.0628431 -3.1790686 -0.60274559
-1.0807414 -3.16783 -0.6018576
-1.0975722 -3.1537032 -0.60043681
-1.1261139 -3.1728787 -0.60540962
-1.1509159 -3.1807165 -0.60825121
-1.165646 -3.1606674 -0.60576481
-1.1839795 -3.150692 -0.605232
-1.2022345 -3.1406105 -0.60469919
-1.2221969 -3.1350086 -0.60505438
-1.2464906 -3.1402566 -0.60754079
-1.2657354 -3.132549 -0.60754079
-1.2785728 -3.1092498 -0.60452157
-1.2964877 -3.0986226 -0.60398877
-1.3285742 -3.1213982 -0.61002719
-1.3461386 -3.109575 -0.60931683
-1.3632116 -3.0967526 -0.60842878
-1.3777671 -3.0784485 -0.60647517
-1.3986669 -3.0744157 -0.60736322
-1.4179176 -3.0666692 -0.60754079
-1.4471655 -3.0801806 -0.6119808
-1.4571387 -3.0525911 -0.60825121
-1.4788461 -3.0497918 -0.60949439
-1.4975313 -3.0406604 -0.60949439
-1.51264 -3.0243723 -0.60807359
-1.5405229 -3.033462 -0.61180317
-1.5464841 -2.999459 -0.60683042
-1.563947 -2.9881694 -0.60647517
-1.5928674 -2.998508 -0.61056
-1.6154375 -2.9964747 -0.61215842
-1.6271831 -2.9744179 -0.60967201
-1.664978 -2.9996595 -0.61695361
-1.6799732 -2.9833839 -0.61571038
-1.6943436 -2.9661827 -0.61428958
-1.7154711 -2.9608402 -0.61535519
-1.7351013 -2.9528043 -0.615888
-1.7627553 -2.9581664 -0.6192624
-1.7874874 -2.9582455 -0.62157118
-1.7989239 -2.936312 -0.6192624
-1.8143115 -2.9210384 -0.61837441
-1.8332489 -2.9115164 -0.61872959
-1.8547843 -2.9060206 -0.61997283
-1.8656334 -2.8838422 -0.61766398
-1.8946215 -2.8896253 -0.62139362
-1.9117718 -2.877126 -0.621216
-1.923345 -2.8563612 -0.6192624
-1.9341809 -2.8347499 -0.61713117
-1.9599304 -2.8349724 -0.6197952
-1.958662 -2.7962906 -0.6139344
-1.9877398 -2.8010757 -0.61766398
-2.0106323 -2.796818 -0.61944002
-2.0404975 -2.8019319 -0.62334722
-2.0705006 -2.8067839 -0.62725443
-2.0947506 -2.803488 -0.62938559
-2.1160693 -2.7960758 -0.63062882
-2.1325872 -2.782258 -0.6304512
-2.1622882 -2.7854476 -0.63418078
-2.1592724 -2.7465932 -0.62831998
-2.1687307 -2.7240527 -0.62618881
-2.1965196 -2.7244864 -0.62938559
-2.2131956 -2.7109575 -0.62938559
-2.2492213 -2.7208433 -0.63489121
-2.2728205 -2.7152934 -0.63684481
-2.2996168 -2.71331 -0.63968641
-2.3130183 -2.6954141 -0.63879842
-2.3456461 -2.6997457 -0.64323843
-2.3576186 -2.6801291 -0.64199519
-2.3818715 -2.6744328 -0.64412642
-2.3909891 -2.6517267 -0.64217281
-2.4145117 -2.6450024 -0.64412642
-2.4266889 -2.6258001 -0.6430608
-2.4689715 -2.6388915 -0.64998722
-2.4729378 -2.6108298 -0.64679039
-2.4964018 -2.6034217 -0.64874399
-2.5157557 -2.5915861 -0.64963204
-2.519886 -2.5641668 -0.64661282
-2.5279384 -2.5409813 -0.64465922
-2.5497661 -2.5316637 -0.64625758
-2.5968628 -2.5469854 -0.65424961
-2.6110284 -2.5296335 -0.65389442
-2.6321878 -2.5190091 -0.65531522
-2.6304338 -2.4865832 -0.65105283
-2.6629019 -2.4865186 -0.65531522
-2.7019765 -2.4921546 -0.66117603
-2.712853 -2.4715512 -0.66011041
-2.7235787 -2.4509087 -0.6590448
-2.7437141 -2.4387283 -0.66028804
-2.7660203 -2.4283412 -0.66206402
-2.7830987 -2.4132581 -0.66259682
-2.8053272 -2.4025383 -0.6643728
-2.8290312 -2.3929079 -0.66650403
-2.8489466 -2.3799214 -0.6677472
-2.8263047 -2.3317025 -0.6590448
-2.8237762 -2.3006387 -0.6551376
-2.8424392 -2.2869713 -0.65620321
-2.8517959 -2.2658134 -0.6551376
-2.8788056 -2.2586014 -0.65815681
-2.9089448 -2.2535541 -0.66188639
-2.9172468 -2.2314763 -0.66064322
-2.9167504 -2.2028565 -0.65744638
-2.9649203 -2.2108076 -0.66526079
-2.999825 -2.2083294 -0.67005599
-3.0172987 -2.1927745 -0.67094404
-3.0322955 -2.1753671 -0.67129922
-3.0479953 -2.158427 -0.67183203
-3.0692468 -2.1453235 -0.67360801
-3.0758729 -2.1219788 -0.67218721
-3.0969687 -2.1086054 -0.67396319
-3.1090319 -2.0890143 -0.67378563
-3.1127703 -2.0639145 -0.67183203
-3.1352568 -2.0512431 -0.67396319
-3.1535709 -2.0357039 -0.67520642
-3.178452 -2.0242474 -0.67787039
-3.1941452 -2.0068014 -0.67858082
-3.203053 -1.9850905 -0.67787039
-3.2092962 -1.9618058 -0.67662722
-3.2448688 -1.9563079 -0.68160003
-3.262732 -1.9398823 -0.68284321
-3.2796667 -1.9228134 -0.68390882
-3.2956626 -1.9051168 -0.68479681
-3.3132746 -1.888271 -0.68604004
-3.3222249 -1.866459 -0.68550724
-3.3396404 -1.8493773 -0.68675041
-3.3552439 -1.8312088 -0.6876384
-3.3690169 -1.8119859 -0.68817121
-3.3931134 -1.7981942 -0.69083524
-3.3979771 -1.7741513 -0.689592
-3.404424 -1.7510171 -0.68870401
-3.4168594 -1.7309847 -0.6890592
-3.4555929 -1.7240502 -0.69474244
-3.4678726 -1.7036827 -0.69509763
-3.4605441 -1.6737993 -0.69154561
-3.4618647 -1.6483023 -0.68976963
-3.4959714 -1.6383086 -0.69456482
-3.516681 -1.6217742 -0.69669604
-3.5453839 -1.6087079 -0.70042562
-3.5668695 -1.5921401 -0.70273441
-3.5576501 -1.5619135 -0.69900483
-3.5825253 -1.5466884 -0.70202404
-3.6173105 -1.535448 -0.7069968
-3.6166742 -1.5090536 -0.7050432
-3.6213133 -1.484966 -0.70415521
-3.6522624 -1.4715483 -0.70841759
-3.6584778 -1.4480238 -0.70788485
-3.6260207 -1.4094973 -0.69989282
-3.6401169 -1.3893282 -0.70095843
-3.6670032 -1.3738749 -0.70451039
-3.6818292 -1.3537271 -0.70575362
-3.6956201 -1.3331149 -0.70681924
-3.7148626 -1.3143545 -0.7089504
-3.7219279 -1.2912132 -0.70877284
-3.7195325 -1.2648647 -0.70681924
-3.7309577 -1.2432634 -0.7075296
-3.7759349 -1.2325683 -0.71463364
-3.8096721 -1.2177703 -0.7196064
-3.7982895 -1.1884911 -0.71605444
-3.7989237 -1.1631452 -0.71481121
-3.8144734 -1.1423558 -0.71640962
-3.8487985 -1.126953 -0.72156
-3.8584793 -1.1041288 -0.72209281
-3.8575995 -1.0783122 -0.72067201
-3.8774343 -1.0582517 -0.72315842
-3.9009709 -1.0390021 -0.72635525
-3.9177496 -1.0177701 -0.7283088
-3.9334602 -0.99612939 -0.73008484
-3.9337659 -0.97056013 -0.72901922
-3.9482586 -0.94847488 -0.73061764
-3.9578371 -0.92512751 -0.73132801
-3.9538429 -0.89864272 -0.72955203
-3.9266114 -0.86714506 -0.7235136
-3.9231985 -0.84117728 -0.72191525
-3.9359937 -0.81869358 -0.72333604
-3.9669888 -0.79978275 -0.72813123
-3.9486411 -0.77089745 -0.72386885
-3.9590991 -0.74775124 -0.7249344
-3.9607081 -0.72291404 -0.72440165
-3.9805758 -0.70133257 -0.72724324
-3.9974165 -0.67903948 -0.72955203
-3.9898539 -0.65259093 -0.72742081
-3.9850338 -0.62672001 -0.72582245
-3.96837 -0.59916794 -0.72209281
-3.956389 -0.57254964 -0.71925122
-3.9754241 -0.55042487 -0.72209281
-3.9884822 -0.52731311 -0.72386885
-3.9623518 -0.49913585 -0.71854085
-3.954592 -0.4735252 -0.71658725
-3.952534 -0.44869557 -0.7156992
-3.9747818 -0.42653796 -0.71925122
-3.9557838 -0.39995983 -0.71534401
-3.9591434 -0.37577319 -0.71552163
-3.950592 -0.35051486 -0.71356803
-3.9320726 -0.32456452 -0.70983845
-3.9457648 -0.3013328 -0.71196961
-3.9485209 -0.27718544 -0.71214724
-3.9413087 -0.25238514 -0.71054882
-3.9418006 -0.22813995 -0.7103712
-3.9647477 -0.20507099 -0.7142784
-3.9777281 -0.18127939 -0.71640962
-3.9718823 -0.15659663 -0.71516645
-3.9786699 -0.13242 -0.716232
-3.9557977 -0.10736033 -0.71196961
-3.9544139 -0.08304435 -0.71161443
-3.9400895 -0.058557235 -0.7089504
-3.9305341 -0.034292765 -0.70717442
-3.9611771 -0.010258677 -0.71268004
-3.9700227 0.014076841 -0.7142784
-3.9688776 0.038426805 -0.71410084
-3.9547913 0.06256292 -0.71161443
-3.8893976 0.085412413 -0.69989282
-3.885849 0.10919325 -0.69936001
-3.8762543 0.13273264 -0.6977616
-3.8812666 0.15675171 -0.69882721
-3.9008756 0.18152106 -0.70255685
-3.9036193 0.20565943 -0.70326722
-3.9013016 0.22955008 -0.70308959
-3.8782148 0.25208291 -0.69918239
-3.865797 0.27510777 -0.69722879
-3.8797355 0.3000342 -0.70007044
-3.8876281 0.32465151 -0.70184642
-3.8600786 0.34621784 -0.69722879
-3.8520036 0.36933371 -0.69616324
-3.856518 0.39366063 -0.69740641
-3.87849 0.41996092 -0.70184642
-3.851397 0.44095641 -0.69740641
-3.8388486 0.46340206 -0.69563043
-3.8378854 0.48719558 -0.69598562
-3.8406768 0.51151383 -0.69705123
-3.850137 0.53683478 -0.69936001
-3.838006 0.55917317 -0.6977616
-3.8432591 0.58404148 -0.69936001
-3.8434916 0.60822695 -0.70007044
-3.837745 0.63147944 -0.6997152
-3.8318579 0.65468436 -0.69936001
-3.8481185 0.68178594 -0.70308959
-3.8496704 0.70644957 -0.70415521
-3.8346279 0.72803992 -0.7022016
-3.8358827 0.75269103 -0.70326722
-3.8205822 0.77406561 -0.70131361
-3.8196142 0.79829836 -0.70202404
-3.8233025 0.82358378 -0.7036224
-3.8066478 0.84447187 -0.70149124
-3.7956376 0.8664999 -0.70042562
-3.7979143 0.89157122 -0.70184642
-3.82777 0.92339116 -0.70841759
-3.8182111 0.94591457 -0.70770723
-3.7818136 0.96156973 -0.70202404
-3.7482262 0.97755867 -0.69687361
-3.7630737 1.0061277 -0.70078081
-3.7777112 1.0349156 -0.70468801
-3.8044546 1.0673746 -0.710904
-3.7874289 1.0877118 -0.7089504
-3.7617989 1.1053847 -0.70539844
-3.7606006 1.1301444 -0.70646399
-3.7940478 1.1656185 -0.71410084
-3.7680449 1.182984 -0.71054882
-3.7466583 1.2015762 -0.70788485
-3.7223799 1.2190324 -0.70468801
-3.7120299 1.2409141 -0.70415521
-3.7090032 1.2652551 -0.7050432
-3.7160418 1.293162 -0.70788485
-3.7191668 1.3198867 -0.71001601
-3.7267306 1.3483715 -0.71303523
-3.6897624 1.3606625 -0.7075296
-3.7034547 1.3915808 -0.71179205
-3.7141483 1.4216632 -0.71552163
-3.7007704 1.4426396 -0.71463364
-3.6900191 1.4645941 -0.7142784
-3.6937382 1.4923671 -0.71676481
-3.6836014 1.5146294 -0.71658725
-3.6678832 1.5345452 -0.71534401
-3.6602094 1.5577925 -0.7156992
-3.6451631 1.577877 -0.71463364
-3.6507258 1.6069512 -0.7176528
-3.6560686 1.6361527 -0.72067201
-3.6495438 1.6601845 -0.72138244
-3.6383948 1.6821337 -0.72120482
-3.6253328 1.7031718 -0.72067201
-3.6094849 1.7228417 -0.7196064
-3.6041594 1.7475319 -0.72067201
-3.5889542 1.7674406 -0.71978402
-3.5877244 1.7942692 -0.72173762
-3.5906878 1.8233764 -0.72457922
-3.5733089 1.8422184 -0.72333604
-3.55845 1.8622844 -0.72262561
-3.5539095 1.8877757 -0.72404641
-3.5309973 1.9034777 -0.72173762
-3.5140705 1.9222747 -0.72067201
-3.504791 1.9452329 -0.72120482
-3.5013654 1.9715282 -0.7229808
-3.5114219 2.005662 -0.72759843
-3.4930882 2.0237176 -0.72635525
-3.4814539 2.0456111 -0.72653282
-3.4806733 2.0739849 -0.72901922
-3.4661973 2.0942855 -0.72866404
-3.4348187 2.1042073 -0.72475684
-3.4385643 2.1356251 -0.7283088
-3.4253953 2.1566834 -0.7283088
-3.3880384 2.1623108 -0.72315842
-3.3656168 2.1771805 -0.72120482
-3.3612483 2.2037246 -0.72315842
-3.3534017 2.2281187 -0.72440165
-3.3731394 2.2711825 -0.73168325
-3.3762131 2.3034816 -0.73541284
-3.3790171 2.3359034 -0.73914242
-3.3694575 2.3599794 -0.74020803
-3.3212016 2.3566957 -0.73274881
-3.2994864 2.3718612 -0.73115045
-3.2991917 2.4024873 -0.73434722
-3.2962692 2.4314461 -0.73701125
-3.2789226 2.4498594 -0.73647845
-3.2732468 2.477057 -0.73860961
-3.2642355 2.501883 -0.74003041
-3.2496002 2.5224681 -0.74020803
-3.2046585 2.519253 -0.73345923
-3.2053108 2.551738 -0.73718882
-3.1980219 2.57815 -0.73914242
-3.1897666 2.6039464 -0.74091846
-3.1638672 2.61532 -0.73860961
-3.1432321 2.6308947 -0.737544
-3.1240265 2.6475871 -0.73683363
-3.1308773 2.6865687 -0.74233925
-3.0898154 2.6844337 -0.73647845
-3.0666347 2.6974933 -0.73488003
-3.0632558 2.7280378 -0.73807681
-3.0588861 2.757983 -0.74109602
-3.0419056 2.7767003 -0.74109602
-3.0385449 2.8080008 -0.74447042
-3.0198207 2.8252478 -0.74411523
-3.0045722 2.8457537 -0.74464804
-2.9756875 2.8532398 -0.74180645
-2.9771929 2.8899486 -0.74660164
-2.9727428 2.9212656 -0.74997604
-2.9442956 2.9290416 -0.74731201
-2.9151719 2.9358809 -0.74447042
-2.9026165 2.9593325 -0.74589121
-2.8912525 2.9841537 -0.74766725
-2.8844566 3.0139227 -0.75068641
-2.868614 3.0344245 -0.75139683
-2.8412082 3.0426199 -0.74908805
-2.795125 3.0303419 -0.74180645
-2.7923875 3.0648918 -0.74606884
-2.7978904 3.1090298 -0.75264001
-2.8101487 3.1614397 -0.76116484
-2.7855027 3.1727073 -0.75974405
-2.7730761 3.1979167 -0.76169765
-2.7380352 3.1969354 -0.75743526
-2.7094686 3.2031579 -0.75494885
-2.685977 3.2151918 -0.75388324
-2.6818585 3.2505872 -0.75832325
-2.6655931 3.2715585 -0.7593888
-2.6380646 3.2786531 -0.75725764
-2.6246331 3.3032527 -0.75921124
-2.6103911 3.3270364 -0.76098722
-2.5935445 3.3476579 -0.76205283
-2.5556116 3.3408439 -0.75690246
-2.5350647 3.356462 -0.75690246
-2.5332508 3.3971961 -0.76258564
-2.5123584 3.4126759 -0.76258564
-2.472275 3.4017596 -0.75672483
-2.4467654 3.4104691 -0.75530404
-2.4280684 3.4286301 -0.75601441
-2.4154439 3.4555614 -0.75867844
-2.3975494 3.4751768 -0.75974405
-2.373965 3.4865689 -0.75903362
-2.3497825 3.4969859 -0.75814563
-2.3386164 3.5269201 -0.76152003
-2.3136978 3.5362628 -0.76045442
-2.2860837 3.5412989 -0.75850081
-2.2590241 3.5469596 -0.75672483
-2.2429781 3.5699191 -0.75867844
-2.2256982 3.5911422 -0.76027685
-2.2144034 3.6223619 -0.76400644
-2.2023001 3.6527352 -0.76755846
-2.1798458 3.6661794 -0.76755846
-2.1528287 3.6718459 -0.76596004
-2.127795 3.6807265 -0.76507205
-2.0866487 3.6612265 -0.75832325
-2.0699303 3.6842558 -0.76045442
-2.0587306 3.7175472 -0.76471686
-2.0302222 3.7197442 -0.76258564
-2.008759 3.7347314 -0.76311845
-1.9885709 3.7522035 -0.76418406
-1.9723448 3.7774189 -0.76684803
-1.9482293 3.7876995 -0.76649284
-1.9138297 3.7776372 -0.76205283
-1.8941305 3.7963533 -0.76347363
-1.8794822 3.825568 -0.76702565
-1.8615459 3.8485441 -0.76933444
-1.8476304 3.8803287 -0.77341926
-1.8150136 3.8728807 -0.76968962
-1.7903916 3.8821571 -0.76933444
-1.7726389 3.9065113 -0.77199847
-1.7514446 3.9236045 -0.77324164
-1.7297113 3.9396834 -0.77430725
-1.6961402 3.9285402 -0.77004486
-1.6700799 3.9343443 -0.76915681
-1.6508361 3.9563236 -0.77146566
-1.6287706 3.9718416 -0.77253121
-1.6065767 3.987237 -0.77359682
-1.5875161 4.0107441 -0.77626085
-1.5650167 4.0259128 -0.77732646
-1.5399338 4.0345201 -0.77714884
-1.5144585 4.0420504 -0.77679366
-1.4865707 4.0429544 -0.77519524
-1.4537177 4.0297837 -0.77093285
-1.4319196 4.046977 -0.77253121
-1.4099652 4.0640545 -0.77412963
-1.3821491 4.0642443 -0.77253121
-1.3665233 4.100656 -0.77785921
-1.3367535 4.0949311 -0.77519524
-1.298112 4.0608768 -0.76720321
-1.2758168 4.0772176 -0.76880163
-1.2568289 4.1047287 -0.77253121
-1.2378336 4.1331024 -0.77643842
-1.2143868 4.1472306 -0.77768165
-1.1807904 4.1262217 -0.77235365
-1.158366 4.1438141 -0.77430725
-1.1323997 4.1489449 -0.77395201
-1.1071744 4.1567659 -0.77412963
-1.0796674 4.1558619 -0.77270883
-1.0640585 4.20152 -0.77999043
-1.0314178 4.180263 -0.77484006
-1.0052888 4.1845989 -0.77448481
-0.98586959 4.2175193 -0.77945763
-0.96106416 4.2282872 -0.78034562
-0.93340284 4.2264171 -0.77892482
-0.90786541 4.2339892 -0.77928007
-0.87926173 4.2269554 -0.77697122
-0.85058415 4.2187657 -0.77448481
-0.82713562 4.2364612 -0.77679366
-0.8038674 4.2559614 -0.77945763
-0.77614659 4.2521005 -0.77785921
-0.75004154 4.256783 -0.77785921
-0.72539294 4.2700367 -0.77945763
-0.6987018 4.2714939 -0.77892482
-0.67385668 4.2844496 -0.78052324
-0.64814335 4.2923961 -0.78123367
-0.62249905 4.3011618 -0.78212166
-0.59569049 4.3019762 -0.78158885
-0.56347162 4.2616482 -0.77359682
-0.54273063 4.3079858 -0.78141123
-0.51488119 4.2995095 -0.77928007
-0.48326579 4.2566314 -0.77093285
-0.45682302 4.2565808 -0.77040005
-0.43248126 4.276927 -0.77359682
-0.40567154 4.2736225 -0.77253121
-0.37865731 4.2672091 -0.77093285
-0.35433263 4.2920094 -0.77501762
-0.32896692 4.3068585 -0.77732646
-0.30239618 4.3068328 -0.77697122
-0.27255979 4.2555747 -0.76738083
-0.24678504 4.2630615 -0.76844645
-0.22169353 4.2851343 -0.77217603
-0.19602568 4.3001766 -0.77466244
-0.16893595 4.2835989 -0.77146566
-0.1412019 4.2412786 -0.76365125
-0.10969674 4.0413828 -0.72742081
-0.084647395 4.0301728 -0.72528964
-0.059887558 4.0286489 -0.7249344
-0.03511465 4.023036 -0.72386885
-0.010626583 4.0950146 -0.73683363
0.014796807 4.1825876 -0.75264001
0.040451035 4.1814342 -0.75246245
0.068171911 4.3129606 -0.77626085
0.094634458 4.3124614 -0.77626085
0.12183549 4.3383598 -0.78105605
0.14731324 4.3040905 -0.77501762
0.16149804 3.9992635 -0.72013921
0.18603402 3.9981973 -0.72013921
0.21190503 4.0225315 -0.72475684
0.23762046 4.0388393 -0.72795361
0.27201238 4.1855936 -0.75477123
0.30138353 4.2358723 -0.76418406
0.32683864 4.2270751 -0.76294082
0.35113457 4.2053757 -0.7593888
0.38052958 4.24333 -0.76667041
0.40824679 4.2585483 -0.76986724
0.43147558 4.227571 -0.76471686
0.45381078 4.1915784 -0.75867844
0.48119801 4.2033811 -0.76134241
0.51074934 4.2316141 -0.76702565
0.53843725 4.2420688 -0.76951206
0.56147152 4.2162485 -0.76542723
0.58597386 4.2029767 -0.76365125
0.61175185 4.1993022 -0.76365125
0.63913143 4.206172 -0.76560485
0.66784751 4.2206402 -0.76897925
0.69181681 4.2048097 -0.76684803
0.7171073 4.1975756 -0.76631522
0.74147743 4.1853442 -0.76489443
0.7680316 4.1855555 -0.76578242
0.7957167 4.1913996 -0.76773602
0.81555027 4.1565008 -0.76223046
0.8402577 4.1475606 -0.76152003
0.84074557 4.0228748 -0.7394976
0.86168623 4.0003233 -0.73630083
0.89303082 4.0257058 -0.74198401
0.9295342 4.0719609 -0.75157446
0.95967108 4.0882168 -0.75565922
0.98819721 4.096602 -0.75832325
1.0275044 4.1477771 -0.76897925
1.0563283 4.1547475 -0.77146566
1.0857726 4.1634245 -0.77430725
1.1166332 4.1766496 -0.77803683
1.139641 4.1602278 -0.77626085
1.1691314 4.1673703 -0.77892482
1.19468 4.1601181 -0.77892482
1.2212927 4.1564865 -0.77963525
1.245641 4.1451445 -0.77892482
1.270474 4.1355419 -0.77856964
1.2902274 4.109828 -0.77519524
1.3163217 4.1046453 -0.77572805
1.3417886 4.0974264 -0.77590561
1.3650336 4.0835161 -0.77484006
1.3964155 4.0936923 -0.77839202
1.4228008 4.0887651 -0.77910244
1.4524679 4.0929427 -0.78158885
1.4711957 4.06637 -0.77821445
1.4947575 4.0535731 -0.77750403
1.5237536 4.0553803 -0.77963525
1.5524764 4.0560651 -0.78158885
1.5848377 4.0657187 -0.78531843
1.6141094 4.066895 -0.78744966
1.6331369 4.0423141 -0.78460807
1.6481827 4.0085516 -0.77999043
1.6765444 4.007442 -0.78176641
1.7122741 4.0233407 -0.78691685
1.7357563 4.0100493 -0.78638405
1.7611214 4.0011249 -0.78673923
1.7944794 4.0100069 -0.79064643
1.8263826 4.0150456 -0.79384327
1.8319937 3.9626706 -0.78567362
1.8575287 3.9540277 -0.78620642
1.8753985 3.9292326 -0.78354245
1.8990433 3.9167659 -0.78336483
1.9199979 3.8988595 -0.78212166
1.9465251 3.8922865 -0.78318721
1.989525 3.9180031 -0.79082406
2.0004542 3.8803535 -0.78567362
2.0365427 3.8915496 -0.79046881
2.0553057 3.8694193 -0.78851527
2.0682721 3.8368101 -0.78443044
2.0983853 3.8361351 -0.78691685
2.1199744 3.8197453 -0.78620642
2.1404755 3.8015201 -0.78514081
2.1632731 3.7874601 -0.78496325
2.184499 3.7707088 -0.78425282
2.2060993 3.7546885 -0.78372002
2.2401752 3.7596819 -0.78762722
2.2637112 3.7467082 -0.78780484
2.2763789 3.7159631 -0.78425282
2.3017323 3.7061059 -0.78514081
2.3013642 3.6552665 -0.77732646
2.3713865 3.7157443 -0.79331046
2.3898664 3.6945126 -0.79188967
2.4130299 3.6806021 -0.79206723
2.4361126 3.6665466 -0.79224485
2.4712029 3.6703072 -0.79632962
2.4964495 3.6591399 -0.79721767
2.5149381 3.6380861 -0.79597443
2.5411646 3.6282291 -0.79721767
2.5662262 3.6165817 -0.79810566
2.5918145 3.6055627 -0.79917127
2.6214185 3.5999346 -0.80148005
2.6434579 3.5837822 -0.80148005
2.6606865 3.561187 -0.80005926
2.6872375 3.5510731 -0.80148005
2.7143626 3.541548 -0.80307847
2.7414718 3.5318239 -0.80467683
2.7594428 3.5102932 -0.80361122
2.7656093 3.4740453 -0.79917127
2.7979889 3.4708028 -0.80236804
2.8335438 3.4711051 -0.80645287
2.8591769 3.4589639 -0.80769604
2.8632956 3.4209771 -0.80290085
2.9147673 3.4393847 -0.81142563
2.9338937 3.4191945 -0.81089282
2.9470747 3.3922122 -0.80876166
2.9723823 3.3792386 -0.81000483
2.9904435 3.3579967 -0.80929446
2.9984729 3.325696 -0.80592006
3.0314262 3.3210466 -0.80929446
3.0577569 3.3088892 -0.81089282
3.0847244 3.2972522 -0.81266886
3.1211367 3.2954128 -0.81693125
3.1419792 3.2769103 -0.81710887
3.1681948 3.263926 -0.81870723
3.1985071 3.2549553 -0.82137126
3.2309101 3.2478282 -0.82456803
3.2340202 3.2112985 -0.82030565
3.245234 3.1831238 -0.81817442
3.2795444 3.1775341 -0.82190406
3.3025341 3.160754 -0.82279205
3.3161454 3.1350214 -0.82137126
3.3417919 3.1206608 -0.82296968
3.3673863 3.1061032 -0.82456803
3.3929276 3.0913486 -0.82616645
3.4023237 3.0619125 -0.82385767
3.4144285 3.0350935 -0.82225925
3.4492545 3.0283723 -0.82616645
3.4789224 3.0168238 -0.82883042
3.5070832 3.0037439 -0.83113927
3.520189 2.9777188 -0.82989603
3.5127189 2.9346075 -0.82385767
3.5519114 2.9305379 -0.82883042
3.5736399 2.9117973 -0.82971847
3.5945055 2.8922832 -0.83042884
3.6021695 2.8622131 -0.82812005
3.6165674 2.8376265 -0.82740963
3.6673586 2.8413036 -0.83504647
3.6511171 2.7930319 -0.82740963
3.6674006 2.7699835 -0.82723206
3.6795952 2.7438979 -0.82616645
3.6749668 2.705513 -0.82137126
3.6930902 2.6840701 -0.82172644
3.7334757 2.6785727 -0.82705444
3.7345831 2.6448057 -0.82368004
3.758806 2.6274803 -0.82545602
3.7708075 2.6015723 -0.82456803
3.7793791 2.5734003 -0.82296968
3.7885642 2.5457702 -0.82154882
3.8098543 2.5262837 -0.82279205
3.8252835 2.5028591 -0.82279205
3.8298213 2.4724004 -0.82048327
3.8407698 2.4462109 -0.81959528
3.8465419 2.4168377 -0.81764168
3.838716 2.3791895 -0.81284642
3.849884 2.3535373 -0.81213605
3.8743651 2.3359694 -0.81426722
3.8877795 2.3116496 -0.81408966
3.8874595 2.2792876 -0.81107044
3.8860373 2.2465239 -0.80787367
3.8988938 2.2221498 -0.80769604
3.9201763 2.2025242 -0.80929446
3.9310343 2.1769984 -0.80876166
3.9460456 2.1537802 -0.80911684
3.9427209 2.1206677 -0.80574244
3.9330525 2.0844507 -0.80112487
3.946641 2.0607345 -0.80130243
3.9592111 2.0364795 -0.80130243
3.9610984 2.0068092 -0.79917127
3.9680545 1.9798298 -0.79810566
3.9801276 1.9554449 -0.79810566
3.980535 1.9254142 -0.79579687
3.9958282 1.9026467 -0.79650724
4.0038633 1.8764218 -0.79579687
4.0215564 1.8547052 -0.79704005
4.0283804 1.8279606 -0.79615206
4.0143609 1.7919729 -0.79117924
4.0072598 1.7593926 -0.78762722
3.9899735 1.7226747 -0.78212166
3.9968452 1.6966217 -0.78141123
4.0208025 1.677752 -0.78407526
4.0419474 1.6575315 -0.78620642
4.0538669 1.6334352 -0.78656167
4.0445986 1.6009218 -0.78283203
4.0561795 1.5767878 -0.78318721
4.0804882 1.5574869 -0.78602886
4.069695 1.5248209 -0.78212166
4.0595789 1.4926863 -0.77839202
4.0677361 1.4674151 -0.77821445
4.0590372 1.4361887 -0.77484006
4.0668435 1.4109331 -0.77466244
4.0689025 1.3837341 -0.77341926
4.0726485 1.3571854 -0.77253121
4.0911894 1.3355314 -0.77448481
4.116179 1.3157992 -0.77768165
4.09694 1.2819914 -0.77253121
4.1216655 1.2620175 -0.77572805
4.1321597 1.2375511 -0.77626085
4.1217318 1.2069162 -0.77288646
4.1063538 1.1751018 -0.76862401
4.0992708 1.1459073 -0.76596004
4.1138196 1.1228071 -0.76738083
4.1168275 1.0965304 -0.76667041
4.0949049 1.0638217 -0.76134241
4.0899081 1.0357748 -0.75921124
4.0952311 1.0104243 -0.75903362
4.0975261 0.98435736 -0.75832325
4.0948648 0.95717961 -0.75672483
4.0977821 0.93138123 -0.75619203
4.1082244 0.90728199 -0.75708002
4.1358447 0.88680601 -0.76116484
4.1229029 0.85760164 -0.75779045
4.1184406 0.83034146 -0.75601441
4.1273212 0.80581045 -0.75672483
4.1534615 0.78449184 -0.76063204
4.1175375 0.75156409 -0.75317281
4.11238 0.72457612 -0.75139683
4.1235399 0.70048416 -0.75264001
4.1656361 0.6813705 -0.75956643
4.1882091 0.65870559 -0.76294082
4.1824412 0.63152403 -0.76116484
4.1823416 0.60528481 -0.76045442
4.1830525 0.57920569 -0.75992161
4.1767716 0.55223668 -0.75814563
4.1595778 0.52401197 -0.75441605
4.1705317 0.49941662 -0.75583684
4.1891627 0.47559586 -0.75867844
4.1890664 0.44956723 -0.75814563
4.164331 0.42107895 -0.75317281
4.1629181 0.39514658 -0.75246245
4.1838889 0.3712514 -0.75583684
4.2027607 0.34695145 -0.75885606
4.1842046 0.31958032 -0.75512642
4.1527095 0.2915521 -0.74908805
4.1426353 0.26530954 -0.74695683
4.1481152 0.24011387 -0.74766725
4.1554074 0.21496293 -0.74873281
4.1448507 0.18892229 -0.74660164
4.1370821 0.16313608 -0.74500322
4.138989 0.13778123 -0.74518085
4.1092606 0.11154976 -0.73967522
4.0892057 0.085896522 -0.73594564
4.0985122 0.06093704 -0.737544
4.0978251 0.035779152 -0.73736644
3.7101846 -0.011091295 -0.73223186
3.6982756 -0.033748105 -0.72990102
3.7078073 -0.056590054 -0.73184335
3.7015061 -0.079213329 -0.73067796
3.7009506 -0.10192385 -0.73067796
3.6433923 -0.12271129 -0.71941239
3.6513922 -0.14541636 -0.72116047
3.6719897 -0.16881077 -0.72543365
3.6845992 -0.19205432 -0.72815293
3.6578901 -0.21317331 -0.72310281
3.6868598 -0.2375713 -0.72912407
3.6540201 -0.25797606 -0.72290862
3.6455219 -0.27986574 -0.72154897
3.6388483 -0.3018232 -0.72057778
3.6388817 -0.32431936 -0.72096628
3.6348703 -0.34645474 -0.72057778
3.5809515 -0.36349708 -0.71028334
3.6049869 -0.3883009 -0.71552771
3.615207 -0.41185772 -0.71805274
3.5794978 -0.43005162 -0.71144879
3.5806844 -0.45249912 -0.71222574
3.6109033 -0.47884822 -0.71882969
3.5894363 -0.49843046 -0.71513921
3.5571871 -0.51621693 -0.7093122
3.5578322 -0.53862131 -0.71008915
3.5438018 -0.55876023 -0.70795256
3.5228822 -0.57763577 -0.70445633
3.5540843 -0.60517126 -0.71144879
3.5367804 -0.624578 -0.70872951
3.5087581 -0.64185292 -0.70387363
3.4941516 -0.66136259 -0.70173705
3.5044682 -0.68561608 -0.70465058
3.5482712 -0.71682209 -0.71436226
3.5322824 -0.73617774 -0.71203148
3.5046813 -0.75289112 -0.70736986
3.5306447 -0.78116477 -0.71358538
3.4770057 -0.79170299 -0.70367938
3.4988253 -0.81928682 -0.70911795
3.4727509 -0.83568907 -0.70484477
3.4361322 -0.84921271 -0.69843507
3.4318078 -0.87052172 -0.69862932
3.435895 -0.89403337 -0.70057166
3.4132843 -0.91054642 -0.69707543
3.3849237 -0.9252634 -0.69241381
3.3772936 -0.94548649 -0.69202536
3.3761435 -0.96754295 -0.6929965
3.4021473 -0.99762762 -0.69960046
3.4109952 -1.0229939 -0.70270824
3.4009027 -1.0427537 -0.7019313
3.3729112 -1.0568539 -0.69746387
3.3570206 -1.0745387 -0.69552153
3.355026 -1.0966408 -0.69649273
3.3333461 -1.1122375 -0.69338495
3.3320303 -1.1345671 -0.6945504
3.3148129 -1.1514492 -0.69241381
3.3123088 -1.1734049 -0.69338495
3.3032012 -1.1930403 -0.6929965
3.3041034 -1.2163365 -0.69474459
3.288312 -1.2334858 -0.6929965
3.266937 -1.2483859 -0.69008297
3.2500741 -1.2648495 -0.68814063
3.272346 -1.2966955 -0.6945504
3.2470438 -1.3097762 -0.69085991
3.2135377 -1.319242 -0.68542135
3.2379673 -1.3525491 -0.69241381
3.2296071 -1.3723915 -0.69241381
3.2076192 -1.3863434 -0.68950027
3.2098286 -1.410736 -0.69183111
3.201112 -1.4304047 -0.69183111
3.1592302 -1.4350065 -0.6846444
3.1459126 -1.4523081 -0.68367326
3.1253974 -1.4661667 -0.68114823
3.1198843 -1.4870048 -0.68192518
3.1212962 -1.5112506 -0.68425596
3.0952399 -1.5221478 -0.68056554
3.0779438 -1.5371661 -0.67881739
3.0702038 -1.5569105 -0.67920589
3.0728025 -1.5820068 -0.68192518
3.0708621 -1.6049213 -0.68367326
3.0176291 -1.6007457 -0.67396152
3.0094779 -1.6201615 -0.67435002
2.9796808 -1.6277786 -0.6698826
2.9945171 -1.6598243 -0.67551541
3.0099261 -1.6925935 -0.68134242
3.0071523 -1.7154052 -0.68309057
2.9609106 -1.7131882 -0.67493272
2.9308848 -1.7199033 -0.67046535
2.9666383 -1.7654493 -0.68114823
2.9498708 -1.7800708 -0.67978859
2.9129548 -1.7822646 -0.67376733
2.9294717 -1.8171706 -0.68017703
2.9033198 -1.8257105 -0.6766808
2.8523595 -1.8181782 -0.66735756
2.8337345 -1.8308541 -0.66560948
2.8027525 -1.8353083 -0.66094786
2.8159575 -1.8687453 -0.66677487
2.7930429 -1.8783238 -0.66405559
2.7725484 -1.8893491 -0.661919
2.7358809 -1.8890454 -0.65589774
2.7475471 -1.9221054 -0.66153055
2.7557087 -1.9531105 -0.66638643
2.7357049 -1.9642605 -0.66444403
2.702976 -1.9660056 -0.65939397
2.6900723 -1.9819717 -0.65919971
2.6739299 -1.9955065 -0.65822858
2.6765029 -2.0231159 -0.661919
2.6663754 -2.0412896 -0.66250169
2.6716297 -2.0714378 -0.66696912
2.6418965 -2.0744624 -0.66269594
2.6268148 -2.0888019 -0.66211325
2.6185327 -2.1085722 -0.66327864
2.5895813 -2.1115799 -0.65919971
2.5720377 -2.1236818 -0.65803432
2.5476706 -2.1299846 -0.65512079
2.5532699 -2.1614234 -0.65997666
2.5436833 -2.1802416 -0.66094786
2.5147004 -2.1823051 -0.65686893
2.4857886 -2.1840956 -0.65279001
2.4877307 -2.2130001 -0.65686893
2.4675455 -2.2223141 -0.65512079
2.4487894 -2.2327857 -0.65376115
2.4400885 -2.2524273 -0.65512079
2.4247887 -2.2660174 -0.65473235
2.3844752 -2.2559068 -0.6475457
2.3967986 -2.2956026 -0.65473235
2.3897099 -2.3170948 -0.65667468
2.3593476 -2.3159082 -0.65220731
2.3527465 -2.3379478 -0.65434384
2.3141537 -2.3279886 -0.6475457
2.3053238 -2.347744 -0.64909953
2.2901919 -2.3611407 -0.64890534
2.2722683 -2.3716068 -0.64793414
2.2489085 -2.3762419 -0.64540911
2.2342858 -2.3899961 -0.64540911
2.2249024 -2.4094265 -0.64696294
2.2008226 -2.4128854 -0.64424366
2.1840065 -2.4241574 -0.64366096
2.1697431 -2.4382455 -0.64385521
2.1443806 -2.4397233 -0.64074749
2.119082 -2.4409819 -0.6376397
2.1123645 -2.4636202 -0.64016473
2.1016455 -2.4817755 -0.64152437
2.0989635 -2.5096745 -0.64540911
2.084774 -2.524019 -0.64579755
2.061188 -2.5268812 -0.64327252
2.0437984 -2.5371888 -0.64268982
2.0049889 -2.5205073 -0.63530892
1.99918 -2.5451059 -0.63841665
1.9991555 -2.5774794 -0.64346677
1.9707787 -2.5733416 -0.63938785
1.9543604 -2.5846031 -0.63919359
1.9460928 -2.6067657 -0.64171863
1.9190046 -2.6036534 -0.6380282
1.9070324 -2.6209319 -0.63938785
1.9012145 -2.6469259 -0.64288402
1.8849374 -2.6585414 -0.64288402
1.8719636 -2.6748798 -0.64404947
1.8504987 -2.6790512 -0.64230132
1.8152412 -2.6627953 -0.63569736
1.7999634 -2.6755114 -0.63608587
1.7927352 -2.7003994 -0.63938785
1.769145 -2.7006805 -0.63686275
1.7429572 -2.696655 -0.63336658
1.7211045 -2.6990273 -0.63142419
1.7201792 -2.734448 -0.63725126
1.6971626 -2.7349484 -0.63492042
1.688542 -2.758698 -0.6380282
1.661952 -2.7530501 -0.63433772
1.6460319 -2.7648816 -0.63472623
1.6275462 -2.7723913 -0.63414347
1.6119785 -2.7848725 -0.63472623
1.6079862 -2.8177159 -0.63997054
1.584896 -2.8172693 -0.6376397
1.5457002 -2.7874763 -0.62870497
1.5205712 -2.782274 -0.62540293
1.510447 -2.8045073 -0.62831646
1.4959691 -2.8189216 -0.62948185
1.4909143 -2.8515198 -0.63472623
1.465755 -2.8457882 -0.63142419
1.4469347 -2.8521039 -0.63084149
1.4250237 -2.8521528 -0.62889916
1.4040325 -2.853801 -0.62734532
1.3783718 -2.8455877 -0.62365484
1.3600414 -2.8522208 -0.6232664
1.3508488 -2.8782732 -0.62715107
1.3265828 -2.8722582 -0.62404329
1.3016301 -2.8642681 -0.62054712
