# .PCD v0.7 - Point Cloud Data file format
VERSION 0.7
FIELDS x y z
SIZE 4 4 4
TYPE F F F
COUNT 1 1 1
WIDTH 1538
HEIGHT 1
VIEWPOINT 0 0 0 1 0 0 0
POINTS 1538
DATA ascii
7.1438317 -54.869137 6.1855898
6.6227632 -53.425648 6.0181289
6.1179423 -51.963085 5.8490014
5.803504 -52.040142 5.8535571
5.4885588 -52.117268 5.8583355
5.1791592 -52.255783 5.8702254
4.8661509 -52.369698 5.87956
4.5485039 -52.442135 5.884449
4.2338223 -52.558212 5.8944502
3.9136848 -52.615906 5.8981171
3.5963132 -52.720234 5.9072294
3.275038 -52.778004 5.9113407
2.9564068 -52.891369 5.9218974
2.6377914 -53.028618 5.9353433
2.3157413 -53.121246 5.9440107
1.9926537 -53.211922 5.9526782
1.6688825 -53.31155 5.9625678
1.3431383 -53.376423 5.968791
1.0176444 -53.490974 5.980792
0.69029528 -53.564774 5.9884596
0.3620452 -53.631603 5.9955711
0.032994073 -53.685486 6.0014606
-0.2270629 -41.095329 4.5937667
-0.47509509 -40.739388 4.5542073
-0.71339649 -40.079899 4.4808669
-0.95450795 -39.874077 4.4584203
-1.1876857 -39.486015 4.4157491
-1.6159302 -38.140938 4.267179
-1.8135816 -37.380863 4.1832819
-1.9572272 -35.801155 4.007709
-2.1557505 -35.441284 3.9688165
-2.3386433 -34.911762 3.9110329
-2.5517991 -34.882881 3.9094772
-2.7685382 -34.901241 3.9133666
-2.9903388 -34.973705 3.9234786
-3.2090502 -35.000221 3.9285903
-3.4352651 -35.097576 3.9418137
-3.659915 -35.165783 3.951926
-3.8849864 -35.227619 3.9614823
-4.1062398 -35.24754 3.9664829
-2.2467065 -18.304766 2.06074
-2.3714342 -18.387228 2.07163
-2.4859424 -18.385134 2.0730746
-2.6056631 -18.418736 2.0786307
-2.7271962 -18.460405 2.085187
-2.8470702 -18.486544 2.0900762
-5.737639 -35.798233 4.0524912
-5.9793906 -35.895672 4.0676041
-6.2115488 -35.927837 4.0754938
-6.454494 -36.01524 4.0898285
-6.6875048 -36.040424 4.0972733
-6.9315548 -36.118759 4.1109414
-7.2166309 -36.396267 4.1475005
-7.46592 -36.478848 4.1620579
-7.7111573 -36.534451 4.1737256
-7.9275808 -36.451488 4.1697249
-8.1808414 -36.535023 4.1849489
-8.4244928 -36.569363 4.1947274
-8.6789513 -36.64463 4.2093954
-8.9593182 -36.819546 4.2357316
-9.2161417 -36.88826 4.2500663
-9.455637 -36.882999 4.2560668
-9.7105742 -36.933857 4.2687349
-9.8855572 -36.682621 4.2466216
-10.01789 -36.285984 4.2077289
-10.139514 -35.867119 4.1662803
-10.256378 -35.448143 4.1248317
-10.345641 -34.951908 4.0743823
-10.501178 -34.693726 4.0517135
-10.621922 -34.331474 4.0169325
-10.826385 -34.2467 4.0147099
-11.061965 -34.259068 4.024044
-11.339174 -34.394421 4.0480466
-11.592152 -34.449471 4.0628257
-11.840746 -34.486729 4.075716
-12.11618 -34.596325 4.0973845
-12.365999 -34.62709 4.1099415
-12.658463 -34.770954 4.1361661
-12.946241 -34.893887 4.1601686
-13.199809 -34.918839 4.1727252
-13.500233 -35.06163 4.1996169
-13.763723 -35.102112 4.2145071
-14.044061 -35.18037 4.2341757
-14.324003 -35.251896 4.2532887
-14.729903 -35.62254 4.3088498
-14.989437 -35.629505 4.3207397
-15.212856 -35.54874 4.3221846
-15.515957 -35.650646 4.3460755
-15.81766 -35.742893 4.3690782
-16.090904 -35.765701 4.3838573
-16.43404 -35.937435 4.4171939
-16.750151 -36.042309 4.4426408
-17.066463 -36.141048 4.4676433
-17.351948 -36.169163 4.4842005
-17.72113 -36.364868 4.5218706
-18.008286 -36.38549 4.5380945
-18.386505 -36.583321 4.5767651
-18.695101 -36.635349 4.5975447
-18.985825 -36.647903 4.6136575
-19.287577 -36.677612 4.632215
-22.850458 -42.813332 5.4249597
-23.074389 -42.601536 5.4159589
-23.300205 -41.785694 5.3481741
-23.434811 -41.427418 5.3206158
-23.858477 -40.421612 5.246942
-23.901386 -39.93251 5.2023821
-20.950743 -34.520199 4.5137587
-24.141712 -39.233307 5.149488
-24.277843 -38.917484 5.1274858
-24.475281 -38.70311 5.1189294
-24.445221 -38.135536 5.0635905
-24.581841 -37.835651 5.0436997
-24.699306 -37.510632 5.0204754
-24.758556 -37.102932 4.9861388
-24.947893 -36.894337 4.9785824
-25.017649 -36.51265 4.9476905
-25.160172 -36.241714 4.9317999
-25.252291 -35.90213 4.9065752
-22.221193 -31.184166 4.2801805
-25.373955 -35.150379 4.8460135
-25.509966 -34.885727 4.8310122
-25.651968 -34.631916 4.8175664
-25.679098 -34.227425 4.7831187
-25.814674 -33.971889 4.7694507
-25.882626 -33.630924 4.7437816
-25.974251 -33.324898 4.7230015
-26.043396 -32.994057 4.6986661
-26.184544 -32.757561 4.6877761
-26.299387 -32.490448 4.6725521
-26.384853 -32.190117 4.6525502
-26.456839 -31.876963 4.6306591
-26.56201 -31.216108 4.5816545
-26.652508 -30.935835 4.5644307
-26.829412 -30.757484 4.5623193
-26.895271 -30.453732 4.5416503
-26.984251 -30.179224 4.5253158
-27.036201 -29.866465 4.5032024
-27.13166 -29.604767 4.4887567
-27.216145 -29.333549 4.4728661
-27.284035 -29.047203 4.4546418
-27.356976 -28.769056 4.4376402
-27.463371 -28.528343 4.4264169
-27.529699 -28.24826 4.4090819
-27.644577 -28.020092 4.399859
-27.773146 -27.807049 4.3930802
-24.950844 -24.6765 3.9224784
-27.867043 -27.224533 4.3547435
-27.94775 -26.970217 4.3414087
-28.0156 -26.705654 4.326407
-28.084154 -26.443998 4.3118501
-28.182575 -26.212296 4.3021827
-28.277746 -25.979036 4.2922926
-28.372591 -25.746933 4.2826252
-28.423475 -25.476839 4.2666235
-28.482531 -25.216314 4.2521777
-28.593327 -25.003132 4.2457323
-28.694309 -24.782393 4.2380652
-28.792908 -24.560713 4.2302866
-15.051293 -12.679793 2.199198
-15.147147 -12.602457 2.201865
-15.20653 -12.494767 2.1993091
-15.033655 -12.198956 2.1634169
-15.098143 -12.098403 2.1619723
-15.395754 -12.182529 2.1938641
-15.498405 -12.109862 2.1978645
-15.552749 -11.99936 2.1950865
-15.641103 -11.915147 2.1971979
-32.423576 -22.864868 4.4348621
-33.139935 -23.066893 4.5134254
-33.918133 -23.30093 4.5998783
-15.778089 -10.696815 2.1300802
-15.764957 -10.547299 2.1195235
-15.771323 -10.412039 2.1117451
-15.78745 -10.284152 2.1054111
-15.791735 -10.149474 2.0976324
-15.789088 -10.011407 2.089076
-15.803881 -9.8853493 2.0829644
-15.798269 -9.7474871 2.074297
-15.845897 -9.6431341 2.0727413
-15.863867 -9.5211744 2.0674074
-15.899753 -9.4104948 2.0645182
-15.94518 -9.3057442 2.0629625
-16.004562 -9.209219 2.0632958
-16.095343 -9.1304588 2.0677407
-16.190964 -9.0538406 2.0728524
-16.337597 -9.0046978 2.0845201
-16.477249 -8.9502983 2.095299
-16.617722 -8.8949928 2.106189
-20.123926 -10.613583 2.5425651
-20.201015 -10.49632 2.5441208
-20.284502 -10.382133 2.5465655
-20.409943 -10.288792 2.5543442
-20.546572 -10.200045 2.5635672
-20.923943 -10.227852 2.6027932
-21.009588 -10.110478 2.6056824
-21.060452 -9.9762697 2.6043489
-21.056417 -9.8166208 2.5963483
-21.620283 -9.9184809 2.6583543
-21.693415 -9.7913589 2.65991
-38.252266 -16.984035 4.6784415
-53.455994 -19.907595 6.3768311
-59.458317 -20.905058 7.0458965
-69.932625 -8.6692162 7.8779783
-68.650093 -8.0828285 7.7277412
-65.623741 -7.318522 7.3818188
-65.08725 -6.85462 7.3165898
-61.627167 -6.1080952 6.9232178
-52.552765 -4.8831635 5.9001174
-51.503532 -4.467083 5.7791057
-47.801296 -3.5555015 5.3582864
-46.819672 -2.9052284 5.2438307
-46.456581 -2.5966463 5.2012711
-46.043842 -2.2902596 5.1533775
-45.554634 -1.9857895 5.0971494
-45.152832 -1.690758 5.0509229
-44.674637 -1.3983996 4.9963617
-44.354523 -1.1160009 4.9596915
-43.979977 -0.83658081 4.9171319
-43.579834 -0.56149167 4.8719053
-43.207806 -0.29154637 4.8300123
-43.024921 -0.026307471 4.8094544
-43.087879 0.23803936 4.8165665
-43.235661 0.50416458 4.8333459
-43.457314 0.77345508 4.8585706
-43.569981 1.0429177 4.8717942
-43.346203 1.3037286 4.8475695
-43.053349 1.5593878 4.8157887
-42.614029 1.8053634 4.7677836
-42.336121 2.0539024 4.7380033
-41.991283 2.2955203 4.7008882
-41.533001 2.5261681 4.651217
-41.358063 2.7703376 4.6334372
-40.881378 2.9904923 4.5819879
-40.650249 3.2244658 4.5582075
-40.390076 3.4533463 4.5313163
-40.029659 3.6700842 4.4933124
-39.719555 3.8875635 4.4610872
-39.313404 4.0915022 4.4181938
-39.194702 4.3224092 4.4077487
-38.814053 4.5216594 4.3679667
-38.563633 4.7325006 4.3429642
-38.163265 4.9212494 4.3011823
-37.916668 5.1261668 4.2768469
-37.745754 5.3390994 4.2611785
-37.410461 5.5260248 4.2270641
-37.161724 5.7224979 4.2028394
-36.869797 5.9093657 4.1738367
-36.572079 6.092052 4.144278
-36.314651 6.2784181 4.1193867
-36.124798 6.4741273 4.1022739
-35.771713 6.6376491 4.0667148
-35.580982 6.8283606 4.0497131
-35.270336 6.9934034 4.0191545
-35.097271 7.1831865 4.0043755
-34.846386 7.3548975 3.9808176
-34.584045 7.5214791 3.9560375
-34.407291 7.7044449 3.9411471
-34.122101 7.8607635 3.9139221
-33.940739 8.0386095 3.8986983
-33.763313 8.2157011 3.8840303
-33.567638 8.3865833 3.867362
-33.279694 8.5319319 3.840137
-33.098881 8.702364 3.8253579
-32.725323 8.8191853 3.7883542
-32.528812 8.9806776 3.7719083
-32.372681 9.1517172 3.7602403
-32.145035 9.3007402 3.7403495
-31.844362 9.4258814 3.7120135
-31.655613 9.5816555 3.6967897
-31.502234 9.7466326 3.6857886
-31.430464 9.9361477 3.6844552
-31.429432 10.148358 3.6915669
-31.158926 10.272562 3.6671202
-31.410851 10.569728 3.7043459
-33.887039 11.634859 4.0048199
-33.956642 11.892166 4.0215993
-34.130116 12.18853 4.0509357
-34.112587 12.418796 4.0578251
-29.622972 10.990749 3.5315511
-29.411816 11.118192 3.5144384
-29.285542 11.27631 3.5075488
-29.133453 11.423505 3.497659
-28.861601 11.521729 3.4734344
-28.706577 11.664561 3.4633224
-28.527931 11.796432 3.4504321
-28.407377 11.951216 3.4446537
-28.222958 12.077987 3.4312081
-28.167454 12.25926 3.4335415
-27.977194 12.381189 3.4195402
-27.831816 12.521633 3.4110949
-30.610458 13.998147 3.7622406
-30.761921 14.296274 3.7915769
-31.066334 14.670196 3.840137
-31.154047 14.946078 3.8622503
-31.646025 15.421667 3.9349241
-31.582867 15.631422 3.9389246
-26.420477 13.278947 3.3049734
-26.259718 13.400608 3.2950835
-26.112583 13.528111 3.2869716
-25.923531 13.632576 3.2736371
-25.754349 13.745994 3.2628582
-25.589998 13.860691 3.2527461
-25.426085 13.974369 3.2427452
-25.290384 14.10253 3.2364111
-25.101307 14.199705 3.2232988
-24.981813 14.335155 3.2191873
-24.83927 14.45668 3.2121866
-24.681631 14.568408 3.2032967
-24.513325 14.672622 3.1930735
-24.329378 14.766039 3.18085
-24.184996 14.882232 3.1738493
-24.051907 15.004575 3.1684043
-23.900591 15.114692 3.1606259
-23.712017 15.19992 3.147958
-23.584139 15.322929 3.1434019
-23.466434 15.452046 3.1402905
-23.273632 15.530654 3.1271782
-23.115332 15.630858 3.1187329
-22.849283 15.656123 3.0957305
-22.815647 15.839667 3.1042869
-22.675758 15.949634 3.0985086
-22.543472 16.064245 3.0938416
-22.410637 16.177837 3.0891745
-22.318169 16.320322 3.0901744
-22.258339 16.487123 3.0958416
-22.070902 16.558977 3.0838406
-21.976002 16.699501 3.0848408
-21.792002 16.771601 3.073395
-21.673006 16.892778 3.0711727
-25.438942 20.08007 3.6224492
-25.209681 20.151394 3.6073365
-25.068563 20.291943 3.6048918
-24.939739 20.44223 3.6043363
-24.85743 20.631048 3.6106701
-20.715475 17.409241 3.0242791
-20.537115 17.475483 3.0138338
-20.406914 17.581709 3.0105
-20.261204 17.673929 3.0049438
-20.127794 17.776207 3.001277
-19.985744 17.87023 2.9963875
-19.844038 17.963844 2.9916093
-19.706331 18.060425 2.9874978
-19.56163 18.149908 2.9823861
-19.438307 18.258707 2.9806082
-19.2971 18.350243 2.9761634
-19.17555 18.46003 2.9748299
-19.092524 18.607166 2.9796081
-19.048033 18.793064 2.9906092
-18.845873 18.823206 2.9769411
-18.737009 18.945553 2.9780524
-20.751822 21.241802 3.3190858
-20.610741 21.358006 3.3174191
-20.469017 21.473278 3.3157523
-20.328016 21.589066 3.3143077
-20.181629 21.698835 3.3120852
-20.038023 21.811281 3.3104184
-19.90181 21.931614 3.3100851
-19.764212 22.050358 3.3096406
-17.475647 19.739548 2.9464936
-17.258032 19.736429 2.9301589
-17.139854 19.845713 2.9307144
-17.012602 19.94446 2.9298253
-16.891186 20.04999 2.9300478
-16.756399 20.139505 2.9280474
-16.627464 20.2358 2.9271586
-16.494219 20.326639 2.9256027
-16.348057 20.401094 2.9218247
-16.22072 20.498682 2.9214914
-16.09219 20.594692 2.9210467
-15.958234 20.683603 2.9197133
-15.843669 20.797733 2.9220469
-15.760564 20.954123 2.9303811
-19.022633 25.616594 3.5663323
-15.521041 21.171598 2.9339368
-18.687033 25.82073 3.5625544
-18.52536 25.930862 3.5619986
-18.367622 26.04648 3.5623322
-18.208025 26.159508 3.5624433
-18.033665 26.251078 3.5597763
-17.876713 26.367817 3.5606651
-17.691376 26.442318 3.5559981
-17.478966 26.474903 3.545886
-17.23428 26.455917 3.5291066
-14.173155 22.051748 2.9297142
-14.018954 22.108923 2.9258251
-13.870382 22.174305 2.9231582
-13.737194 22.264069 2.9238248
-13.604976 22.355581 2.924825
-13.472152 22.446308 2.9258251
-13.336701 22.532824 2.9263806
-13.213219 22.639982 2.9297142
-13.090412 22.749056 2.9333813
-12.957936 22.841915 2.9350481
-12.823842 22.932268 2.9364927
-12.68577 23.015745 2.9371595
-12.55854 23.119349 2.9404931
-12.498527 23.349298 2.9599395
-12.356877 23.429066 2.9603839
-12.206929 23.492981 2.9589393
-13.1303 25.653442 3.2209651
-12.967724 25.723766 3.2197428
-12.70844 25.599007 3.1942959
-12.468201 25.506865 3.1731827
-12.276119 25.509457 3.1640706
-12.343163 26.056715 3.2225208
-12.242263 26.258963 3.238189
-11.687628 25.476374 3.1327343
-10.995472 24.361006 2.9871645
-10.820785 24.3717 2.9802749
-10.667856 24.430349 2.9793859
-10.524421 24.510872 2.9812748
-10.388515 24.609777 2.9854975
-10.255979 24.718035 2.9909425
-10.121381 24.822832 2.9960542
-9.9884682 24.933359 3.0019436
-9.8425713 25.012676 3.0041661
-9.6985836 25.097626 3.0071664
-9.5599165 25.197546 3.0120556
-9.4172668 25.288326 3.015945
-9.2800035 25.395105 3.0218344
-9.197793 25.657379 3.0462813
-9.0586491 25.765835 3.0525041
-8.9075079 25.841602 3.0549488
-8.7634125 25.939081 3.0600605
-8.6118965 26.015951 3.0628386
-8.4662046 26.11179 3.06795
-8.3148479 26.191662 3.0712838
-8.1784601 26.320957 3.0805068
-8.022007 26.38776 3.0825071
-7.8650427 26.45363 3.0845072
-7.707571 26.51857 3.0865076
-7.5561152 26.605515 3.0911746
-7.406539 26.701176 3.0969529
-7.2532153 26.785446 3.1015089
-7.1097989 26.909197 3.1107321
-1.3352766 5.1845026 0.5972628
-1.2736641 5.0740418 0.5835948
-1.1709496 4.7892637 0.54992485
-1.1406202 4.7924914 0.54948032
-1.0970619 4.7384057 0.54247963
-1.0598879 4.7091756 0.53836817
-0.99741387 4.5621967 0.52081084
-0.95144182 4.4836555 0.51114327
-0.91128314 4.4280863 0.50414258
-0.87903887 4.4082556 0.50125337
-0.8438679 4.3716083 0.49647513
-0.80260932 4.2995281 0.4876965
-0.76879889 4.2632957 0.48302937
-0.73495203 4.223875 0.47802886
-0.70079565 4.1792998 0.47247279
-0.66705579 4.1334858 0.46680555
-0.637869 4.1129498 0.46402749
-0.60778791 4.0843492 0.46036047
-0.57822245 4.0565186 0.45680457
-0.54875284 4.0265107 0.45302641
-0.52134156 4.0091071 0.45069286
-0.49330872 3.9846153 0.44758144
-0.46710703 3.9727623 0.4459146
-0.44162026 3.965677 0.44480339
-0.41800767 3.9752302 0.44558123
-0.39390233 3.9806871 0.4459146
-0.36882618 3.9761024 0.44513676
-0.3433058 3.9654195 0.44369218
-0.32056418 3.9872634 0.4459146
-0.29764113 4.0099678 0.44824818
-0.27350435 4.0186591 0.44902602
-0.24957992 4.0321641 0.45035949
-0.22599933 4.0544567 0.45269305
-0.20146309 4.0627155 0.45347092
-0.17735356 4.0827394 0.45558223
-0.15270823 4.0946751 0.45680457
-0.12767421 4.098515 0.45713794
-0.10267387 4.1051822 0.45780468
-0.077842422 4.1246142 0.459916
-0.052801989 4.1458821 0.46224955
-0.027436279 4.1570597 0.46347189
-0.0019291461 4.158143 0.46358302
0.023694269 4.1779532 0.46580544
0.049664859 4.2065473 0.469028
0.075722188 4.2200747 0.47058371
0.1020662 4.2384076 0.47269502
0.1288172 4.2625351 0.47547308
0.15583216 4.2855005 0.47814
0.18313374 4.3082933 0.48080692
0.21038389 4.3239636 0.482696
0.23739935 4.331522 0.4836961
0.2646361 4.3408961 0.48491845
0.29133278 4.3401818 0.48502958
0.31948039 4.359127 0.48736313
0.34873563 4.3887868 0.49091902
0.37735105 4.4063687 0.49314147
0.40755606 4.4386082 0.49703074
0.43788046 4.4676747 0.50058663
0.46847391 4.4955459 0.50403142
0.4980098 4.5103674 0.50603163
0.52854997 4.5319057 0.50880969
0.55695248 4.5335093 0.50936526
0.58819032 4.5566187 0.51236558
0.62026519 4.5834541 0.51581037
0.65296966 4.6120343 0.51947737
0.68285352 4.6187558 0.52069974
0.71133208 4.6154613 0.52081084
0.73963863 4.6110096 0.52081084
0.77591789 4.6544189 0.52625585
0.80852515 4.6730733 0.5289228
0.85506344 4.7678032 0.54025722
0.88955957 4.7908039 0.54347974
0.95408124 4.8087716 0.54681343
1.0218449 4.8385143 0.55159163
1.0494024 4.8224421 0.55048043
1.0826638 4.8323989 0.55236953
1.1212177 4.8644028 0.55681437
1.160663 4.8980479 0.56148154
1.200563 4.9313908 0.56614864
1.2392292 4.9576774 0.5700379
1.2809776 4.9942636 0.57514954
1.3196836 5.0170665 0.57870543
1.358976 5.0405407 0.58237249
1.4004569 5.070426 0.58681732
1.4445181 5.1076412 0.59215122
1.4910216 5.1511879 0.59826291
1.5367031 5.1895895 0.60381901
1.5826235 5.2266712 0.60926402
1.6140765 5.2149634 0.60904175
1.6715055 5.2855062 0.61848712
1.7090963 5.2912283 0.62037623
1.7583325 5.3316092 0.62637681
1.7989367 5.3442678 0.62915486
1.8552523 5.4017458 0.63726676
1.8929603 5.4033918 0.63882244
1.9417876 5.4356637 0.64404517
1.9982204 5.4871492 0.65160149
2.0415301 5.5008736 0.65471292
2.0878944 5.5217094 0.65871328
2.1560156 5.5978289 0.66938102
2.230953 5.6881199 0.68182671
2.2838659 5.7195506 0.68727165
2.3290181 5.7302885 0.69027197
2.3379328 5.6525207 0.68260455
2.357928 5.6032591 0.67838192
2.3727157 5.5430021 0.67282581
2.4066823 5.5283394 0.67282581
2.4212544 5.4698458 0.66749191
4.9765835 11.060448 1.3547817
5.0774179 11.102008 1.3636715
5.053721 10.873272 1.3393358
5.1593828 10.924734 1.3495589
5.2013874 10.840901 1.3431139
5.2630191 10.798955 1.3418915
5.3313851 10.770911 1.3424472
5.4210262 10.785058 1.3483367
5.7725811 11.31105 1.4185658
5.877532 11.344248 1.4272333
5.9141879 11.245518 1.4193436
6.0659008 11.364202 1.4390122
6.1056981 11.271715 1.4320115
6.1072555 11.111236 1.4163433
6.1506343 11.029285 1.4106761
6.1007605 10.783737 1.3840069
6.2993665 10.977114 1.4137875
6.3401089 10.892731 1.4078981
6.359848 10.774029 1.3975637
17.63438 29.461758 3.8379147
7.1696057 11.812383 1.5436891
7.2330956 11.753779 1.5418001
18.035351 28.910412 3.8086896
18.189562 28.763088 3.8039114
18.309395 28.563086 3.7922435
18.431793 28.369368 3.7814646
18.551956 28.174395 3.7705748
18.704624 28.03027 3.7665744
18.842861 27.865578 3.759907
18.957315 27.667452 3.7487948
19.082518 27.486933 3.7401273
19.223373 27.330311 3.7347934
19.3388 27.139 3.7247925
19.477039 26.98115 3.7194586
19.642813 26.861935 3.7195697
19.823236 26.762468 3.7225699
22.074467 29.422689 4.1114969
22.26601 29.301722 4.1136084
22.40538 29.11257 4.1062746
22.564041 28.949461 4.1027184
20.431652 25.884371 3.6858997
20.635386 25.815187 3.6940117
20.650213 25.511189 3.6685648
20.714382 25.271784 3.6523409
7.5482526 9.0938787 1.3201116
20.944941 24.922863 3.6387839
7.7397823 9.0951767 1.3340019
7.8077683 9.06182 1.3361132
7.9233236 9.0826435 1.3463365
8.8893633 10.064811 1.5001293
8.9536028 10.013041 1.5005739
8.8708143 9.798769 1.4765714
8.8092403 9.6115408 1.4564583
8.8802166 9.5704212 1.4584585
8.9829969 9.5628376 1.4656816
9.1099863 9.5795584 1.4767938
9.1782427 9.5335035 1.4783494
9.2462769 9.4869719 1.4799051
9.2673216 9.3925638 1.4740157
8.2867994 8.2962408 1.3097773
8.2626505 8.1711607 1.2979983
8.3822966 8.1883688 1.3088883
8.4323816 8.1367817 1.3088883
9.5805683 9.1319847 1.4785717
9.3361578 8.7902899 1.432456
8.8943596 8.2719097 1.356782
9.4894304 8.7174187 1.4394567
8.0973482 7.3473477 1.221213
8.1015768 7.2610421 1.2151014
8.0827303 7.1551986 1.2056559
8.1017933 7.0838809 1.2019889
8.1217909 7.0138984 1.1985441
8.1586266 6.9587717 1.1976552
8.201931 6.9092212 1.1977663
8.2434072 6.8581285 1.1976552
8.2861004 6.8080502 1.1977663
8.1255369 6.593009 1.1686523
8.1247358 6.5100894 1.1627629
8.1824512 6.4742985 1.1653186
8.2275047 6.4282537 1.1660964
8.2266655 6.3466873 1.1604292
8.2401562 6.2768178 1.1568733
8.2967815 6.2398796 1.1594292
8.3420935 6.1941867 1.1604292
8.3566999 6.1258435 1.1572068
8.4424343 6.1094122 1.163874
8.5129156 6.0811825 1.1684301
9.1957378 6.4841714 1.256772
9.1203432 6.3475714 1.2411039
9.1107912 6.2582889 1.2345477
9.8811045 6.6986256 1.3334463
10.240846 6.8511925 1.3763394
10.291814 6.7942495 1.3775617
10.338305 6.7342281 1.3782284
10.379431 6.6706662 1.3782284
10.408416 6.5994029 1.3766727
10.220386 6.3925829 1.3465587
10.250959 6.324533 1.3454474
12.00868 7.307776 1.5704696
10.147156 6.0898337 1.3218896
10.210842 6.0431499 1.3253344
10.325837 6.0259705 1.3354465
11.980262 6.8933907 1.5441337
10.25206 5.8154373 1.3165557
10.300561 5.7596979 1.3182225
27.799152 15.32244 3.5478861
27.892647 15.151579 3.5478861
28.009623 14.99328 3.5509975
28.143286 14.84339 3.5563314
28.319374 14.714875 3.5671103
28.789528 14.735547 3.6148927
29.004993 14.17825 3.6085589
29.1595 14.032766 3.6170042
29.049265 13.76083 3.5927794
29.54298 13.773407 3.6433401
29.204201 13.397927 3.5913348
29.2768 13.214393 3.5902236
29.376406 13.042974 3.5925572
29.519636 12.890319 3.6003358
29.842905 12.814037 3.6301165
36.528599 15.420157 4.4320841
36.668423 15.214775 4.4376402
33.466633 13.646102 4.0398235
35.193672 14.099117 4.237843
30.379141 11.95445 3.6490073
30.499197 11.786093 3.6546745
30.567225 11.597321 3.6542299
30.571684 11.384919 3.6463404
30.674568 11.209401 3.6503408
30.815741 11.047134 3.6590083
30.944822 10.879601 3.6663423
31.098373 10.719645 3.6766765
31.206873 10.54326 3.6817882
31.298338 10.360638 3.6850107
31.415205 10.185871 3.6913447
31.554785 10.01758 3.7004566
31.662161 9.8382254 3.7059016
31.809408 9.6703596 3.716125
31.918631 9.4900112 3.7220144
32.047832 9.3147879 3.7303486
32.158875 9.1334486 3.7366824
32.290924 8.9572058 3.7455723
32.43161 8.7822838 3.7555733
32.571358 8.6059723 3.7655742
32.652424 8.4133959 3.7689078
32.777649 8.2315264 3.7774644
32.956898 8.0618973 3.7923546
33.073418 7.8756423 3.8001332
33.176304 7.6853437 3.8064671
33.311062 7.5015035 3.8165793
33.378792 7.3018546 3.819135
33.589203 7.1322098 3.8381369
33.662506 6.9321904 3.8415818
73.760231 13.780262 8.3888063
75.630211 13.649922 8.5918264
77.990028 8.213603 8.7672882
10.205629 0.6956287 1.1424276
10.15416 0.62954754 1.1362047
10.34239 0.5775494 1.1568733
2.4984112 0.12363017 0.27834257
2.4802582 0.10747528 0.27623126
2.4729261 0.091957062 0.27534229
2.464504 0.076501764 0.27434218
2.4530051 0.061078269 0.27300873
2.4433975 0.045836601 0.27189749
2.434689 0.030727964 0.27089742
2.4209189 0.015694316 0.26934171
2.427228 0.004636555 0.22829142
2.4182508 -0.010218116 0.22744446
2.4151561 -0.025024837 0.22716212
2.4129663 -0.039810471 0.22697391
2.4156625 -0.054683246 0.22725624
2.4172716 -0.069561884 0.22744446
2.4277437 -0.084775761 0.22847964
2.4460776 -0.10044819 0.2302677
2.4653044 -0.11639581 0.23214987
2.4794557 -0.13231745 0.23356149
2.485554 -0.14794324 0.23422025
2.4955268 -0.16391017 0.23525544
2.4984462 -0.17950504 0.23563187
2.518141 -0.19645967 0.23760815
2.5198643 -0.21215779 0.23789048
2.5195067 -0.22770508 0.23798458
2.5200438 -0.24335174 0.2381728
2.5155323 -0.2585043 0.23789048
2.5178576 -0.27436617 0.23826692
2.485467 -0.28627643 0.23534955
10.619315 -1.2898707 1.0100492
10.680328 -1.363834 1.0166367
10.575058 -1.4163879 1.0074141
10.426168 -1.4616196 0.99405074
10.393362 -1.5221031 0.99179214
12.142499 -1.8544707 1.1599637
12.035521 -1.9137741 1.1508352
11.910595 -1.9689122 1.1400127
11.820775 -2.0286529 1.1325783
11.755176 -2.0917263 1.1274964
11.641274 -2.1452303 1.1178032
11.522275 -2.1964836 1.1076396
11.437275 -2.2530935 1.1007696
11.356894 -2.3097355 1.0943702
11.214869 -2.3525987 1.0820421
11.100968 -2.3999081 1.072443
10.996632 -2.4480727 1.0637851
10.927059 -2.503051 1.058515
10.856259 -2.5570402 1.0531508
10.704899 -2.5908163 1.0399756
10.636627 -2.6434841 1.0348938
10.525669 -2.6845853 1.0256711
10.466619 -2.7380323 1.0215304
10.369811 -2.7807987 1.0137194
10.309354 -2.8325045 1.0094845
10.190196 -2.8671241 0.99950904
10.099704 -2.9086552 0.99235684
10.023415 -2.9534056 0.98661619
9.9622087 -3.0019259 0.98238134
9.8475065 -3.0333934 0.97287637
9.7783785 -3.0779161 0.96788865
9.7157116 -3.1238389 0.96355969
9.6197443 -3.1582386 0.95593691
9.5501547 -3.200438 0.95094913
9.4662819 -3.2370706 0.9445498
9.3766804 -3.2708275 0.93758577
9.3301706 -3.3189571 0.93495077
9.2478609 -3.3537409 0.92873961
9.1757488 -3.3914373 0.92356366
9.1174994 -3.4336393 0.91979933
9.0674448 -3.4784641 0.91688198
8.9782381 -3.5075879 0.91001207
8.8927174 -3.5372205 0.90351856
8.8071737 -3.5659368 0.89702511
8.725297 -3.5952549 0.89090806
8.6672659 -3.6337116 0.88723785
8.6228285 -3.6774509 0.88497925
8.5270357 -3.698596 0.87745059
8.4804974 -3.7404008 0.87500376
8.4019747 -3.7675169 0.86926317
8.3451805 -3.803721 0.86578113
8.2900677 -3.8402081 0.86248732
8.2222118 -3.8702257 0.85787606
8.1363392 -3.8909659 0.85138255
8.0863419 -3.9282002 0.84865344
8.0504808 -3.9720163 0.84742999
7.9930243 -4.004837 0.84394801
7.9088502 -4.0235591 0.83764273
7.8583612 -4.0587616 0.83491361
7.8006859 -4.089798 0.83143163
7.7367744 -4.1170063 0.82729083
7.7008557 -4.1587238 0.82616156
7.6324134 -4.1824532 0.82155025
7.5657115 -4.2064676 0.81712717
7.5250177 -4.2444959 0.81552732
7.4582195 -4.2673497 0.81110418
7.3957305 -4.2920432 0.80715168
7.3443747 -4.3226967 0.8044225
7.2937775 -4.3533926 0.8017875
7.2379704 -4.380537 0.7985878
7.1753173 -4.4029961 0.79463524
7.1278777 -4.4343185 0.79237664
7.0710626 -4.459383 0.78908288
7.020081 -4.4876714 0.78644782
6.9723611 -4.5176682 0.78418922
6.9270344 -4.5488887 0.78221297
6.8857322 -4.5824809 0.78070724
6.8236442 -4.6018214 0.77684879
6.7319889 -4.6003513 0.76960242
6.6798983 -4.6251354 0.7668733
6.6342783 -4.6540284 0.76489705
6.5950475 -4.6871505 0.7636736
6.5556607 -4.7199659 0.76245022
6.5137062 -4.7507157 0.76094449
6.4556079 -4.7692957 0.75755656
6.3991218 -4.7885361 0.75435692
6.3616853 -4.8216968 0.75341582
6.3161864 -4.8485155 0.75153363
6.2517347 -4.8602929 0.74739289
6.2045865 -4.8850121 0.74532253
6.1620412 -4.9130597 0.74381679
6.1317797 -4.9507771 0.74381679
6.1120772 -4.9971299 0.74513429
6.1641202 -5.103107 0.75529796
7.5838065 -6.3573165 0.93429196
7.5605946 -6.4172597 0.93626827
7.6886945 -6.607585 0.95716029
18.51104 -16.107096 2.3183429
18.615049 -16.39938 2.3439405
18.491041 -16.492746 2.341023
18.354769 -16.574537 2.3366001
18.224068 -16.660648 2.3329296
18.062315 -16.717379 2.3253069
17.950682 -16.819725 2.3241777
17.795135 -16.880219 2.3174019
17.63378 -16.933926 2.3098731
17.494566 -17.007801 2.3052619
17.357239 -17.082701 2.3009329
17.218243 -17.155153 2.2964158
17.083218 -17.230785 2.2924631
16.952093 -17.309675 2.2890754
16.817877 -17.384745 2.285311
16.693007 -17.468895 2.2828641
16.556803 -17.540585 2.2789116
16.398624 -17.587961 2.2719476
16.26342 -17.658957 2.2681832
16.109207 -17.708338 2.2617838
15.975628 -17.779449 2.2583017
8.6518707 -9.7482805 1.2309214
8.5564556 -9.7607574 1.2258395
15.570721 -17.98394 2.2474794
15.447139 -18.064009 2.2455971
15.316738 -18.135632 2.242774
15.181578 -18.200985 2.2392919
15.046192 -18.265364 2.23581
14.896139 -18.311005 2.2301633
14.774776 -18.391195 2.2288458
14.658558 -18.477606 2.2283754
14.527716 -18.545256 2.2257404
14.348475 -18.549788 2.2156708
10.84866 -14.204372 1.6883819
14.114367 -18.717314 2.2148237
13.982012 -18.780407 2.2120945
13.862388 -18.860231 2.2114358
13.734708 -18.928818 2.2095537
13.602072 -18.990072 2.2069187
13.484721 -19.072365 2.2068245
13.308758 -19.070654 2.1971314
13.58849 -19.728346 2.2632897
14.123687 -20.77714 2.3736787
14.701407 -21.915058 2.4933844
15.295892 -23.106468 2.6182661
15.953046 -24.423481 2.756417
2.9450548 -4.7596426 0.52793229
2.9339459 -4.8073673 0.5312261
2.9038799 -4.8244262 0.53113198
2.8864186 -4.8627 0.53339058
2.8444583 -4.8596983 0.53113198
2.7996581 -4.851191 0.52830875
2.7486706 -4.831069 0.52426207
2.7301764 -4.867815 0.52642655
2.6988118 -4.8818617 0.52614421
2.6159391 -4.8012886 0.51569819
2.5878425 -4.8198805 0.51598054
2.5605471 -4.8400688 0.51645106
2.5349419 -4.8636346 0.51729804
2.5077796 -4.8844109 0.51786268
2.480907 -4.9059258 0.51852149
2.4578583 -4.9353147 0.52002722
2.4336658 -4.9628177 0.52134472
2.3733048 -4.9157944 0.51485121
34.28867 -91.731506 9.2560081
33.708366 -91.894371 9.2513962
33.146915 -92.107903 9.252243
32.574169 -92.289841 9.250267
32.001415 -92.471039 9.2485733
31.434381 -92.668488 9.2488556
30.856392 -92.83316 9.2462206
28.085554 -86.261658 8.5742874
27.555733 -86.432365 8.5742874
27.022799 -86.59317 8.5736284
26.489511 -86.752586 8.5731583
25.955568 -86.909676 8.5727816
25.427673 -87.087364 8.5747576
24.898026 -87.259941 8.5765457
24.371496 -87.444633 8.5798397
23.84651 -87.636711 8.5841684
23.311144 -87.791969 8.5852041
22.776014 -87.948769 8.586709
22.242279 -88.111961 8.5891562
21.701216 -88.24678 8.5891562
21.167448 -88.412163 8.5924501
20.113667 -88.809937 8.606472
19.57542 -88.963768 8.6095781
19.0375 -89.121147 8.6133423
18.510706 -89.334747 8.6228466
17.965149 -89.461281 8.624259
17.431847 -89.651917 8.632164
16.889708 -89.801216 8.6363983
15.792112 -90.034081 8.6395044
10.486679 -62.020336 5.9447126
9.802989 -60.222412 5.7664714
9.3538656 -59.773891 5.7179117
8.7331648 -58.140732 5.5564218
8.374979 -58.184353 5.5555749
7.9162416 -57.496922 5.4851818
7.3187542 -55.683784 5.3077874
6.7204499 -53.678841 5.112607
6.1859636 -51.995949 4.948576
5.8675871 -52.039852 4.949235
5.5549164 -52.138233 4.9552579
5.2393699 -52.215912 4.9594927
4.9374499 -52.444324 4.9782205
4.6231532 -52.55991 4.9864078
4.3083544 -52.682549 4.9954419
3.9887719 -52.757626 5.0001473
3.6674647 -52.81686 5.0035353
3.3449519 -52.864201 5.0059824
3.0236423 -52.9384 5.011158
2.7111242 -53.198555 5.0341206
2.3891985 -53.315636 5.0437198
2.063169 -53.359138 5.0465431
1.7381189 -53.444424 5.0535069
1.4105774 -53.470009 5.0550127
1.0831701 -53.512489 5.0583067
0.75623482 -53.619667 5.0679054
0.42869106 -53.808468 5.0854096
0.098807819 -53.967384 5.1002789
-0.23229738 -53.959011 5.0995259
-0.66500258 -40.115688 3.7914205
-0.9055723 -39.866009 3.7682698
-1.9279788 -36.076523 3.4139519
-2.1115725 -35.430965 3.3540049
-2.2985549 -34.955402 3.3102446
-2.5084226 -34.877087 3.3042216
-2.7245479 -34.888832 3.3068566
-2.9443388 -34.939907 3.3133502
-3.167191 -35.015377 3.3222904
-3.3889732 -35.067623 3.3291602
-3.6153858 -35.156094 3.3396063
-3.8390179 -35.20649 3.3465703
-4.0613523 -35.237652 3.3518405
-4.2839732 -35.265438 3.3569224
-2.349112 -18.394997 1.7518109
-2.467489 -18.42168 1.7557634
-2.5858672 -18.444645 1.7594336
-2.7051966 -18.470787 1.7634803
-2.8229899 -18.483364 1.7663035
-5.6996446 -35.841911 3.4294798
-5.9316382 -35.879932 3.436538
-6.1638074 -35.913513 3.4433136
-6.4086466 -36.013218 3.456583
-6.6453776 -36.059372 3.4648645
-6.8879499 -36.130386 3.475687
-7.1378007 -36.23103 3.4895208
-7.3818026 -36.293865 3.4998729
-7.6295018 -36.367733 3.5114481
-7.8874307 -36.481762 3.52707
-8.1360102 -36.544434 3.5378926
-8.3996611 -36.666561 3.5546439
-8.650507 -36.7248 3.5653722
-8.893014 -36.742634 3.5723362
-9.1591187 -36.851627 3.5883346
-9.425909 -36.954868 3.6039567
-9.66609 -36.948345 3.6090384
-9.8714724 -36.80949 3.6013215
-9.9911079 -36.362316 3.5634899
-10.121271 -35.970654 3.5311167
-10.254172 -35.603653 3.5011904
-10.346653 -35.113197 3.4591238
-10.447867 -34.67062 3.4217629
-10.624941 -34.490738 3.4103758
-10.801397 -34.313789 3.3993652
-11.033682 -34.315105 3.406141
-11.28409 -34.368778 3.4182808
-11.539368 -34.431992 3.4315503
-11.819361 -34.562126 3.4516892
-12.058096 -34.566032 3.4594061
-12.344374 -34.700565 3.4803925
-12.60458 -34.755196 3.4935675
-12.874894 -34.832214 3.5091896
-13.141362 -34.893242 3.5233998
-5.5495973 -14.466012 1.4634631
-5.5994892 -14.332467 1.4533935
-5.6472158 -14.197007 1.4431356
-5.7189012 -14.124255 1.4392772
-5.7739763 -14.012499 1.4314662
-5.8386745 -13.926311 1.4262903
-5.8970656 -13.827035 1.4197968
-5.9465356 -13.709305 1.4114212
-5.9686685 -13.532283 1.3969284
-6.0242953 -13.434542 1.3906232
-6.086381 -13.352936 1.3860118
-6.1573186 -13.291852 1.3835651
-6.2904892 -13.363713 1.3950462
-6.4136043 -13.411085 1.4040806
-6.534925 -13.452073 1.4125504
-6.6961956 -13.571533 1.4293958
-6.8208203 -13.612967 1.4381479
-6.97013 -13.700409 1.4518877
-7.1184831 -13.782102 1.465157
-7.2819672 -13.888938 1.4812495
-7.4474955 -13.995159 1.4974362
-7.6004057 -14.073588 1.5107995
-7.7368541 -14.118359 1.5206809
-7.9399319 -14.280316 1.5433609
-8.0782747 -14.32151 1.5531483
-8.2441187 -14.4082 1.5680174
-8.4652987 -14.586385 1.5930501
-8.5819101 -14.580498 1.598132
-8.7278519 -14.622456 1.6085781
-20.931559 -34.583782 3.8201234
-24.324108 -38.568069 4.3091102
-24.42034 -38.199165 4.2845478
-24.60067 -37.965889 4.2752314
-24.680689 -37.582058 4.2489748
-24.819811 -37.293163 4.2334471
-24.916796 -36.945377 4.2112374
-24.976749 -36.548496 4.1833816
-25.114391 -36.270142 4.1690769
-25.202103 -35.923836 4.1469617
-22.20261 -31.238846 3.621649
-25.376362 -35.244255 4.1041422
-25.487127 -34.943909 4.087297
-25.635389 -34.697983 4.0768509
-25.699879 -34.342358 4.0535121
-25.809689 -34.051521 4.037796
-25.887192 -33.721943 4.0174685
-25.975071 -33.409988 3.9992115
-26.075499 -33.117786 3.9833071
-26.175184 -32.82795 3.9676852
-26.248533 -32.508709 3.948487
-26.346682 -32.223724 3.9334297
-26.489305 -31.995508 3.9253366
-23.492977 -28.02453 3.455642
-23.525333 -27.715906 3.4353144
-26.655214 -31.015507 3.8646367
-26.769865 -30.764999 3.8538141
-26.88179 -30.513512 3.8428977
-26.953203 -30.218716 3.8265228
-27.032694 -29.936024 3.8116536
-27.20867 -29.397457 3.7853034
-27.329315 -29.166752 3.7771158
-27.36799 -28.851166 3.7579179
-27.425207 -28.55847 3.741637
-27.572857 -28.361814 3.7379668
-27.608788 -28.052317 3.7194276
-27.742451 -27.844299 3.7143457
-6.7799802 -6.7220879 0.90135407
-6.8715997 -6.7298169 0.90803576
-6.9070396 -6.6819892 0.90728289
-6.929915 -6.6222878 0.90493017
-6.9081554 -6.5208721 0.89683688
-28.15871 -26.254391 3.638118
-14.056697 -12.945893 1.8052645
-14.109356 -12.835282 1.8018765
-14.236721 -12.792383 1.8080877
-14.616511 -12.972427 1.8462015
-14.604499 -12.802434 1.8347204
-14.7031 -12.730177 1.8372612
-14.821792 -12.674659 1.8423431
-15.00957 -12.676618 1.8559889
-14.986917 -12.500746 1.8436606
-14.984191 -12.343355 1.8339674
-15.044201 -12.238616 1.8320853
-15.173342 -12.189723 1.8386729
-15.288407 -12.128565 1.8435665
-15.467558 -12.116796 1.856177
-15.606188 -12.071609 1.8638939
-15.582646 -11.901299 1.8523185
-15.734073 -11.864801 1.8616353
-15.375356 -11.446998 1.8108168
-15.171758 -11.151385 1.7787259
-15.220556 -11.044051 1.7764673
-15.232997 -10.91103 1.7700679
-15.225685 -10.765057 1.7615041
-15.101226 -10.538681 1.7395768
-15.095915 -10.397821 1.7315776
-15.064745 -10.240637 1.7207551
-15.028085 -10.081454 1.7094622
-15.025739 -9.9467402 1.7022158
-14.971463 -9.7792244 1.6892289
-15.042901 -9.6947289 1.6905464
-15.096223 -9.598505 1.6898876
-15.121942 -9.4850645 1.6862174
-15.141758 -9.3685284 1.6819825
-15.18706 -9.2681828 1.680665
-15.270084 -9.1907377 1.6835824
-15.351019 -9.1116056 1.6863115
-15.418667 -9.0242825 1.687629
-15.474611 -8.9300022 1.6877232
-15.550746 -8.8471909 1.6900759
-15.622973 -8.7618332 1.6920521
-15.726976 -8.6937428 1.6975104
-15.81237 -8.6147022 1.7009925
-15.871072 -8.5208139 1.7016512
-15.946817 -8.4358397 1.704192
-16.0177 -8.3479557 1.7062625
-16.078363 -8.2545166 1.7072977
-16.133152 -8.1579533 1.7077682
-16.190033 -8.0623579 1.7085211
-16.285681 -7.9856577 1.7134147
-16.39534 -7.9150119 1.7198141
-16.501144 -7.8416104 1.725837
-17.1243 -8.0093069 1.7858781
-19.665577 -9.0512257 2.0452406
-19.718023 -8.9291573 2.0449584
-19.955233 -8.8894281 2.063874
-20.076881 -8.796381 2.070838
-20.364542 -8.7738686 2.0949297
-20.58392 -8.7190304 2.1119635
-20.965143 -8.7291775 2.14556
-21.799667 -8.920085 2.225364
-53.431934 -19.972616 5.3909793
-46.967831 -17.228678 4.7278924
-47.123245 -16.958368 4.7329741
-47.044357 -15.636964 4.6850729
-9.6895523 -2.5730238 0.94652605
-9.7572012 -2.5269988 0.95160794
-9.7812099 -2.4692752 0.95245486
-9.7816763 -2.4056463 0.95104325
-71.167747 -8.9099493 6.7787004
-47.476112 -5.6482558 4.5183129
-47.624634 -5.3697805 4.5292296
-47.683414 -5.080308 4.5317702
-47.833359 -4.5033612 4.5404286
-47.911655 -4.2143121 4.5453219
-47.854259 -3.913518 4.5375109
-47.916088 -3.6227429 4.5411811
-47.839088 -3.3218403 4.5318646
-46.822269 -2.9626753 4.4337096
-46.56226 -2.6594856 4.4074535
-46.219761 -2.3554947 4.3735743
-45.683353 -2.0472069 4.3215322
-45.438393 -1.7569376 4.2972527
-44.997562 -1.4634421 4.2546215
-44.633488 -1.1774969 4.2194252
-43.993881 -0.89053553 4.1583486
-43.657074 -0.61576301 4.1260695
-43.175209 -0.34401593 4.0802388
-43.052063 -0.078863956 4.0684752
-27.051212 0.11635682 2.5559664
-27.004196 0.28185943 2.5516374
-27.095528 0.44910035 2.5604837
-27.135061 0.6163193 2.5645304
-27.270088 0.78682613 2.5777054
-27.344343 0.95692354 2.5852342
-27.390678 1.1268566 2.5902219
-27.437943 1.2974882 2.5953977
-27.549755 1.472249 2.6067848
-27.587908 1.6441066 2.6113021
-27.835587 1.8303376 2.6357703
-27.830782 2.0015991 2.6364291
-27.814007 2.1720178 2.6360526
-27.99559 2.3591104 2.654592
-28.292913 2.5590959 2.684236
-28.474867 2.7518041 2.7030578
-28.779306 2.9595723 2.7336428
-29.39896 3.2057145 2.7943428
-38.796124 4.471508 3.6904421
-38.576229 4.6861806 3.6721852
-38.283077 4.8891163 3.6470582
-38.073757 5.1000004 3.6300247
-38.021042 5.3306179 3.6280484
-37.722637 5.5249987 3.6027331
-37.801201 5.7736435 3.6135557
-44.947392 7.147666 4.3010168
-44.823128 7.4101701 4.2933941
-44.187111 7.5838456 4.236835
-36.09457 6.4231238 3.4643939
-35.959507 6.6269727 3.4552655
-35.559265 6.779067 3.4207277
-35.372433 6.9686456 3.4067998
-35.175842 7.1544018 3.3920248
-34.843845 7.3098011 3.3642628
-34.708817 7.5041056 3.3556046
-34.704876 7.7264533 3.3597455
-34.424885 7.8861203 3.3372536
-41.309334 9.7304173 4.0105987
-41.150154 9.9598141 4.0009995
-40.99165 10.188105 3.9915888
-40.833828 10.415319 3.9823661
-32.972477 8.6259365 3.2205594
-32.776611 8.7899227 3.2066314
-32.588623 8.9542065 3.1935503
-32.425735 9.1237955 3.1830101
-32.154846 9.2608643 3.1619298
-31.957994 9.4169044 3.14819
-31.746141 9.5665684 3.1330385
-31.502266 9.704318 3.1147816
-31.451624 9.9004192 3.1157227
-31.513496 10.132834 3.1279569
-31.131966 10.221347 3.0962422
-31.432087 10.533976 3.1324739
-32.884422 11.245619 3.2840824
-32.816681 11.447838 3.2842708
-30.9102 10.995967 3.1001008
-30.943228 11.222079 3.1102643
-29.668238 10.966122 2.9887705
-29.47089 11.099182 2.9756894
-29.300917 11.240934 2.9654317
-29.19059 11.40457 2.9612908
-28.898973 11.495517 2.9387991
-28.748535 11.640488 2.9307058
-28.598328 11.784426 2.9227066
-28.422653 11.916565 2.9121664
-28.218962 12.035278 2.898803
-28.210344 12.236726 2.9055789
-28.092829 12.391109 2.9012499
-27.846399 12.487073 2.8836515
-30.115505 13.72718 3.1273921
-30.245705 14.011306 3.1497898
-30.184387 14.208498 3.1524248
-30.040054 14.366379 3.1464961
-30.37311 14.755331 3.1908212
-30.482882 15.040537 3.2119954
-26.475462 13.265827 2.7981071
-26.317257 13.389204 2.7900138
-24.895418 12.858716 2.6475339
-24.756094 12.979793 2.6411345
-24.610069 13.096372 2.6340764
-24.427635 13.192252 2.6231599
-24.279877 13.305527 2.6160076
-24.100328 13.400069 2.6054673
-23.976032 13.524217 2.6009502
-23.858032 13.651299 2.5971859
-23.657578 13.729967 2.5844812
-23.472504 13.815783 2.5734706
-23.331726 13.926381 2.5673535
-23.210064 14.047628 2.563401
-23.031792 14.133541 2.5532372
-22.888844 14.239887 2.5470262
-22.767357 14.358818 2.5432618
-22.631012 14.467679 2.5378976
-22.505888 14.58299 2.5338509
-22.561611 14.816446 2.5503199
-22.791018 15.168068 2.5867398
-23.113514 15.588185 2.6341705
-22.877699 15.63422 2.6181719
-22.82963 15.807739 2.6237245
-22.724871 15.942375 2.6228774
-22.597408 16.060751 2.6194894
-22.443499 16.159546 2.6130903
-22.372074 16.317486 2.616384
-22.313168 16.485214 2.6212776
-22.095222 16.534725 2.6075377
-22.066345 16.725315 2.6161957
-25.355858 19.464769 3.0204852
-21.808352 16.955124 2.6100788
-26.10457 20.553545 3.1395321
-25.957726 20.697193 3.1370852
-25.810102 20.839819 3.1346385
-25.66325 20.982668 3.1323798
-25.501043 21.11244 3.1283331
-20.764381 17.406721 2.5601072
-20.551682 17.444252 2.5470262
-20.417078 17.546667 2.5436382
-20.298513 17.662464 2.5423207
-20.168842 17.768253 2.5396857
-20.033434 17.868477 2.536392
-19.884996 17.956369 2.5314982
-19.752399 18.05789 2.5286751
-19.601044 18.141556 2.523499
-19.475555 18.24855 2.5217111
-19.332882 18.338928 2.5177584
-19.212093 18.449623 2.5167232
-19.13279 18.60047 2.5212405
-19.036749 18.735672 2.5236874
-18.850904 18.78186 2.5142765
-18.757736 18.919796 2.517288
-22.339424 22.810738 3.0169089
-22.234343 22.983873 3.0217085
-18.31827 19.169729 2.5052421
-22.005974 23.313633 3.0293312
-21.935831 23.526863 3.039495
-21.779594 23.648565 3.0378952
-21.63006 23.77734 3.0373304
-21.491745 23.918497 3.0384598
-17.507095 19.725994 2.4919727
-17.316164 19.753689 2.4819973
-17.178993 19.841503 2.4797387
-17.053688 19.942753 2.4792681
-16.93614 20.053102 2.480021
-16.805763 20.148233 2.4789858
-16.655233 20.218699 2.4750333
-16.534632 20.325148 2.4755979
-16.392149 20.404488 2.4729629
-16.262928 20.500004 2.4723983
-16.139906 20.603323 2.4728687
-16.003437 20.689369 2.4713631
-15.854435 20.758692 2.4679751
-15.805285 20.959713 2.4803033
-19.044313 25.580128 3.013427
-15.571651 21.185781 2.4842558
-18.747095 25.836885 3.0163443
-18.614298 25.987848 3.0205791
-18.474031 26.129215 3.0237789
-18.322472 26.255138 3.0252845
-18.161592 26.367891 3.0253787
-17.975956 26.44425 3.0214262
-17.798384 26.531729 3.0188851
-17.624811 26.624664 3.0170972
-17.452948 26.719805 3.0156856
-14.223804 22.07065 2.4808681
-14.053392 22.102903 2.474751
-13.903224 22.165945 2.4722099
-13.767478 22.251682 2.4723041
-13.637946 22.347637 2.4736216
-13.505187 22.438574 2.4744687
-13.377924 22.538998 2.476445
-13.256474 22.649872 2.4796445
-13.125207 22.744583 2.4811504
-12.983926 22.822092 2.4808681
-12.851926 22.916092 2.4824679
-12.713964 22.999746 2.4830325
-12.579744 23.090439 2.4844441
-12.541428 23.360165 2.5051479
-12.405769 23.451639 2.5067477
-12.238635 23.483173 2.5020423
-14.74557 28.722155 3.0507879
-14.574897 28.823641 3.0520113
-14.406639 28.930351 3.0538936
-14.234115 29.028931 3.0550227
-14.058326 29.121103 3.0555875
-13.883223 29.214907 3.0564344
-11.351037 24.269287 2.5314982
-11.216061 24.369226 2.534698
-11.026898 24.350525 2.5256636
-10.852162 24.361341 2.5198288
-10.700481 24.422913 2.5193584
-10.56618 24.524681 2.5231225
-10.431421 24.626638 2.5269811
-10.286242 24.704885 2.5284867
-10.141624 24.785044 2.5302749
-10.009037 24.895761 2.5352626
-9.8634052 24.975225 2.5371447
-9.7232943 25.06962 2.5406268
-9.593379 25.192076 2.5470262
-9.451869 25.285902 2.5506022
-9.3088818 25.377068 2.5539901
-11.217102 31.169436 3.1302154
-9.0882187 25.748503 2.5799642
-8.9258251 25.79155 2.5787406
-10.649149 31.393253 3.1324739
-10.461033 31.472174 3.1338856
-10.088964 30.986712 3.0793028
-9.9131565 31.093563 3.0838199
-9.6806641 31.020754 3.0706449
-9.4107704 30.819628 3.0449531
-9.018362 30.19664 2.977854
-7.8063574 26.735533 2.6316295
-7.6121163 26.67762 2.6212776
-7.4434714 26.706562 2.6195836
-7.289134 26.787275 2.6230657
-7.1302543 26.852667 2.6251361
-1.3302425 5.1359267 0.50035858
-1.2619106 4.9982347 0.48614821
-1.1922292 4.8473353 0.47071445
-1.148324 4.7954988 0.46497384
-1.1032937 4.7355518 0.45848036
-1.0570637 4.6664968 0.4511399
-0.99781698 4.5338559 0.43768242
-0.9608283 4.4970546 0.43354166
-0.92675304 4.4716702 0.43053019
-0.8800891 4.3816166 0.42130756
-0.84539676 4.3468666 0.41744915
-0.81098032 4.3108788 0.41349658
-0.77436757 4.2599416 0.4081324
-0.74185067 4.2283306 0.40465039
-0.70809132 4.1866665 0.40022731
-0.67471147 4.1437664 0.39571011
-0.64696437 4.1330743 0.39429849
-0.61686003 4.1054616 0.39128703
-0.58640993 4.0727096 0.38780501
-0.55489147 4.0288901 0.38328782
-0.5274359 4.0114908 0.38131154
-0.49910173 3.9850161 0.3784883
-0.47146526 3.9613113 0.37594736
-0.44603485 3.9542367 0.37500629
-0.42355669 3.9737284 0.37660614
-0.3996633 3.9812055 0.37707666
-0.3738279 3.9687154 0.37566504
-0.34894589 3.9649837 0.3751004
-0.32655805 3.9908645 0.377359
-0.30409083 4.0195966 0.37989992
-0.28045571 4.0362844 0.38131154
-0.25593573 4.0419035 0.38168797
-0.23226558 4.0632768 0.38357013
-0.20803873 4.0785451 0.38488767
-0.18376695 4.0966525 0.38648751
-0.15928075 4.114615 0.38808733
-0.1342898 4.1234746 0.3888402
-0.10919611 4.1321831 0.38959306
-0.084040895 4.1427288 0.39053416
-0.058605969 4.1421709 0.39044005
-0.033292044 4.1553946 0.39166346
-0.0078398697 4.1804099 0.39401618
0.017956637 4.2142282 0.39721584
0.04401188 4.2329531 0.39900389
0.069983967 4.2326035 0.39900389
0.096156932 4.2410522 0.39985088
0.12260853 4.2553096 0.40126249
0.14948249 4.2763658 0.40333289
0.17694686 4.3052096 0.40615612
0.20401827 4.3179655 0.40747365
0.23151851 4.3355207 0.4092617
0.25953799 4.3578701 0.4115203
0.28784043 4.3800373 0.4137789
0.31592458 4.3950696 0.41537875
0.34404904 4.4079366 0.41679037
0.37317923 4.4305439 0.41914308
0.40340695 4.4618821 0.42234278
0.43288392 4.4811234 0.42441314
0.46149179 4.4892764 0.42544833
0.49097145 4.5041752 0.42714229
0.52213317 4.5317369 0.43005964
0.55425179 4.5640268 0.43344754
0.58539873 4.5852284 0.43580025
0.61590141 4.5993118 0.43749422
0.64618421 4.6102352 0.43890584
0.68124104 4.6524801 0.44332892
0.7126314 4.6669116 0.44511697
0.7448498 4.6850648 0.44728148
0.77764249 4.7049623 0.44963416
0.8110441 4.7265949 0.45217511
0.84474015 4.7479939 0.45471603
0.87963146 4.7740512 0.45772749
0.91263682 4.7881236 0.45960966
0.94681001 4.8068533 0.46196237
0.98283464 4.8331475 0.46506795
1.0173777 4.85041 0.46732655
1.0572187 4.8907843 0.47184375
1.0936987 4.9133582 0.47466698
1.1284945 4.9269338 0.47664326
1.1630412 4.9383283 0.47843131
1.2047964 4.9785128 0.48304263
1.243726 5.0048423 0.48633641
1.2840081 5.0347395 0.49000666
1.3231918 5.0585494 0.49311221
1.3637471 5.0859141 0.49659422
1.4036326 5.1091299 0.4996998
1.446281 5.1406717 0.50365233
1.4866134 5.1623144 0.5066638
1.530924 5.1960688 0.51089871
1.579151 5.240911 0.51626289
1.6186063 5.2549086 0.51861554
1.665467 5.29141 0.52322686
1.7021699 5.2943602 0.52454442
1.7883505 5.447454 0.54082513
1.867614 5.5732522 0.55447084
1.9027421 5.5645142 0.55475318
1.9371774 5.5536737 0.5548473
1.9401853 5.4544516 0.54609519
2.0045047 5.5276117 0.55465907
2.0442517 5.5310831 0.55625892
2.0988538 5.5734048 0.56181127
2.1476326 5.5985312 0.56566972
2.1986098 5.6279039 0.56999868
2.2496595 5.6559353 0.57423359
2.3003883 5.6817045 0.57828027
2.3302765 5.6555166 0.57705683
2.3572352 5.6227498 0.57517469
2.3772402 5.574297 0.57169265
2.3915896 5.5139389 0.56698722
2.4370291 5.5255761 0.56971639
2.4712949 5.5114274 0.56981051
5.6313357 12.354646 1.2823045
5.0567222 10.916073 1.1360602
5.0371079 10.701086 1.1168621
5.0541372 10.568488 1.1062279
5.1423807 10.585633 1.1113098
5.2006283 10.540489 1.1098981
5.1724396 10.323244 1.0903236
5.3178473 10.452806 1.1074513
5.38691 10.429708 1.1084865
5.4521909 10.399104 1.1087688
3.4481959 6.48 0.69271594
3.5351999 6.5463181 0.7021268
3.5652535 6.5061688 0.70015049
3.5905933 6.4580674 0.69732726
3.5655873 6.3214545 0.68490493
6.960608 11.993753 1.30969
5.7851915 9.8290577 1.0769602
7.0593014 11.827078 1.3008438
7.1157575 11.757137 1.2979265
16.980795 27.671551 3.0678215
17.120815 27.519501 3.0625515
17.233585 27.325514 3.05267
17.319416 27.091759 3.0383656
17.450674 26.931505 3.0323427
17.573515 26.759848 3.0250964
17.69932 26.594328 3.0186028
17.797037 26.388657 3.0075922
17.915928 26.216492 3.0004399
18.049248 26.06678 2.9959228
18.182549 25.918051 2.9915938
18.381035 25.861988 2.9980872
19.384617 26.922632 3.1348267
19.5823 26.848227 3.1400967
19.704073 26.669914 3.133321
19.854223 26.530973 3.1312506
19.971539 26.349146 3.1241925
20.081308 26.158983 3.1161933
20.208441 25.99283 3.1111114
20.342915 25.837057 3.107347
20.459478 25.659595 3.1010418
20.568382 25.473932 3.0937955
20.697201 25.314108 3.0897489
20.812138 25.138323 3.0838199
20.932734 24.970476 3.0789263
21.055277 24.805891 3.0745032
21.175291 24.639235 3.0698919
7.9427176 9.1283045 1.1426477
7.9794931 9.0577345 1.1399187
8.1886625 9.1809702 1.1617517
8.1080599 8.9790812 1.1424596
8.168376 8.9350405 1.1432124
8.2737646 8.9395504 1.1502706
