# .PCD v0.7 - Point Cloud Data file format
VERSION 0.7
FIELDS x y z
SIZE 4 4 4
TYPE F F F
COUNT 1 1 1
WIDTH 1499
HEIGHT 1
VIEWPOINT 0 0 0 1 0 0 0
POINTS 1499
DATA ascii
-6.6450105 0.98212123 0.74972224
-6.6919003 1.0310425 0.75572282
-6.7492313 1.0823056 0.76294577
-6.7983398 1.1330045 0.76927972
-6.8940849 1.1924723 0.78094757
-6.9453316 1.2452688 0.78761488
-7.0010738 1.2996453 0.79483777
-7.0651913 1.3564377 0.80306083
-7.1512942 1.4185107 0.81383967
-7.2330031 1.4808936 0.82417399
-7.2947645 1.5402275 0.83228594
-7.3706346 1.6035423 0.84206468
-7.4081764 1.6593772 0.84750962
-7.4801731 1.7237637 0.85695499
-7.5593915 1.7909276 0.86728936
-7.6631713 1.8652365 0.88051289
-7.7393222 1.9341409 0.890625
-7.801435 2.0005944 0.89918137
-7.8774381 2.0716724 0.90940464
-3.7806149 1.0194641 0.43646923
-3.7762041 1.0431713 0.43669149
-3.7525182 1.0614561 0.43469128
-3.6819727 1.0659559 0.42724609
-3.6639276 1.0851434 0.42591265
-3.6952481 1.11912 0.43035752
-3.6759694 1.1379542 0.42891294
-8.6958828 2.7495544 1.0184153
-8.7441044 2.8239291 1.0260828
-8.8700762 2.924823 1.0429733
-8.9461546 3.0108867 1.0540855
-9.0309067 3.1012204 1.066309
-9.152401 3.2058446 1.0829772
-9.3244219 3.330457 1.1057572
-9.4466915 3.4396205 1.1227589
-9.4431114 3.5040874 1.1248702
-9.5999184 3.6294296 1.1462057
-7.2857671 2.8059094 0.8716231
-7.2443571 2.8411293 0.86873394
-7.2304797 2.8870001 0.86917841
-7.22644 2.9369228 0.87084526
-13.229289 5.4707665 1.5993613
-13.193639 5.5510664 1.5991391
-13.130093 5.6194053 1.5955832
-13.078052 5.6923289 1.5934719
-13.024702 5.7644238 1.5912495
-12.948302 5.8258858 1.5862489
-12.920446 5.9089446 1.587249
-12.856009 5.9751287 1.5838042
-12.717555 6.0059481 1.5712475
-12.734226 6.1096597 1.5779147
-12.628601 6.1545944 1.5694695
-12.579911 6.2266765 1.568136
-12.508613 6.2872362 1.5640246
-12.440588 6.3489628 1.5603575
-12.443754 6.4471197 1.5656914
-6.6812334 3.5140731 0.84273142
-6.6797113 3.5657647 0.8452872
-6.6515889 3.6033704 0.84450936
-3.1568971 1.7357332 0.4014658
-3.1652832 1.7657186 0.40391049
-3.1500645 1.7826606 0.40335488
-3.134757 1.7994823 0.40279925
-3.1288102 1.8216825 0.40346599
-3.1115828 1.8373102 0.40268815
-3.0567613 1.8303384 0.39702091
-11.836171 7.1840425 1.5468006
-11.769861 7.242991 1.5439115
-11.738688 7.3234892 1.5456893
-11.663294 7.3762574 1.541689
-11.602754 7.4380298 1.5396888
-11.541896 7.4993372 1.5376886
-11.503134 7.574934 1.5386887
-11.451478 7.6420641 1.5380219
-11.41672 7.7205348 1.5396888
-11.38553 7.8016758 1.5419112
-11.312954 7.8543873 1.5385776
-6.0645542 4.266283 0.82772994
-6.0374527 4.3028369 0.82761878
-6.0101314 4.3392196 0.82750767
-11.060636 8.0885935 1.530799
-11.027568 8.1687298 1.5331326
-10.973263 8.2332573 1.5325769
-10.909877 8.2908134 1.530799
-10.8525 8.3527498 1.5299101
-10.808098 8.4246807 1.5309101
-10.749181 8.4852982 1.5299101
-10.698467 8.5523348 1.5301323
-3.9144912 3.1693523 0.5618149
-3.8788297 3.1800818 0.55948132
-2.7274315 2.2644858 0.39502072
-2.7142463 2.2818177 0.39513183
-2.7191167 2.3145297 0.39790988
-2.6152654 2.2539802 0.38468638
-1.136475 0.9922021 0.16733167
-1.110253 0.98139483 0.16433138
-1.0938383 0.9789151 0.16277567
-1.0856009 0.98360759 0.1624423
-1.0802779 0.99092162 0.16255343
-1.0770915 1.0002352 0.16299792
-1.0716583 1.0075055 0.16310903
-1.064736 1.0133774 0.16299792
-1.0606459 1.0219591 0.16333127
-1.0557787 1.0298351 0.16355352
-1.0501474 1.0369917 0.16366464
-1.0437648 1.0434158 0.16366464
-1.0373429 1.0498006 0.16366464
-1.0336599 1.0589893 0.16410913
-1.0271425 1.0653118 0.16410913
-1.0226438 1.0737522 0.16444249
-1.0153548 1.0792832 0.16433138
-1.0087134 1.0854931 0.16433138
-0.99867207 1.0880028 0.16377577
-0.99331307 1.0955819 0.16399801
-0.99055207 1.1060964 0.16466475
-0.98177016 1.1099212 0.16433138
-0.97428715 1.1151761 0.16422026
-0.96612704 1.119629 0.16399801
-0.95794898 1.1240239 0.16377577
-0.94719213 1.1253204 0.16310903
-0.94217634 1.1334029 0.1634424
-0.93962085 1.1445374 0.16422026
-0.93320662 1.1510531 0.16433138
-0.92985523 1.1614105 0.16499811
-0.91901118 1.1624182 0.16433138
-0.91553295 1.1727338 0.16499811
-0.91135538 1.1822634 0.16555372
-0.9058907 1.1902047 0.16588709
-0.89857078 1.1957407 0.16588709
-0.89121693 1.2012317 0.16588709
-0.88441712 1.2074791 0.16599821
-0.87815684 1.2144932 0.16622046
-0.87126601 1.2206671 0.16633157
-0.86490536 1.2276145 0.16655381
-0.86019528 1.2369766 0.16710943
-0.85258919 1.2422315 0.16710943
-0.84662402 1.2499071 0.1674428
-0.84170204 1.2592082 0.1679984
-0.83560252 1.2668372 0.16833177
-0.82781368 1.2719405 0.16833177
-0.82053095 1.2778319 0.16844289
-0.8137393 1.2845211 0.16866514
-0.80847752 1.2937026 0.16922075
-0.80208999 1.3011763 0.16955411
-0.79874104 1.3137138 0.17055421
-0.79219961 1.3211464 0.17088757
-0.78863424 1.3336793 0.17188767
-0.78344178 1.3436431 0.1725544
-0.77865237 1.3544544 0.17333226
-0.77179813 1.3617997 0.17366563
-0.76100236 1.3621728 0.17311001
-0.75550836 1.3720387 0.17377675
-0.74754983 1.3775219 0.17388786
-0.73767638 1.3794543 0.17355451
-0.73522568 1.395382 0.17499909
-0.7261917 1.3989851 0.17488797
-0.72212219 1.4122611 0.17599919
-0.72015387 1.4299766 0.17766602
-0.71445966 1.4405994 0.17844388
-0.71040791 1.4547774 0.17966622
-0.70233017 1.4608999 0.17988846
-0.69207662 1.4624875 0.17955509
-0.6868695 1.474813 0.18055519
-0.67656404 1.4762899 0.18022183
-0.66871953 1.4831308 0.18055519
-0.66283303 1.4944724 0.18144417
-0.65365064 1.4985113 0.18144417
-0.64718854 1.5088861 0.18222202
-0.63869107 1.5146599 0.18244426
-0.63090879 1.5222219 0.18288876
-0.62155676 1.5260645 0.18288876
-0.61329007 1.5326171 0.18322212
-0.60533029 1.5400505 0.1836666
-0.59766054 1.5483707 0.18422222
-0.59132165 1.5603713 0.18522231
-0.58277678 1.5667641 0.18555568
-0.57622248 1.5787113 0.18655579
-0.57155567 1.5962498 0.18822262
-0.56273943 1.6025393 0.18855597
-0.55386752 1.6087807 0.18888934
-0.5490756 1.6272132 0.1906673
-0.54095489 1.6362123 0.19133402
-0.53029197 1.6376101 0.19111179
-0.52354187 1.6512524 0.19233413
-0.51457977 1.6582299 0.19277862
-0.50584078 1.6661103 0.19333422
-0.49787417 1.6768034 0.1942232
-0.48924047 1.6855525 0.19488993
-0.48133269 1.6971266 0.19589004
-0.47197291 1.7038788 0.19633453
-0.4628081 1.7115388 0.19689013
-0.45432869 1.7220329 0.1977791
-0.44598585 1.7334496 0.19877921
-0.43727785 1.7438644 0.19966818
-0.42798647 1.7523067 0.20033491
-0.41975904 1.7655344 0.20155725
-0.40936658 1.770013 0.2017795
-0.40046346 1.7812172 0.20277959
-0.3931374 1.8001451 0.20466867
-0.38497463 1.8161334 0.20622438
-0.37422475 1.8204081 0.20644663
-0.36654875 1.8402127 0.20844682
-0.35562757 1.8443787 0.20866907
-0.34594664 1.8553181 0.20966916
-0.33526218 1.8613178 0.21011366
-0.32536972 1.8721516 0.21111375
-0.31601486 1.8868541 0.21255834
-0.30522382 1.8936629 0.21311395
-0.29634321 1.9131769 0.21511415
-0.28591654 1.923806 0.21611424
-0.27579173 1.9373301 0.21744771
-0.26443678 1.9429245 0.2178922
-0.25251025 1.9445106 0.2178922
-0.24155235 1.9539135 0.21878117
-0.25396445 2.1626263 0.24211679
-0.26657745 2.3962493 0.26823047
-0.25343078 2.4126649 0.26989731
-0.23872019 2.4151635 0.27000841
-0.22545986 2.4334049 0.27189749
-1.1739187 13.540566 1.5183533
-1.0956818 13.607941 1.5251318
-1.0181366 13.694684 1.5341327
-0.93855315 13.766112 1.5414667
-0.85788512 13.83311 1.5483563
-0.77770603 13.922454 1.5578017
-0.69626516 14.007363 1.5668025
-0.61177647 14.045129 1.5705807
-0.097537391 2.6218927 0.29201061
-0.081914537 2.6373417 0.29367742
-0.065330371 2.6218987 0.29189947
-0.049411722 2.6311929 0.29289958
-0.034317236 2.7129319 0.30201158
-0.018066905 2.7717247 0.30856776
-0.0010589592 2.7707894 0.30845666
0.016303625 2.8363342 0.31579071
0.032942973 2.7705936 0.30845666
0.04974803 2.7594094 0.30723432
0.066013061 2.7312336 0.3041229
0.081904359 2.7019696 0.30090034
0.098409876 2.69943 0.3006781
0.11467707 2.6918249 0.29990026
0.13128792 2.6930559 0.3001225
0.1501959 2.7358618 0.30501187
0.16710064 2.7368729 0.3052341
0.19219117 2.8597443 0.31912437
0.21589604 2.9427598 0.32856974
0.23441982 2.9473238 0.32923648
0.25791711 3.0092027 0.3363483
0.27855363 3.0313151 0.33901522
0.2968578 3.0265818 0.33868185
0.32241723 3.0919189 0.34623814
0.34268987 3.1017363 0.34757161
0.36401489 3.119318 0.34979406
0.38932055 3.1673326 0.35546127
0.41103512 3.1826258 0.35746148
0.43468264 3.2105739 0.36090624
0.46606442 3.2905035 0.37024051
0.48856908 3.3033123 0.37201846
0.52047372 3.3758843 0.38057485
0.5383473 3.354964 0.37857467
0.55549401 3.3310111 0.37624109
0.57253647 3.3079543 0.37401864
0.5907194 3.2926404 0.37268519
0.61036766 3.2860227 0.37235183
0.63033152 3.2812393 0.37224069
0.64755392 3.2626874 0.37057388
0.68270409 3.3326485 0.37901914
0.74048984 3.5053713 0.39924335
0.79239452 3.6406016 0.41524494
0.82405478 3.6773722 0.42002317
0.85530341 3.710016 0.42435694
0.88812846 3.7472486 0.42924631
0.92308688 3.790976 0.43491352
0.95572442 3.8228438 0.43924728
0.98928106 3.8563774 0.44380328
1.0371825 3.9425046 0.45447099
1.0670424 3.9571772 0.45691568
1.0905097 3.9476814 0.45658234
1.1025467 3.8978808 0.45158184
1.1278238 3.8958156 0.45213744
1.1455019 3.8678575 0.44969276
1.1660461 3.8502929 0.44847041
1.2257769 3.9598432 0.46213841
1.352494 4.2763228 0.50014216
1.4061892 4.3530598 0.51014316
1.4627427 4.4349585 0.52081084
1.4959491 4.4437966 0.52292216
1.5690119 4.568007 0.53870153
1.5950403 4.5526662 0.5380348
1.6209397 4.537178 0.53736806
1.654188 4.5420885 0.53914601
1.6664712 4.489924 0.53414547
1.7069908 4.51401 0.538257
1.8903449 4.9078145 0.58670622
1.9679458 5.0173283 0.60126323
2.0325909 5.0900731 0.61148643
2.0989497 5.1640525 0.62193191
2.129457 5.1483212 0.62159854
2.1440504 5.094852 0.61670917
2.147903 5.0176439 0.60893065
2.2004619 5.0544887 0.61504233
2.2346516 5.0481625 0.61593133
2.2672153 5.037981 0.6163758
2.2989116 5.0257821 0.61659807
2.329706 5.0115819 0.61659807
2.3773863 5.0331392 0.62104291
2.4641049 5.1349416 0.63548881
2.5334404 5.1974497 0.64515644
2.6640258 5.3813224 0.67004776
2.7246635 5.419929 0.67693734
2.8495655 5.582808 0.69949508
3.277359 6.3249903 0.79517114
3.6551476 6.9495139 0.87662363
3.7140975 6.9576421 0.88051289
3.7387338 6.9015145 0.87629026
3.8724327 7.0447946 0.89751458
4.2234011 7.5729437 0.96818817
4.2614698 7.5321822 0.96629912
4.2957358 7.4852047 0.96363217
4.7679825 8.1913776 1.0584192
4.8095665 8.147418 1.0565302
5.1294608 8.5688524 1.1153138
5.2804227 8.6994877 1.136538
5.3383889 8.6745424 1.1375382
5.3962488 8.6492119 1.1385382
5.4763069 8.6587763 1.1442055
5.6580458 8.8258142 1.1708747
5.9947171 9.2259521 1.2288804
6.2375793 9.4720373 1.2667731
13.773773 20.640699 2.7732544
13.905728 20.56403 2.7743657
14.013109 20.451265 2.7706988
14.177437 20.421227 2.7783661
14.273314 20.292395 2.7726989
14.426392 20.2449 2.778255
14.614324 20.244638 2.7904785
14.740615 20.157795 2.7909229
14.867572 20.07176 2.7915895
14.991642 19.981747 2.7918119
14.876466 19.576826 2.7479186
0.55054957 0.64598888 0.093546636
0.57280719 0.65566063 0.095991321
0.58339792 0.65958267 0.097102545
0.59273332 0.66191751 0.097991519
0.60618299 0.66045535 0.0988805
0.62712234 0.67493695 0.10165855
0.62853026 0.66817874 0.10121406
0.64289063 0.67511249 0.10288089
0.66149461 0.68619055 0.10521445
0.66569257 0.68211871 0.10521445
0.67195928 0.68014371 0.10554782
0.67892909 0.67882055 0.10599231
0.67813534 0.66974998 0.10521445
0.67938864 0.66279846 0.10476997
0.67700672 0.65240616 0.10376987
0.67380369 0.64138269 0.10265864
0.66615009 0.62633544 0.10088069
0.6699807 0.62223631 0.10088069
0.66500407 0.61004525 0.09954723
0.66799879 0.60528553 0.099436104
0.67096013 0.60051203 0.099324986
0.67463219 0.59638381 0.099324986
0.673042 0.5876537 0.098547131
0.67738724 0.58416253 0.098658256
0.68473929 0.58322001 0.099213861
0.70046538 0.58925271 0.10099182
0.70788747 0.58812183 0.10154743
0.70457238 0.57808876 0.10054733
0.67492378 0.54682708 0.095769078
0.6836949 0.54702592 0.096546933
0.68859714 0.54405391 0.096769176
0.688007 0.53675902 0.096213572
0.68814027 0.53009897 0.095769078
0.68742734 0.52285534 0.095213473
0.6890341 0.51743275 0.094991222
0.69299394 0.51378769 0.095102347
0.69613343 0.5095259 0.095102347
0.70246702 0.50757557 0.095546834
0.70556819 0.50325578 0.095546834
0.7110793 0.50063527 0.095880203
0.71576911 0.49739826 0.096102446
0.71307367 0.48905784 0.095324591
0.71852881 0.48634639 0.09565796
0.71984744 0.48082313 0.095435716
0.73273641 0.482968 0.096769176
0.74651104 0.48551506 0.098213762
0.76619613 0.49167243 0.1004362
0.75241286 0.47631767 0.098213762
0.76543176 0.47801659 0.09954723
0.7666589 0.47226727 0.099324986
0.77463591 0.47065428 0.099991716
0.78517807 0.47049543 0.10099182
0.80087841 0.47326204 0.10265864
0.81406695 0.47435048 0.10399211
0.83505088 0.47975591 0.10632567
0.83970761 0.47560388 0.10654791
0.84607959 0.47238284 0.10699241
0.84809184 0.46670276 0.10688128
0.84831971 0.460067 0.10654791
0.84762198 0.45297703 0.10610343
0.78445846 0.41299444 0.097769275
0.7763955 0.40267444 0.096435815
0.75199389 0.37835291 0.092768788
0.74985057 0.37152198 0.092213176
0.74675906 0.36429524 0.091546446
0.66569906 0.31962582 0.081212096
0.6394344 0.18942179 0.073211305
0.67398548 0.19520348 0.077100575
0.7845543 0.20146811 0.08921288
29.912058 7.5118227 3.4470985
29.866846 7.3059454 3.4366531
29.745794 7.0831785 3.4176512
29.397558 6.8099117 3.3727579
29.287544 6.5953407 3.3554227
1.0885165 0.23744857 0.12321622
1.0695382 0.22642988 0.12088266
1.0868552 0.21620534 0.12254949
27.624054 5.1604342 3.1408463
27.684538 4.9961348 3.1441798
27.68726 4.8213973 3.1410685
1.481094 0.24790913 0.16655381
1.5041711 0.24230343 0.16899849
1.5183961 0.23505151 0.17044309
1.5237418 0.22631614 0.17088757
1.5182148 0.21597953 0.17010972
1.5323123 0.20840663 0.17155431
1.5424316 0.20015551 0.1725544
1.5347544 0.1895871 0.17155431
1.5309539 0.17958537 0.17099869
1.5428915 0.17139998 0.17222103
1.5587392 0.1634912 0.17388786
1.5715805 0.15510024 0.17522134
1.5715131 0.14536233 0.17511021
1.5971277 0.13786414 0.17788826
1.6217179 0.12997721 0.18055519
1.625458 0.12024529 0.18088856
1.6261653 0.1102694 0.18088856
1.6228436 0.1000431 0.18044408
1.6254114 0.09019459 0.18066631
1.6209714 0.079972625 0.18011071
1.6154743 0.069765255 0.17944397
1.6109066 0.059665568 0.17888837
1.6052823 0.049593456 0.17822163
1.602576 0.039667662 0.17788826
1.6047765 0.029871525 0.17811051
1.5920111 0.019857595 0.17666592
1.5950843 0.010108989 0.17699929
1.6168419 0.0031558634 0.15168726
1.6088665 -0.0067306343 0.1509344
1.6008308 -0.01651914 0.15018153
1.5947268 -0.026242305 0.14961688
1.5806015 -0.035710275 0.14829937
1.5893089 -0.045666475 0.14914633
1.6079028 -0.056079127 0.1509344
1.6095179 -0.066025838 0.15112261
1.6140548 -0.076135576 0.15159315
1.6244928 -0.086622268 0.15262835
1.6269121 -0.09676604 0.15291066
1.6312548 -0.10707341 0.15338121
1.6385111 -0.11765198 0.15413408
1.668527 -0.13010645 0.15705143
1.6647213 -0.14009108 0.15676911
21.460394 -1.9410449 2.0357356
21.289528 -2.0573635 2.0206783
21.206188 -2.1807237 2.0139966
21.117193 -2.302599 2.0068445
21.033434 -2.4241486 2.0002568
20.947996 -2.5446372 1.9935751
20.815458 -2.658241 1.9824704
20.731657 -2.7769241 1.976071
20.672821 -2.8982732 1.9721185
20.572887 -3.0130894 1.9643074
20.481184 -3.1281419 1.9573435
20.34067 -3.2345212 1.9457681
5.6027193 -0.92606407 0.53564918
5.5557213 -0.95335102 0.53169662
20.031668 -3.5645969 1.9221469
19.977108 -3.6814873 1.9190414
19.917959 -3.797097 1.9155594
19.809305 -3.9024975 1.907372
19.699137 -4.0065098 1.8990904
19.618643 -4.1156545 1.8937262
19.522959 -4.2208071 1.8869505
19.428669 -4.3253736 1.8803629
19.319279 -4.4256077 1.8723637
19.2404 -4.5319672 1.8673759
19.161915 -4.6377602 1.8624823
19.067398 -4.7389188 1.8560829
18.982975 -4.8417993 1.8507187
18.897045 -4.9435711 1.8452605
18.825008 -5.0483394 1.8412138
18.72072 -5.1437054 1.8340616
18.648556 -5.2471509 1.830109
18.553825 -5.3435678 1.823992
18.461481 -5.4398646 1.8181573
18.389626 -5.5415492 1.8143929
18.306753 -5.6393332 1.8095934
18.246166 -5.743484 1.8070525
18.158455 -5.8385715 1.8018765
18.075939 -5.9346619 1.7972652
18.002371 -6.0331244 1.793595
17.896248 -6.1199546 1.786725
17.825459 -6.2181711 1.7834313
17.756016 -6.3164177 1.7803258
17.677616 -6.4109917 1.7763731
17.594057 -6.5031157 1.7719501
17.509104 -6.5941057 1.7674329
17.429274 -6.6864381 1.7634803
17.354536 -6.7802138 1.7600924
17.250628 -6.8619165 1.7537872
17.185129 -6.9582944 1.7514344
17.117258 -7.0533686 1.7488935
17.032341 -7.1409421 1.7446587
16.970804 -7.2378955 1.7428706
16.878582 -7.3212891 1.737977
16.782331 -7.4022164 1.7327069
16.708437 -7.4924231 1.7297895
16.636784 -7.583241 1.7271545
16.56826 -7.6751366 1.724896
16.498337 -7.7660522 1.7225432
16.427921 -7.8564005 1.7201905
16.349854 -7.9426956 1.7170849
16.254387 -8.0199604 1.7121913
16.185287 -8.1097326 1.7101209
16.12635 -8.2043762 1.7091799
16.036785 -8.2830687 1.705039
15.960972 -8.3683681 1.702404
15.890867 -8.4563236 1.7004278
15.823791 -8.5456266 1.6988279
15.7632 -8.6382523 1.697981
15.673355 -8.7144918 1.6940284
15.598779 -8.7987585 1.6917698
15.531534 -8.8868885 1.6903582
15.458632 -8.9715261 1.6883819
15.377553 -9.0510597 1.6855587
15.30976 -9.1381006 1.6842412
15.244884 -9.2267122 1.6833
15.163376 -9.3049793 1.680571
15.090779 -9.3883791 1.678877
15.027838 -9.4776106 1.6783123
14.946754 -9.5551624 1.6757714
14.870296 -9.6353254 1.6737951
14.80091 -9.7198286 1.6726658
14.731047 -9.8038435 1.6715366
14.657408 -9.8851395 1.6700308
14.579217 -9.9630938 1.6680545
14.516992 -10.051796 1.6679604
14.444447 -10.133248 1.666737
14.326006 -10.181891 1.6602435
14.287499 -10.287053 1.6630667
14.22974 -10.378633 1.6637255
14.160185 -10.461608 1.6630667
14.098119 -10.550086 1.663349
14.027565 -10.632183 1.6626903
13.962064 -10.718054 1.6626903
13.892106 -10.800467 1.6622198
13.818534 -10.879961 1.6613728
13.74451 -10.958959 1.6605258
13.678557 -11.044338 1.660714
13.605909 -11.124279 1.6601495
13.533562 -11.20438 1.6596788
13.463032 -11.28593 1.6594907
13.391252 -11.366392 1.6592083
13.313706 -11.441856 1.6582673
13.240246 -11.520719 1.6578908
13.171548 -11.603717 1.6581731
13.111988 -11.69492 1.6596788
13.048849 -11.783161 1.6608082
12.974099 -11.86099 1.6605258
12.904731 -11.943755 1.6609964
12.837014 -12.028158 1.6617492
12.770192 -12.113549 1.6626903
12.691316 -12.187541 1.6621257
12.616295 -12.265183 1.6621257
12.549314 -12.350744 1.663255
12.477528 -12.431729 1.6638197
12.401013 -12.508057 1.6638197
12.324032 -12.583912 1.6638197
12.259046 -12.672174 1.6655136
12.189314 -12.755793 1.6666429
12.12175 -12.841928 1.6681486
12.048156 -12.921889 1.6689014
11.976061 -13.003628 1.6699367
11.912795 -13.095278 1.6722894
11.842201 -13.179235 1.673701
11.773667 -13.265797 1.6754891
11.702548 -13.349768 1.6769948
11.627584 -13.429601 1.67803
11.552727 -13.509773 1.6791593
11.478607 -13.591053 1.6804768
11.406477 -13.67499 1.6821707
11.321088 -13.743185 1.6819825
11.247229 -13.825521 1.6835824
11.172162 -13.906691 1.6850882
11.100233 -13.992138 1.6871585
11.036272 -14.088199 1.6905464
10.964239 -14.17455 1.6928049
10.884311 -14.251053 1.6939343
10.805055 -14.328698 1.6952518
10.741901 -14.428267 1.6992043
10.664372 -14.509148 1.7009925
9.7981157 -13.50341 1.5759225
9.7481203 -13.609409 1.5812867
9.6701784 -13.677096 1.5822277
8.4420366 -12.096805 1.3932582
8.3552294 -12.130339 1.3911878
8.2806416 -12.181377 1.3911878
8.2057428 -12.231956 1.3911878
15.808057 -23.880173 2.7059751
10.048173 -15.383218 1.7357184
9.9821777 -15.488935 1.7407061
10.38906 -16.339615 1.829168
9.7971706 -15.619543 1.7417413
8.9416237 -14.451762 1.6052842
8.9004927 -14.584538 1.6139423
8.8883562 -14.767676 1.6281526
8.8438177 -14.899844 1.6367165
8.6697559 -14.812916 1.6212827
8.5767107 -14.862385 1.6209062
8.3834515 -14.735607 1.6014258
5.2794838 -9.4135323 1.0190836
5.2216244 -9.4457493 1.0190836
5.1726174 -9.4942217 1.0208716
7.4805779 -13.933452 1.493766
7.3311672 -13.858526 1.4808731
7.2510562 -13.91296 1.4819082
7.1755543 -13.976674 1.4839786
7.1098757 -14.06042 1.4882135
7.046989 -14.151012 1.4932013
6.9705467 -14.21544 1.4954599
6.8992052 -14.291115 1.4989419
6.8263426 -14.364651 1.5022357
6.7549453 -14.442338 1.506
6.6811857 -14.516071 1.5093879
6.6170425 -14.612114 1.5151285
6.555212 -14.71519 1.5216219
6.4835749 -14.797995 1.5260451
6.4056535 -14.86767 1.5291506
6.3259554 -14.934196 1.5319738
6.2403245 -14.987435 1.5334796
6.1621952 -15.059536 1.5369617
6.0908432 -15.149714 1.5423259
6.0149589 -15.230322 1.5467489
5.939754 -15.314281 1.5515484
5.8644528 -15.399749 1.5565362
5.7855377 -15.477407 1.560771
5.7148027 -15.578976 1.5674527
5.6362972 -15.661522 1.5722523
5.5520225 -15.729609 1.5756401
5.470705 -15.807596 1.5800632
5.4273367 -15.999257 1.5958735
5.3453932 -16.081383 1.600767
5.2675781 -16.178251 1.6071664
5.1845403 -16.261488 1.6122483
5.0950441 -16.326258 1.6155421
4.9970984 -16.36483 1.616295
4.9361906 -16.527781 1.6293759
4.846405 -16.597895 1.6333286
4.7685089 -16.711565 1.64161
4.6910033 -16.830658 1.6504562
4.6080327 -16.934053 1.6577967
4.496376 -16.933142 1.6549734
1.9072813 -7.3641615 0.71793699
1.8608415 -7.3708992 0.71746641
1.8174814 -7.3899126 0.71821928
1.7871705 -7.4638586 0.72433633
1.7806387 -7.6433949 0.74071121
1.7398635 -7.6813641 0.74334621
1.6959078 -7.7064795 0.74475783
1.6494218 -7.7206345 0.74513429
3.7130537 -17.918819 1.7286602
3.6110721 -17.981283 1.7325187
1.3447574 -6.9151068 0.66476578
1.2978855 -6.8997459 0.66250718
1.2389703 -6.8164849 0.65375513
1.186458 -6.7631621 0.64792037
1.1373029 -6.7251601 0.6435914
1.0897785 -6.6936889 0.63992119
1.0400671 -6.6451683 0.63465112
0.98951358 -6.5864472 0.62843996
0.94482625 -6.5628324 0.62561673
0.89408416 -6.4925642 0.61837035
0.85150534 -6.4771996 0.6163941
0.81063294 -6.473412 0.61554712
0.76913339 -6.4634347 0.6141355
0.7256676 -6.4343963 0.61093581
0.68733341 -6.4496174 0.61197102
0.64903843 -6.4665909 0.61319441
0.6042158 -6.4159374 0.60801846
1.4297969 -16.25355 1.5411965
0.7258575 -8.8737259 0.84046602
0.67845052 -8.9713287 0.84931219
0.62442511 -8.9902201 0.8507238
0.56805599 -8.9750042 0.84893572
0.51297569 -8.9783211 0.84893572
0.46451342 -9.1115494 0.86126393
0.41510376 -9.2594347 0.87500376
0.36331961 -9.392128 0.88733196
1.3923541 -42.81147 4.0478654
0.24900764 -9.432703 0.89081395
0.19219258 -9.4868059 0.89580166
0.13525629 -9.5783939 0.90436554
0.077036761 -9.6487312 0.9109531
0.017910028 -9.6918316 0.91499978
-0.041755594 -9.7375546 0.91932875
-0.10245995 -9.828702 0.92798674
-0.16458149 -9.9373846 0.93833864
-0.4716363 -20.767099 1.9624254
-0.59595013 -20.656338 1.9522616
-0.35199574 -10.062016 0.95057273
-0.42162803 -10.251648 0.96873564
-0.48748606 -10.311518 0.97466445
-0.5536164 -10.362017 0.97974628
-0.61961472 -10.39917 0.98360473
-0.68987876 -10.493521 0.99292147
-0.75610983 -10.514908 0.9953683
-0.81658304 -10.458459 0.99047464
-0.45862257 -5.4444141 0.51532179
-0.49130273 -5.4335656 0.51456892
-0.52156854 -5.3987379 0.51155746
-0.55264777 -5.3756294 0.50967526
-0.58767217 -5.3909416 0.51146334
-0.6306569 -5.473278 0.51965076
-0.66819048 -5.5019193 0.52275634
-1.3557169 -10.122141 0.96421844
-1.4113029 -10.067294 0.95979536
-1.4615057 -9.97964 0.95226669
-1.5176011 -9.9370232 0.949067
-1.5736978 -9.8970451 0.94614965
-1.624977 -9.8302336 0.94069135
-1.0257676 -5.9776435 0.57216322
-1.0629497 -5.9741774 0.57244551
-1.1073455 -6.0096421 0.57649219
-1.1518432 -6.0428309 0.58035064
-1.1985216 -6.0844889 0.58505607
-1.9275595 -9.4779148 0.91311765
-1.9975346 -9.5224218 0.91857588
-2.0472996 -9.4700899 0.91471744
-2.1042867 -9.4524908 0.91424692
-1.4652975 -6.3971248 0.61921734
-1.5424135 -6.5488739 0.63483936
-1.5977908 -6.6021824 0.6409564
-1.6514785 -6.6453934 0.64613235
-1.7146143 -6.7229204 0.65469617
-1.8195828 -6.9559493 0.6785056
-1.8663557 -6.9600387 0.68001133
-3.7609942 -13.688492 1.3407458
-1.9899173 -7.0726967 0.69337469
-2.0506358 -7.1206241 0.69930351
-2.1131425 -7.1718903 0.70560879
-2.1752055 -7.218842 0.7115376
-4.1427717 -13.448704 1.3290764
-4.2267079 -13.42778 1.3295469
-2.7773356 -8.6380959 0.8565585
-2.5097857 -7.6447401 0.75943875
-2.5854344 -7.715097 0.76800263
-2.6649394 -7.7932882 0.77741343
-3.0029171 -8.608695 0.8606993
-3.05001 -8.5741615 0.85909945
-3.0326397 -8.3624878 0.83971316
-3.0735388 -8.3157082 0.83688986
-3.1455586 -8.3525944 0.84253639
-3.2573721 -8.4911518 0.85853481
-9.6155481 -24.611584 2.4965842
-9.8929653 -24.87034 2.5289574
-9.8634138 -24.359774 2.4831266
-10.177315 -24.69828 2.5239697
-10.157753 -24.22772 2.4821856
-10.27107 -24.08252 2.4737158
-10.425379 -24.034571 2.4753156
-10.613235 -24.062149 2.4848206
-10.769233 -24.015652 2.4867969
-11.017141 -24.170156 2.5097592
-11.0443 -23.841038 2.4825621
-11.283236 -23.970087 2.5031717
-11.46833 -23.980337 2.5115473
-11.627 -23.933695 2.5140882
-11.355142 -23.013746 2.4246852
-12.049319 -23.683681 2.5107002
-12.18619 -23.59338 2.5090065
-12.34552 -23.546379 2.512018
-12.464977 -23.423605 2.50703
-13.849365 -25.644367 2.7538762
-12.786887 -23.333483 2.5139942
-12.934656 -23.263287 2.5149353
-13.692476 -24.274321 2.6333234
-13.845119 -24.19676 2.6340764
-13.595039 -23.425093 2.559072
-18.335579 -31.15134 3.41574
-16.864969 -28.254841 3.1093233
-13.787819 -22.780804 2.5159705
-17.927969 -29.215027 3.2390046
-14.063707 -22.605663 2.5154998
-19.704195 -31.242849 3.4904621
-19.915367 -31.152395 3.4939439
-20.891378 -31.390528 3.5632076
-20.256388 -30.035223 3.4233627
-19.427517 -28.428379 3.2536855
-29.229019 -42.212418 4.8523035
-20.685734 -29.486132 3.4036
-20.983351 -29.52338 3.422704
-19.866865 -27.592402 3.2128425
-19.990623 -27.408047 3.2055962
-21.624977 -29.269869 3.4388907
-21.789255 -29.116701 3.436538
-20.363033 -26.865652 3.185457
-20.523251 -26.734674 3.1847982
-19.312384 -19.383371 2.5853283
-18.699921 -18.539749 2.4880202
-18.453419 -18.072189 2.4404013
-18.17041 -17.577911 2.3886418
-18.064871 -17.262501 2.3607857
-17.911264 -16.906687 2.327095
-17.820246 -16.615198 2.3019681
-17.76075 -16.357166 2.2812643
-9.0404396 -8.2241869 1.154129
-8.6545563 -7.7766442 1.0986992
-8.331296 -7.3942971 1.0518333
-7.9789791 -6.9945655 1.0018618
-7.7357359 -6.6978493 0.96610057
-7.433928 -6.3571572 0.92346954
-7.1830068 -6.0666823 0.88761425
-6.967802 -5.812058 0.8565585
-6.7251635 -5.5400553 0.82249129
-6.7412677 -5.4842362 0.82032681
-6.7732391 -5.4415226 0.82013863
-6.8142996 -5.4060473 0.82107967
-6.8395047 -5.3579946 0.82013863
-6.8683147 -5.3128819 0.81966805
-6.4118218 -4.8971996 0.76150912
-6.3582859 -4.7948279 0.75162774
-6.3612342 -4.7361045 0.74852216
-6.3500652 -4.6675034 0.74381679
-5.7597356 -4.1794248 0.67154157
-5.8233113 -4.1712513 0.67596465
-5.8577385 -4.1417642 0.67699987
-5.8789592 -4.1028948 0.67652935
-5.4079847 -3.7250893 0.6195938
-5.2611294 -3.5765429 0.60020751
-5.3011646 -3.5563953 0.60227787
-5.3154149 -3.5188553 0.60143089
-5.341074 -3.4888961 0.60190141
-5.3665648 -3.458755 0.60237199
-4.7794328 -3.0390298 0.53423756
-4.8106408 -3.0175815 0.53564918
-4.8231392 -2.9843404 0.53499043
-4.4674397 -2.7265041 0.49358276
-4.0857406 -2.4592924 0.44963416
-4.0134296 -2.3823466 0.44003513
-3.9944625 -2.3380637 0.43636492
-3.9475107 -2.2781808 0.42968321
-3.8627677 -2.1977952 0.41895488
-3.7962937 -2.1292508 0.41029692
-3.780534 -2.090023 0.40719134
-3.6656475 -1.9972497 0.39345151
-3.6532733 -1.9615347 0.39081648
-3.6229994 -1.9167368 0.38629928
-3.3963196 -1.7702413 0.36089003
-3.3061514 -1.6975346 0.3501617
-3.3076208 -1.6727241 0.3492206
-3.3133662 -1.6501784 0.34875005
-3.3243232 -1.6302553 0.34884417
-3.3405395 -1.6128566 0.34950292
-3.3305905 -1.5829285 0.34743255
-3.3276153 -1.5565578 0.34611502
-3.3407209 -1.5377755 0.34649146
-3.3600698 -1.5217657 0.34752667
-3.3811662 -1.5063864 0.34875005
-3.3921695 -1.4864106 0.34893829
-3.4085405 -1.46872 0.34969115
-3.4129047 -1.4458364 0.3492206
-3.435498 -1.430608 0.35063222
-3.4663253 -1.4185498 0.35289082
-3.5017517 -1.4080234 0.35561997
-3.5168071 -1.3890704 0.35627872
-3.5364025 -1.3717854 0.35740802
-3.5549872 -1.3539579 0.35844323
-3.565093 -1.3328166 0.35863143
-3.5853546 -1.3153734 0.35985485
-3.61303 -1.3004286 0.36183113
-3.6369009 -1.2838681 0.36343098
-3.6541181 -1.2647841 0.36437204
-3.679723 -1.2484155 0.36616009
-3.7033744 -1.2311518 0.36775994
-3.7165389 -1.2102544 0.36832461
-3.727689 -1.1886369 0.36870104
-3.7415648 -1.167818 0.36935979
-3.7610381 -1.1486177 0.37058321
-3.7813702 -1.1295072 0.37190071
-3.8188105 -1.1152129 0.37491217
-3.8476007 -1.0980428 0.37707666
-3.8619375 -1.076552 0.37782952
-3.8771162 -1.0551878 0.3786765
-3.91046 -1.0385323 0.38131154
-3.9312153 -1.0182623 0.38272318
-3.9509032 -0.99753302 0.38404068
-3.9695175 -0.97636259 0.3852641
-3.9947975 -0.95662367 0.38714626
-4.0209537 -0.93683708 0.38912255
-4.0450749 -0.91632551 0.3909106
-4.0603442 -0.89362752 0.39185166
-4.0754867 -0.87077665 0.39279276
-4.088552 -0.84736949 0.39354563
-4.1297894 -0.82951897 0.39702764
-4.1553235 -0.80815375 0.39900389
-4.1866212 -0.78761035 0.40154484
-4.2099862 -0.76528913 0.40333289
-4.2342143 -0.74288261 0.40521505
-4.2475276 -0.71838176 0.40606204
-4.2783866 -0.69662446 0.40860295
-4.3061862 -0.67405367 0.41086155
-4.3240247 -0.64968902 0.41217908
-4.3496089 -0.62626547 0.41424945
-4.3849297 -0.60391009 0.41726092
-4.4092813 -0.5797177 0.4192372
-4.4404154 -0.55611479 0.42187223
-4.4615383 -0.53097534 0.42356616
-4.4815302 -0.50548607 0.42516601
-4.5142465 -0.48114249 0.42798927
-4.551784 -0.45691323 0.43128306
-4.574326 -0.43084168 0.43316522
-4.5858088 -0.40355107 0.4340122
-4.6268964 -0.37857005 0.43768242
-4.6529579 -0.35197404 0.43994102
-4.6143098 -0.32059008 0.43608257
-4.6489778 -0.29434568 0.43918815
-4.6864786 -0.26785815 0.44257605
-4.7128906 -0.24036407 0.44492877
-4.7361569 -0.21242222 0.44699913
-4.7891021 -0.18535772 0.45189276
-4.7901487 -0.15596884 0.45189276
-4.7820592 -0.12633786 0.45104581
-4.7897115 -0.097134322 0.45170456
-5.2511168 -0.074242018 0.49527672
-5.5152893 -0.044121198 0.52021539
-5.5403452 -0.010324667 0.52256811
-5.5721622 0.023807714 0.52557957
-5.6206908 0.058506917 0.53019089
-5.6461072 0.09342289 0.53263772
-5.6673245 0.1285625 0.53470808
-5.7241473 0.1649999 0.54016638
-5.7737694 0.20189564 0.54496592
-5.8161898 0.23911995 0.54910666
-5.8504133 0.27649608 0.55249459
-5.9022903 0.31525758 0.55757642
-5.9231024 0.35282978 0.5597409
-4.5181222 0.29692122 0.42685997
-4.4298244 0.31842443 0.41867253
-4.3970184 0.34319636 0.41575518
-4.3630848 0.36749414 0.41274372
-4.3508325 0.39336172 0.41180265
-4.3186083 0.41717738 0.40897939
-6.2956538 0.64726663 0.59710193
-6.3202653 0.68901366 0.59983104
-6.3950391 0.73690075 0.60735971
-6.4417887 0.78236932 0.61225337
-6.4862442 0.82818681 0.61695874
-6.5491261 0.87709051 0.62345225
-6.6077061 0.9262439 0.62956929
-6.6403146 0.97239745 0.63323951
-6.6814623 1.0203388 0.63775671
-6.7724133 1.0767956 0.64707339
-6.7971101 1.1235265 0.65008491
-6.8695674 1.1788529 0.65770763
-6.9357171 1.2340636 0.66476578
-7.015151 1.2926562 0.67314142
-7.0765224 1.3489136 0.6798231
-7.1247659 1.4034704 0.6852814
-7.2272367 1.4697816 0.69600976
-7.2882357 1.5288173 0.70278555
-7.3497524 1.5888665 0.70965546
-7.4341269 1.6549201 0.71878397
-7.5257268 1.7238467 0.72866535
-7.5566764 1.7798065 0.73271197
-7.6781778 1.8582258 0.74560481
-7.7361956 1.922593 0.75238061
-7.7773104 1.9835585 0.75755656
-7.8314495 2.0486283 0.76405007
-3.8041241 1.0199928 0.37114784
-3.7939541 1.0422602 0.37077141
-3.7846124 1.0647109 0.37048909
-3.7674849 1.0848818 0.36945391
-3.7244687 1.097285 0.36587778
-3.7157593 1.1195427 0.36568958
-3.6736166 1.1314764 0.36220756
-8.6293344 2.7162097 0.85401762
-3.6101711 1.1606252 0.35731393
-3.6512215 1.1985935 0.36211345
-3.607928 1.2089528 0.35853735
-3.5816021 1.224625 0.35665515
-3.5815403 1.2492015 0.35740802
-3.5794361 1.273156 0.35797268
-3.5584538 1.290343 0.35665515
-3.5495358 1.3118078 0.35656106
-3.5358298 1.3314573 0.3559964
-3.5210869 1.3506315 0.35533765
-3.5080969 1.3703996 0.3548671
-3.4912968 1.3885872 0.35402012
-3.4697917 1.4047523 0.35270262
-3.4684708 1.4290504 0.35345548
-3.4559646 1.4487659 0.35307905
-3.4369366 1.4656477 0.35204387
-3.4114392 1.4795775 0.3503499
-3.3859003 1.4932499 0.34865597
-3.3721323 1.5119604 0.34818542
-3.3700385 1.5359263 0.34893829
-3.3524208 1.5528094 0.3480913
-3.3302193 1.5674139 0.3467738
-3.3187428 1.5869594 0.34658557
-3.3152113 1.6103381 0.34724432
-3.301697 1.6288874 0.34686789
-3.2729485 1.6397498 0.34489164
-3.258389 1.6575441 0.34442109
-3.2552333 1.681161 0.34517395
-3.240448 1.6987916 0.34470341
-3.214144 1.7102242 0.34300947
-3.1974578 1.726602 0.34235069
-3.1833112 1.7442749 0.34197426
-3.1647177 1.7594203 0.34112731
-3.1564639 1.780273 0.34140962
-3.1420243 1.7976294 0.34103319
-3.1421289 1.8233711 0.34225661
-3.1300237 1.8421115 0.34216249
-3.1007102 1.8505669 0.34018621
-3.0756695 1.8613096 0.33868048
-3.0540085 1.8738979 0.33755118
-3.0492153 1.8968091 0.33830404
-3.0459402 1.9207939 0.33924514
-3.0399687 1.9432008 0.33990389
-3.0229752 1.9585689 0.33933923
-3.0084043 1.9754413 0.33905691
-2.9962265 1.9938633 0.33905691
-2.9847615 2.0127668 0.33915102
-2.9715333 2.0304813 0.33905691
-2.9500151 2.0424418 0.33802173
-2.9252024 2.0519278 0.33661011
-2.9141798 2.0709915 0.33679831
-2.9054573 2.0917423 0.33726886
-2.890959 2.1083572 0.33708063
-2.8803701 2.1278307 0.33736297
-2.8712451 2.1484468 0.33783349
-2.8516612 2.1612132 0.33708063
-2.8383467 2.1786699 0.33708063
-2.8186374 2.1911559 0.33632776
-2.8012288 2.2053301 0.33585724
-2.789201 2.2237179 0.33604544
-2.7863483 2.2495465 0.33736297
-2.7709515 2.2653403 0.33717474
-2.753932 2.2797604 0.33679831
-2.7185295 2.278707 0.33416328
-2.7098093 2.2998545 0.33482203
-2.6518548 2.2788024 0.32936376
-1.1440048 0.99518728 0.14218232
-1.0952971 0.96467572 0.13681814
-1.0945581 0.97601688 0.13747691
-1.0870711 0.98138022 0.13728869
-1.0832332 0.99004704 0.13757101
-1.0785993 0.9980275 0.13775922
-1.0724553 1.0046269 0.13775922
-1.06916 1.013929 0.13813566
-1.0665088 1.0239182 0.13860621
-1.0580646 1.028361 0.13832387
-1.055992 1.0390238 0.13888852
-1.0517126 1.0475917 0.13917086
-1.045265 1.0540252 0.13917086
-1.0408676 1.0625528 0.13945317
-1.0322517 1.0667728 0.13917086
-1.0256867 1.0730865 0.13917086
-1.0204498 1.0808078 0.13935907
-1.0104042 1.083408 0.13888852
-1.0077841 1.0939811 0.13945317
-1.0010527 1.1001443 0.13945317
-0.99228734 1.1040443 0.13917086
-0.99078107 1.116069 0.13992372
-0.98325801 1.1213787 0.13982961
-0.97440398 1.1251327 0.13954729
-0.96812892 1.1318469 0.13964139
-0.95795399 1.1339629 0.13917086
-0.95034039 1.1390549 0.13907674
-0.94206744 1.1433278 0.13888852
-0.93566263 1.1498591 0.13898264
-0.92983669 1.1571308 0.13917086
-0.92395663 1.1643744 0.13935907
-0.91863656 1.1723728 0.13964139
-0.91751689 1.1858622 0.14058247
-0.90961903 1.1906785 0.14048837
-0.90649188 1.2018017 0.14114714
-0.90088421 1.2097368 0.14142945
-0.89226526 1.2136374 0.14124124
-0.88480169 1.2190894 0.14124124
-0.87846422 1.2261142 0.14142945
-0.86805075 1.2274168 0.14095891
-0.86278206 1.2359855 0.14133535
-0.85574669 1.2420762 0.14142945
-0.85034806 1.2505969 0.14180589
-0.84376776 1.2574445 0.1419941
-0.84263074 1.27256 0.1431234
-0.83480656 1.2777064 0.1431234
-0.81994009 1.2719256 0.1419
-0.82280338 1.2937354 0.14378217
-0.81273371 1.2953861 0.14340574
-0.80581772 1.3020418 0.14359395
-0.80299938 1.3154598 0.14453503
-0.79439938 1.3195091 0.14444092
-0.79441833 1.3380567 0.14594665
-0.78669608 1.3437651 0.14604077
-0.78241676 1.3554653 0.14679363
-0.77753115 1.3662978 0.14745238
-0.77108091 1.3745162 0.14782882
-0.76407748 1.3818356 0.14811115
-0.75701314 1.3891206 0.14839347
-0.75130087 1.3990022 0.14895812
-0.74130607 1.4009458 0.1486758
-0.7331562 1.4063509 0.1487699
-0.72587723 1.4134799 0.14905223
-0.71763986 1.4187957 0.14914633
-0.71069586 1.426737 0.14952277
-0.70455801 1.4364343 0.15008742
-0.69832784 1.4461097 0.15065207
-0.68986887 1.4512664 0.15074618
-0.6851688 1.4644902 0.15168726
-0.67783487 1.4722842 0.1520637
-0.66878837 1.4764155 0.1520637
-0.6601218 1.4814008 0.1521578
-0.65341675 1.4908947 0.15272245
-0.64661998 1.5003617 0.1532871
-0.64089644 1.5125515 0.15413408
-0.63581282 1.5265654 0.15516926
-0.62567997 1.5285952 0.15498105
-0.61963117 1.5407189 0.15582803
-0.61053151 1.5454178 0.15592213
-0.60211748 1.5519195 0.15620446
-0.59470952 1.5611671 0.15676911
-0.58581632 1.5666518 0.15695733
-0.58099234 1.5833021 0.15827484
-0.57328916 1.5924578 0.15883949
-0.56847751 1.6100274 0.16025111
-0.55956459 1.6163077 0.16053344
-0.54771775 1.6140538 0.15996879
-0.54062992 1.6258869 0.16081576
-0.53341746 1.6376934 0.16166274
-0.52517307 1.6466267 0.16222739
-0.51832199 1.6602722 0.16326258
-0.51016015 1.6700864 0.16392134
-0.50360662 1.6855863 0.16514474
-0.49381268 1.6905559 0.16533297
-0.48588878 1.7021704 0.16617994
-0.47623715 1.7079966 0.16646227
-0.46653229 1.7137685 0.16674459
-0.4567745 1.7194855 0.16702692
-0.44696406 1.7251471 0.16730924
-0.43661404 1.7288225 0.16740336
-0.4269489 1.7353361 0.16777979
-0.41907465 1.7495415 0.16890909
-0.40946108 1.756928 0.16937962
-0.40087211 1.769117 0.1703207
-0.39321858 1.786128 0.17173234
-0.38349953 1.7943486 0.17229699
-0.3755123 1.8112909 0.1737086
-0.36654744 1.8242977 0.1747438
-0.35781705 1.8392167 0.1759672
-0.34928533 1.8560537 0.17737883
-0.33806825 1.8591416 0.17747293
-0.32837436 1.8709868 0.17841402
-0.31887972 1.8847461 0.17954332
-0.30794892 1.8905977 0.17991975
-0.29911312 1.9101561 0.1816137
-0.28916156 1.92377 0.182743
-0.2782031 1.9314203 0.18330765
-0.26756895 1.9419672 0.18415463
-0.25616714 1.947521 0.18453106
-0.24384154 1.9460925 0.18424873
-0.23989335 2.014776 0.19064811
-0.26600799 2.3575165 0.22311547
-0.25227582 2.366034 0.22377422
-0.24182843 2.4081516 0.22763267
-0.22798087 2.419502 0.22857375
-0.21435198 2.4347394 0.22989127
-1.1138781 13.618665 1.2904919
-1.0327713 13.658002 1.2935976
-0.95349926 13.729631 1.2998086
-0.87615293 13.844517 1.3101606
-0.79425347 13.903305 1.3152424
-0.71272945 13.982487 1.3223006
-0.63235801 14.107934 1.3337817
-0.54916608 14.199093 1.3420633
-0.08653117 2.6548016 0.24993634
-0.37687507 14.280399 1.3492155
-0.054067019 2.6616359 0.25050098
-0.038590703 2.7226408 0.25624159
-0.021947589 2.7307906 0.25699446
-0.0052695782 2.7736831 0.2610411
0.011908237 2.8104985 0.26452312
0.029090518 2.8043995 0.26395848
0.045967318 2.7842598 0.26207632
0.062530227 2.7610333 0.25991181
0.078666262 2.7327335 0.25727677
0.094701171 2.7113051 0.25530052
0.11068076 2.6947577 0.25379479
0.12796593 2.7099392 0.25530052
0.14698242 2.7538393 0.25953537
0.1635215 2.746923 0.25897074
0.18220246 2.7736833 0.26160577
0.21293139 2.9631686 0.27967456
0.23072147 2.9568436 0.27920401
0.25053206 2.9752133 0.28108618
0.2738952 3.0301361 0.28645036
0.29478115 3.052181 0.28870896
0.31554043 3.0701218 0.29059112
0.33944488 3.1146436 0.29501423
0.36139947 3.1372273 0.29736692
0.38436425 3.1655879 0.3002843
0.40769053 3.1937838 0.30320165
0.4287335 3.2020764 0.30423683
0.46026108 3.2841744 0.31233016
0.48213506 3.2931089 0.31345946
0.51150173 3.3501215 0.31920007
0.53548789 3.3685505 0.32127044
0.55436057 3.3543971 0.32023525
0.57291144 3.3391581 0.31910595
0.58937746 3.3130362 0.31694147
0.60789043 3.2995663 0.31600037
0.62588745 3.2840393 0.31487107
0.64602613 3.2801371 0.31487107
0.67506981 3.3200126 0.31910595
0.71525633 3.41032 0.32823446
0.79339343 3.6705441 0.35383192
0.82217485 3.6937883 0.35656106
0.85349417 3.7265205 0.36023128
0.88958281 3.7774177 0.36568958
0.92421985 3.8193018 0.37030086
0.95940393 3.8609011 0.37491217
0.99218017 3.8906348 0.37839419
1.0324124 3.947078 0.38451123
1.0666691 3.9781706 0.38818145
1.0878934 3.960031 0.38705215
1.1100138 3.9456146 0.38629928
1.1397135 3.9578629 0.38818145
1.1414649 3.874398 0.38065279
1.1686634 3.8787599 0.38178208
1.2208716 3.9638054 0.3909106
1.3545787 4.303802 0.42535424
1.3961986 4.3427982 0.43005964
1.4479747 4.4107656 0.43768242
1.4895639 4.4452205 0.44201142
1.5528916 4.541501 0.45255154
1.6017154 4.5920472 0.45857447
1.6291941 4.5802569 0.45838624
1.6426718 4.5299301 0.45433959
1.6697457 4.5178981 0.45415136
1.7146292 4.5532198 0.45876268
1.8737638 4.8846712 0.49339455
1.9743482 5.0539055 0.51174569
2.0222483 5.084249 0.51607466
2.0982444 5.1824784 0.52736765
2.1239352 5.154779 0.52586192
2.1401265 5.1049247 0.52209759
2.1706283 5.0898652 0.52190936
2.1946871 5.0600109 0.52021539
2.2264969 5.0482712 0.52040362
2.260282 5.0408735 0.52106237
2.295712 5.0368743 0.52209759
2.3274114 5.0244999 0.52228582
2.3743098 5.0443535 0.52586192
2.4266932 5.0745969 0.53056735
2.5456614 5.2404985 0.54957718
2.6310718 5.3328085 0.56096429
2.7186005 5.4260435 0.57253963
2.827234 5.5574436 0.5882557
3.2720151 6.3351893 0.67285907
3.6427557 6.9480658 0.74042886
3.7002861 6.9537072 0.74344033
3.7438297 6.9326239 0.74362856
3.8083057 6.9496822 0.74795753
4.2045321 7.5622311 0.81675071
4.2552567 7.5440946 0.81759769
4.2802052 7.4806862 0.81355101
4.7662883 8.2128696 0.89646047
4.8054814 8.1645947 0.89439005
5.0131588 8.399106 0.92346954
5.286263 8.7344227 0.96393609
5.3413191 8.7043676 0.96421844
5.394628 8.6714296 0.96421844
5.4721632 8.6769018 0.9685474
5.6180701 8.7882738 0.98482817
5.9203815 9.1371288 1.0280238
6.1856427 9.4193468 1.0640674
35.155556 52.126751 5.9421716
35.352283 51.730873 5.9216561
14.585022 19.242617 2.2812643
15.797066 20.578173 2.4511297
0.64908427 0.70158935 0.089199342
0.64793122 0.69178164 0.088446476
0.66312623 0.69934952 0.089952208
0.69498819 0.7239902 0.093716539
0.70011139 0.72042602 0.093810648
0.69125015 0.70263517 0.09202259
0.68500823 0.68780172 0.090610966
0.68568063 0.68008101 0.090140425
0.68272781 0.66889518 0.089199342
0.68252593 0.66054022 0.088634692
0.67936832 0.64946193 0.087693609
0.68261653 0.64459783 0.087599501
0.68291807 0.63700265 0.08712896
0.68608147 0.63212591 0.087034851
0.68405569 0.62254494 0.086281985
0.68119788 0.61234742 0.08543501
0.68196392 0.60551274 0.085058577
0.68192321 0.59803557 0.084588036
0.67730057 0.58667201 0.083552845
0.67786098 0.57991701 0.083176412
0.67303997 0.56868082 0.082141221
0.66581327 0.5556128 0.080823697
0.66767305 0.55025101 0.080635481
0.67644286 0.5505417 0.081294246
0.68368888 0.54949832 0.081764787
0.68626773 0.54467422 0.081670679
0.69429916 0.5441367 0.082235329
0.69604993 0.53864807 0.082047112
0.69142985 0.52832437 0.081106029
0.69545352 0.52467132 0.081200138
0.69147271 0.51504356 0.080353156
0.6914112 0.50843263 0.079976723
0.69048887 0.5012573 0.079506181
0.68869531 0.49353278 0.078941531
0.69414937 0.49102196 0.079223856
0.69959837 0.48846272 0.079506181
0.70258242 0.48416084 0.079506181
0.71048003 0.48319885 0.080070831
0.71673852 0.48104882 0.080447264
0.72216719 0.47829053 0.080729589
0.73175645 0.4782058 0.081482463
0.73467684 0.47370684 0.081482463
0.74597096 0.47453159 0.082423545
0.75055534 0.47100347 0.082611762
0.75851095 0.46953213 0.083176412
0.77072567 0.47057381 0.084211603
0.78212839 0.47096968 0.085152686
0.78329128 0.4651455 0.084964469
0.8050335 0.47139382 0.087034851
0.81480908 0.47042605 0.087787718
0.8237375 0.46886367 0.088446476
0.83180887 0.46672234 0.089011125
0.83814216 0.46353623 0.089387558
0.84097058 0.45838475 0.089387558
0.84552163 0.45415786 0.089575775
0.84389234 0.44663367 0.089105234
0.81395108 0.42442325 0.085623227
0.79882658 0.41032729 0.083741061
0.78000671 0.3946363 0.081482463
0.76726335 0.38229856 0.079882614
0.77942747 0.38240486 0.080917805
0.77996606 0.37674958 0.080729589
0.66356891 0.31555292 0.068307295
0.59785742 0.27984223 0.06124917
0.70268798 0.21477176 0.068307295
0.6749295 0.19278687 0.065201722
0.65611053 0.17873929 0.06313134
0.65719491 0.17471011 0.06313134
29.232082 6.6206179 2.8320801
29.160341 6.4165254 2.8212578
28.878849 6.1690578 2.7902961
28.715338 5.9501333 2.7709098
28.063173 5.6356416 2.7045634
27.725864 5.3911371 2.6688023
27.631229 5.196991 2.6565683
27.598928 5.0157804 2.6504512
27.810596 4.8781614 2.6678612
28.078541 4.7477589 2.6907296
26.863134 4.3728876 2.5715885
1.4370484 0.2250793 0.13634761
1.517164 0.22808778 0.14387627
1.5037538 0.21664682 0.14246465
1.506041 0.20755167 0.14255875
1.5102476 0.19869606 0.14284109
1.5035355 0.18843624 0.14208822
1.5145491 0.18038325 0.1430293
1.5096917 0.17041752 0.14246465
1.5186286 0.16199477 0.14321752
1.5235565 0.15307115 0.14359395
1.5323964 0.1444664 0.14434682
1.5431713 0.13593335 0.1452879
1.5985502 0.1309249 0.15046385
1.5685488 0.11878729 0.1475465
1.5801729 0.10991918 0.14858168
1.6344707 0.10361601 0.15366353
1.6330879 0.093471602 0.15347531
1.6296535 0.08324673 0.15309888
1.6281445 0.07315667 0.15291066
1.627568 0.063126728 0.15281656
1.6239444 0.053009536 0.15244013
1.6242392 0.043044206 0.15244013
1.625468 0.033097394 0.15253423
1.6246451 0.02310905 0.15244013
1.6177876 0.013084487 0.15178137
1.5965091 -0.00078367756 0.11912898
1.5934827 -0.010561091 0.11890404
1.5923909 -0.020326009 0.11882906
1.583263 -0.029930523 0.11815426
1.5880339 -0.039767392 0.11852915
1.5887568 -0.049541295 0.11860412
1.5904158 -0.059362341 0.11875408
1.5900217 -0.069119833 0.11875408
1.5925555 -0.079021722 0.11897902
1.6029931 -0.08939819 0.11980379
1.6073909 -0.099538378 0.12017868
1.6107293 -0.10966857 0.12047859
1.6328992 -0.1212386 0.1222031
1.6728789 -0.13451627 0.12527724
21.509279 -1.8544776 1.6223775
21.409121 -1.978258 1.6157044
21.332075 -2.1032269 1.6108308
21.242401 -2.2260783 1.6050575
21.183744 -2.351428 1.6016834
21.007483 -2.4624469 1.5894618
20.930616 -2.5837274 1.5848131
20.80559 -2.698004 1.5765655
20.745167 -2.819706 1.5732664
20.645533 -2.9352953 1.5670432
20.533426 -3.0480118 1.5599202
20.450281 -3.1640368 1.5550466
20.328094 -3.2729759 1.5472488
5.5882659 -0.93545884 0.42511716
20.046669 -3.480572 1.528954
20.031807 -3.6047463 1.5294789
19.952454 -3.717001 1.5251302
19.847017 -3.8235142 1.5188318
19.774282 -3.9354908 1.515083
19.676504 -4.0417037 1.5094595
19.572313 -4.1456261 1.5033863
19.499744 -4.2554379 1.4997873
19.412943 -4.3614554 1.4951386
19.341124 -4.470161 1.4916896
19.257061 -4.5753841 1.4873408
19.1395 -4.6717062 1.4804428
19.037928 -4.7708783 1.4748194
18.966768 -4.8769259 1.4715953
18.876703 -4.9774508 1.4669466
18.790936 -5.0783548 1.4626728
18.7229 -5.1834497 1.4598236
18.597683 -5.2718568 1.4525506
18.50848 -5.3694806 1.4481269
18.414959 -5.4650741 1.4434032
18.344818 -5.5669613 1.4405541
18.251265 -5.6611037 1.4359055
18.129679 -5.7455735 1.4290824
18.058981 -5.8453465 1.4263082
18.022776 -5.9560442 1.4263082
17.953764 -6.0556831 1.4237589
17.896467 -6.158917 1.4221843
17.7953 -6.2464857 1.4171607
17.689976 -6.3317018 1.4118372
17.617067 -6.4278226 1.409138
17.52215 -6.515295 1.4047142
17.415634 -6.5976071 1.3993908
17.333889 -6.6885495 1.3960917
17.247972 -6.7772789 1.3924928
17.188471 -6.8759465 1.3910681
17.124716 -6.9726357 1.3893436
17.054893 -7.0665112 1.3871692
16.968945 -7.1532083 1.3837202
16.885324 -7.2402964 1.3804961
16.819557 -7.3345995 1.3787717
16.745064 -7.4247308 1.3763723
16.646463 -7.5035715 1.3720236
16.550247 -7.5827279 1.3678997
16.486233 -7.6761389 1.3664751
16.436119 -7.7758732 1.3662502
16.353045 -7.8597312 1.363326
16.258808 -7.937614 1.3595021
16.182102 -8.0234957 1.3571777
16.129004 -8.1208429 1.3568778
16.062891 -8.2114859 1.3555282
15.978569 -8.2924376 1.352679
15.9018 -8.3768473 1.3505046
15.814925 -8.4554558 1.3475055
15.717168 -8.5276079 1.3436066
15.661926 -8.6224442 1.3433816
15.606113 -8.7169228 1.3431567
15.534114 -8.8021927 1.3415822
15.456469 -8.8839273 1.3395578
15.369792 -8.9600172 1.3367835
15.29049 -9.0399466 1.3346841
15.222759 -9.12642 1.3336344
15.166474 -9.2196531 1.3336344
15.115561 -9.3162022 1.3341593
15.036125 -9.3950357 1.3322098
14.946182 -9.4668436 1.3293606
14.867673 -9.5454445 1.3275611
14.818019 -9.6424742 1.3283859
14.760239 -9.7343111 1.3285359
14.668727 -9.8036413 1.3256867
14.59426 -9.8839569 1.324412
14.512784 -9.9592142 1.3225375
14.403095 -10.014492 1.3181138
14.353605 -10.111292 1.3192385
14.279118 -10.190485 1.3181138
14.249454 -10.301861 1.321188
14.162643 -10.372015 1.3190136
14.082717 -10.446837 1.3175139
