# .PCD v0.7 - Point Cloud Data file format
VERSION 0.7
FIELDS x y z
SIZE 4 4 4
TYPE F F F
COUNT 1 1 1
WIDTH 1531
HEIGHT 1
VIEWPOINT 0 0 0 1 0 0 0
POINTS 1531
DATA ascii
-14.401274 11.338789 1.7314835
-14.297179 11.399631 1.7273427
-14.183587 11.452119 1.7220727
-14.11151 11.537671 1.7218845
-14.003641 11.593566 1.7173673
-13.879598 11.635141 1.7108738
-13.834509 11.742635 1.7141676
-13.767483 11.831843 1.7148263
-13.696877 11.918056 1.7151086
-13.639927 12.016354 1.7171791
-13.617204 12.145544 1.7236725
-13.618528 12.297595 1.7333657
-14.560479 13.311299 1.8637056
-14.893532 13.784498 1.9171592
-14.964137 14.021297 1.9372984
-14.901658 14.135462 1.9404039
-16.097784 15.843146 2.1338906
-16.259804 16.200209 2.1685226
-17.397205 17.764185 2.3492105
-43.817837 45.295238 5.9561
-43.495754 45.517899 5.950171
-43.212223 45.780308 5.9497004
-42.887058 45.997986 5.9436774
-42.519032 46.167999 5.9318199
-41.794811 45.944183 5.8699908
-41.22134 45.876152 5.8288655
-40.647644 45.799843 5.7873635
-40.275291 45.94508 5.7743764
-37.355392 43.145329 5.3935204
-37.093834 43.378262 5.3940849
-36.807701 43.58223 5.3912616
-36.549156 43.818726 5.3926735
-36.261246 44.019878 5.3899441
-35.971615 44.21838 5.3871207
-35.695881 44.433609 5.3865561
-35.394726 44.616699 5.3823214
-35.113544 44.824413 5.3812861
-34.83419 45.034298 5.3807216
-34.535458 45.218708 5.3773336
-34.252552 45.423405 5.3765807
-33.976761 45.637508 5.3771453
-33.709068 45.862774 5.3792157
-35.206177 48.520775 5.6655874
-33.185459 46.331257 5.3859916
-32.833309 46.438896 5.3749809
-32.544327 46.634586 5.3744164
-32.255878 46.830936 5.3741341
-31.974077 47.037033 5.3751693
-31.697065 47.250523 5.3772397
-31.403797 47.439972 5.3767691
-31.131172 47.660942 5.3800626
-30.833832 47.844364 5.3793101
-30.546625 48.043583 5.3805332
-30.266073 48.253723 5.3831682
-29.9909 48.473232 5.3870268
-29.69965 48.667389 5.3882504
-29.45746 48.94339 5.3986964
-29.237898 49.260197 5.4137535
-28.86821 49.324394 5.401237
-28.583923 49.533363 5.4048133
-28.296686 49.738106 5.4081073
-27.981714 49.894295 5.4063191
-27.728985 50.162632 5.4168591
-27.413527 50.318714 5.4154477
-27.144289 50.560532 5.4234467
-26.810732 50.683018 5.4188356
-26.504765 50.857162 5.4199648
-17.209042 33.520702 3.5606668
-12.613964 24.945597 2.6412287
-12.078568 24.255217 2.5602014
-11.892258 24.252893 2.552202
-11.287905 23.382227 2.4532001
-11.185243 23.537371 2.4622345
-11.076882 23.683115 2.4703279
-10.936768 23.762392 2.4715512
-10.128746 22.367109 2.3198488
-9.976325 22.395189 2.3163667
-9.8515072 22.485163 2.3193781
-9.7492018 22.628389 2.3279419
-9.6571569 22.798706 2.339329
-9.2982006 22.331818 2.2854991
-8.901988 21.75544 2.2208467
-8.5518303 21.27113 2.1659815
-8.1739502 20.697247 2.1023643
-7.8275642 20.18174 2.0450523
-7.5122662 19.72698 1.994234
-7.2331772 19.35026 1.9516028
-6.9445996 18.93162 1.9050193
-6.6637988 18.516739 1.8590944
-6.4195042 18.187391 1.8220156
-6.1589942 17.796484 1.7790082
-5.9223981 17.458708 1.7415531
-5.7401118 17.268925 1.7190613
-5.6334276 17.301926 1.718873
-5.5428834 17.38549 1.7237666
-5.4417386 17.437231 1.7255547
-5.3448195 17.503618 1.7288485
-5.2475743 17.570425 1.7322364
-5.1525011 17.646252 1.7365654
-5.0572405 17.72349 1.7410825
-4.960958 17.799259 1.7455057
-4.86655 17.884121 1.7508699
-4.7659211 17.948284 1.7542577
-4.663939 18.008993 1.7573633
-4.5633402 18.076849 1.7612218
-4.4637485 18.150913 1.765739
-4.3655052 18.233149 1.7711031
-4.2623549 18.297405 1.7747734
-4.1607795 18.370792 1.7793846
-4.058249 18.442648 1.7839018
-3.9589448 18.532431 1.7902071
-3.8560653 18.609016 1.7952889
-3.7453377 18.649897 1.7969829
-3.6405244 18.722366 1.8017824
-3.5351465 18.795227 1.806676
-3.428477 18.864563 1.8112874
-3.3224654 18.941137 1.8166516
-3.2108295 18.988653 1.8192866
-3.1070528 19.086607 1.8268152
-3.0071197 19.215473 1.8373554
-2.8989193 19.298544 1.8435665
-2.7871172 19.362282 1.8479896
-2.6720622 19.406633 1.8506247
-2.5607188 19.48189 1.8562711
-2.454365 19.602934 1.8663408
-2.3387415 19.657167 1.870105
-2.2253337 19.735451 1.8762221
-2.116221 19.861589 1.8869505
-1.9996797 19.927692 1.8920323
-1.8819404 19.988157 1.8966436
-1.7629235 20.040977 1.9005961
-1.6497394 20.171482 1.9119833
-1.5309669 20.247738 1.9182885
-1.4097345 20.300449 1.9224293
-1.2920618 20.418011 1.9327812
-1.1709557 20.499105 1.9397452
-1.0488014 20.577492 1.946521
-0.92653143 20.673052 1.9549907
-0.80255121 20.752958 1.9620489
-0.67752796 20.829134 1.9688246
-0.55265015 20.944365 1.9793648
-0.42565846 21.023006 1.9865171
-0.29766628 21.096897 1.9932928
-0.1686803 21.157063 1.9988452
-0.03899806 21.233362 2.0059974
0.091953032 21.387512 2.0205843
0.22419123 21.48311 2.0297127
0.35829929 21.619694 2.0427938
0.49248621 21.684771 2.0491931
0.6270256 21.733088 2.0540867
0.76471877 21.853199 2.0658503
0.90366381 21.966469 2.0770493
1.0440744 22.079844 2.0883422
1.1844225 22.164482 2.0970001
1.325256 22.238291 2.104717
1.4664518 22.302259 2.111587
1.6167673 22.480516 2.1293736
1.7636665 22.585308 2.14029
1.9087352 22.651442 2.1476305
2.0619466 22.796953 2.1625936
2.2138543 22.908731 2.1744514
2.3677206 23.02445 2.1867795
2.517801 23.090645 2.1944964
2.6757367 23.216188 2.2079539
2.8317051 23.31101 2.2185881
2.985532 23.378126 2.2266815
3.1435933 23.468897 2.2371275
0.38879472 2.7744546 0.26367617
0.40032849 2.7345846 0.26010004
0.41244006 2.7015681 0.25718269
0.42416176 2.6685071 0.25426531
0.44133937 2.6707654 0.25473586
0.4486244 2.6150219 0.24965401
0.45367244 2.5504696 0.2437252
0.46931329 2.5476377 0.2437252
0.47937298 2.4342406 0.23337327
0.49251428 2.422473 0.2325263
0.51715541 2.3928928 0.2302677
0.59750324 2.2846863 0.22208028
0.60736674 2.0161681 0.19789444
0.61708838 2.0038404 0.19704747
0.63066107 1.9619974 0.19365957
0.67082465 2.0022523 0.19845909
0.69856066 2.0433147 0.20297629
0.71436423 2.0483899 0.20391737
0.78163165 2.1152015 0.21201068
0.77564752 2.0600553 0.20692883
0.79397881 2.0701294 0.20843457
0.81246269 2.0800555 0.2099403
0.81674683 2.0537548 0.20777582
0.82821208 2.0459361 0.20749348
0.92116261 2.2359562 0.22744446
0.9048391 2.158648 0.22010401
0.85284191 2.0001252 0.20438792
0.86509848 1.9948546 0.20438792
0.88134015 1.9986176 0.205329
0.88340282 1.9704622 0.20297629
0.90043181 1.9758753 0.20410559
0.90877235 1.962183 0.20325862
0.91019464 1.9340512 0.2009059
0.93235338 1.9499851 0.2031645
0.93429494 1.9236315 0.20100002
0.93594855 1.8973284 0.19883552
0.95827645 1.9129115 0.20109412
0.96141839 1.8901366 0.19930607
0.97162735 1.8815482 0.19902374
0.98176712 1.8729059 0.19874142
1.0039977 1.8870604 0.2009059
0.98480713 1.823926 0.19478887
1.0060275 1.8361831 0.19676514
1.0085667 1.8143139 0.19507119
1.0240824 1.8158953 0.19591817
1.0416329 1.8208108 0.19714157
1.0857677 1.8712146 0.20335272
1.1270242 1.9151375 0.20890512
1.1341617 1.9004927 0.20805813
1.1839483 1.9565241 0.21502216
1.195931 1.9492228 0.21502216
1.2141796 1.9519917 0.21615146
1.2149812 1.9268214 0.21417518
1.2316072 1.9268793 0.21502216
1.257483 1.9410089 0.21746898
1.2699157 1.9340887 0.21756308
1.2767948 1.9188012 0.21671611
1.2735143 1.8886454 0.21417518
1.2822702 1.8766859 0.21370465
1.3186983 1.9047965 0.21784541
1.330361 1.8966693 0.21784541
1.3546624 1.9063231 0.21991579
1.3704059 1.9036306 0.22057454
1.363874 1.8702517 0.21765719
1.3451525 1.8210108 0.21285766
1.309774 1.7505506 0.20551722
1.3186865 1.7401007 0.20523489
1.340251 1.7461914 0.20692883
1.3509401 1.7379348 0.20692883
1.3529562 1.7186621 0.20561132
1.3647175 1.711885 0.20579953
1.3733195 1.7011553 0.20551722
1.3994859 1.7119651 0.20786992
1.4055198 1.6979778 0.20721117
1.4446931 1.723654 0.21144603
1.4642615 1.7253832 0.21276355
1.4832565 1.7261816 0.21398696
1.5127721 1.7388281 0.21671611
1.5694808 1.7818043 0.22330369
1.6446065 1.8215208 0.23083235
1.7437514 1.9076509 0.24316055
1.8710618 2.0218551 0.25925305
1.8854747 2.0125158 0.25953537
1.966989 2.0738597 0.26904032
2.1817243 2.2721455 0.29661405
2.2289355 2.2929792 0.30113125
2.3979945 2.4367802 0.3220233
2.8059595 2.7821667 0.37237126
2.9879954 2.9265032 0.39420438
4.081358 3.9484909 0.53564918
6.2468462 5.9695687 0.81562138
6.2934928 5.9406934 0.81693894
6.321816 5.8944974 0.81590372
6.3527384 5.8508754 0.81524497
6.3877831 5.8111157 0.81515086
6.4329462 5.7804623 0.8163743
6.4370198 5.7131262 0.81242174
6.4764457 5.6774592 0.81298637
6.5134177 5.6395688 0.81326872
6.5441155 5.596262 0.81279814
6.5707245 5.5495787 0.81185704
6.6054168 5.5097947 0.81195116
6.6414056 5.4710598 0.81223351
6.670989 5.4270649 0.81176299
6.6979542 5.3810425 0.81101012
6.7261658 5.3361306 0.81044543
6.7650504 5.2996707 0.81119829
6.7935042 5.2550159 0.81072778
6.8319502 5.2180672 0.81148064
6.8694034 5.1802449 0.81213939
6.8978648 5.1356192 0.81176299
6.9340601 5.0967355 0.81232762
6.9643965 5.0535083 0.81223351
6.9807043 5.0002456 0.81053954
7.0023122 4.9509969 0.80950439
7.0415397 4.9142051 0.81053954
7.081399 4.8776832 0.81166887
7.1054311 4.8302231 0.81101012
7.1332812 4.7854247 0.81082189
7.0994182 4.6998014 0.80366963
7.0230999 4.587553 0.791812
7.0636683 4.552464 0.79322362
7.0998702 4.5143776 0.79416472
7.1249061 4.4691415 0.79388237
7.1547341 4.4269114 0.79416472
7.1758137 4.3792973 0.79350597
7.1419873 4.2987347 0.78682429
0.96821308 0.57490313 0.10529187
0.98289227 0.57548881 0.10651527
0.97950661 0.56546628 0.10576241
0.98814976 0.56239927 0.10632706
0.98810858 0.55437762 0.10595062
0.98626375 0.54541445 0.10538597
0.9922145 0.54078144 0.1056683
0.99463689 0.53421223 0.10557419
0.99789602 0.52809918 0.10557419
1.0064148 0.52472693 0.10613884
1.0087298 0.51808715 0.10604473
1.0101129 0.51098943 0.10585652
1.0078821 0.50211918 0.10529187
1.0109441 0.49592549 0.10529187
1.012175 0.48884752 0.10510365
1.0142561 0.48220044 0.10500954
1.0144904 0.47470266 0.10472721
1.0155753 0.46763647 0.10453899
1.013891 0.45934281 0.10406845
1.0166904 0.45311305 0.10406845
1.0185395 0.44646668 0.10397434
1.0194312 0.43942082 0.10378613
1.0239418 0.43393403 0.10397434
1.0238278 0.42649508 0.10369202
1.0227398 0.41869688 0.10331558
1.0105103 0.40647188 0.10180985
1.0065035 0.39770406 0.10115109
1.0089248 0.3915208 0.10115109
1.0113082 0.38532278 0.10115109
1.014586 0.37945884 0.1012452
1.0225031 0.37528339 0.10180985
1.0191661 0.36697975 0.1012452
1.0260926 0.36237609 0.10171574
1.0254744 0.35509652 0.10143342
1.0276339 0.34879768 0.10143342
1.0184178 0.33871743 0.10030412
1.0223703 0.33307862 0.10049234
1.0281889 0.32800877 0.10086877
1.0159268 0.31724516 0.099457145
1.0216628 0.31216854 0.099833578
1.0254669 0.3064636 0.10002179
1.0378402 0.30323505 0.10105699
1.0425534 0.29768074 0.10133931
1.0443603 0.29127815 0.10133931
1.0509311 0.28617156 0.10180985
1.0584406 0.28125075 0.1023745
1.0630376 0.2754997 0.10265683
1.0762914 0.27189586 0.10378613
1.0798731 0.26576221 0.10397434
1.0901972 0.26121745 0.10482132
1.0985668 0.2561042 0.10548008
1.0991465 0.2491388 0.10538597
1.1123222 0.24495716 0.10651527
1.0933586 0.23376009 0.10453899
1.0967221 0.22745095 0.10472721
1.0697908 0.21503307 0.10199807
1.0691357 0.20808487 0.10180985
33.067261 6.2193813 3.1794341
33.158676 6.0261579 3.1846099
33.344078 5.8487301 3.1989145
33.479465 5.660954 3.2085135
33.584316 5.4669371 3.2152894
33.722473 5.2772341 3.225359
33.845779 5.0839701 3.2341108
33.946301 4.886271 3.2407925
29.629202 4.0794806 2.8260572
29.819506 3.9193976 2.8418674
29.934864 3.7478564 2.8506196
30.055164 3.575752 2.8599362
34.727211 3.9156229 3.3023396
34.831757 3.7111156 3.3100564
34.888546 3.5008006 3.3133502
35.070934 3.3018727 3.3286898
35.27499 3.1028438 3.346194
35.40847 2.8957548 3.3571105
35.561573 2.68872 3.3700032
35.754185 2.4827425 3.3867545
35.857174 2.2689071 3.3951302
35.985722 2.0554338 3.4060469
36.058304 1.8376815 3.4117875
32.228191 1.2462058 3.0475883
32.204384 1.0474308 3.0446708
79.18145 -0.97803694 5.9532237
77.230522 -1.9020529 5.8078399
76.59346 -2.3567021 5.7609034
76.296539 -2.816256 5.7397594
47.161057 -2.0309041 3.5484312
34.564487 -1.7011725 2.6011498
38.818813 -2.1493175 2.9223588
73.569878 -4.5257726 5.5412908
73.063164 -4.944788 5.505301
72.606804 -5.3616486 5.4732852
71.927429 -5.7554402 5.424624
71.321487 -6.1476064 5.3816609
70.763107 -6.5371413 5.3424473
70.268143 -6.9265127 5.3081818
42.661392 -4.4699821 3.2243731
36.624115 -4.0648413 2.7697771
36.607399 -4.2905307 2.7704518
67.976898 -8.38972 5.1490769
67.566162 -8.7602491 5.1219349
1.2706269 -0.17334022 0.095510677
1.2705266 -0.18127371 0.095585659
1.389729 -0.20692536 0.10473306
1.4209534 -0.2204791 0.10720736
1.4067754 -0.22713351 0.10623264
1.3945364 -0.23395132 0.10540787
1.3920921 -0.2423331 0.10533289
1.3866533 -0.25016394 0.10503298
1.3821514 -0.25811979 0.10480804
1.3756455 -0.26565263 0.10443315
1.3642095 -0.27214232 0.10368336
1.3478621 -0.27749872 0.10255868
1.3422318 -0.28493744 0.10225876
1.3355869 -0.29210496 0.10188387
1.3279318 -0.29898313 0.101434
1.3251007 -0.30690101 0.10135902
1.3222224 -0.31479543 0.10128404
1.316391 -0.32195681 0.10098413
1.308587 -0.32857379 0.10053425
1.3055805 -0.33634862 0.10045928
1.3025279 -0.34409899 0.10038429
1.2994293 -0.35182452 0.10030932
1.2914798 -0.35819489 0.099859446
1.2873389 -0.36556867 0.099709488
1.2850716 -0.37346074 0.099709488
1.2856239 -0.38218978 0.099934421
1.2832545 -0.39007106 0.099934421
1.2836943 -0.39882374 0.10015936
1.2973832 -0.41181365 0.101434
1.3043193 -0.42283699 0.10218379
1.297913 -0.42958072 0.10188387
1.2952526 -0.43753648 0.10188387
1.2878289 -0.44385344 0.10150898
1.2850813 -0.45174706 0.10150898
1.2813463 -0.45928764 0.101434
1.2756938 -0.46611592 0.10120906
1.2746791 -0.47462964 0.10135902
1.2820005 -0.48632759 0.10218379
1.2799226 -0.49454358 0.10225876
1.2805766 -0.50384635 0.10255868
1.2709799 -0.50910193 0.10203383
1.2742972 -0.51952302 0.10255868
1.276613 -0.52962226 0.10300855
1.2715014 -0.53667074 0.1028586
1.2700176 -0.54524833 0.10300855
1.2721325 -0.55542213 0.10345843
1.2741702 -0.56564236 0.10390829
1.274312 -0.57508886 0.10420821
1.2780119 -0.58621961 0.10480804
1.2734869 -0.59362942 0.10473306
1.2707219 -0.60185868 0.10480804
1.2670051 -0.60964435 0.10480804
1.2551755 -0.61347002 0.10413323
1.2549613 -0.6229319 0.10443315
12.556494 -6.3222742 1.0561382
12.397597 -6.3379288 1.046016
12.340773 -6.4046936 1.0445164
12.27742 -6.4677472 1.042492
12.205845 -6.5260329 1.0397928
12.118241 -6.5751262 1.035744
12.007784 -6.6108875 1.0297456
11.929558 -6.6635327 1.0265216
11.871094 -6.7267742 1.025022
11.798471 -6.7816 1.0223228
11.725624 -6.8357873 1.0196235
11.618221 -6.8690386 1.0139251
11.557038 -6.9289179 1.0122756
11.491299 -6.9857149 1.0102512
11.435485 -7.0482459 1.0091265
11.344664 -7.0886908 1.0049276
11.292531 -7.1528311 1.0041779
11.21738 -7.202054 1.0014037
11.144561 -7.2522564 0.9988544
11.05906 -7.293602 0.99518043
10.996688 -7.3496866 0.99360591
10.947256 -7.4142265 0.993231
10.838245 -7.4378152 0.98745763
10.727723 -7.4592085 0.9815343
10.649958 -7.5024962 0.97861016
10.572878 -7.545691 0.97576094
10.565169 -7.6384645 0.97935992
10.89382 -7.9782825 1.014375
10.903928 -8.0889368 1.0199234
11.097249 -8.3383799 1.042792
11.337111 -8.6279316 1.0703092
17.800875 -13.719887 1.6889586
17.734436 -13.842965 1.6906831
17.639776 -13.944099 1.6897833
17.563229 -14.059551 1.6906831
17.478952 -14.168937 1.6909081
17.380894 -14.267061 1.6898583
17.28689 -14.36834 1.6892586
17.195351 -14.471572 1.6889586
17.078148 -14.552879 1.6861844
16.987778 -14.656743 1.6861094
16.906536 -14.768575 1.6870092
16.814106 -14.870712 1.6868593
16.721802 -14.972936 1.6867843
16.631832 -15.077267 1.6870092
16.533129 -15.173639 1.6864094
16.420719 -15.257153 1.6844599
45.728146 -43.543922 4.746891
41.31514 -40.320011 4.3397565
41.083988 -40.589577 4.3415561
40.841213 -40.847954 4.3423057
40.626945 -41.13538 4.3462796
40.39188 -41.402447 4.3482294
40.146076 -41.658844 4.3492041
40.047153 -42.06979 4.366374
39.796463 -42.323437 4.3672738
38.924713 -43.487213 4.3874431
38.64658 -43.71328 4.3862433
38.408459 -43.98489 4.3897672
38.207535 -44.300529 4.39779
37.989311 -44.597897 4.4040885
37.7509 -44.872887 4.408287
37.618877 -45.277016 4.4252324
36.50922 -46.790169 4.4615221
36.242733 -47.040951 4.4641461
35.982998 -47.301334 4.4678202
35.768139 -47.62249 4.4773426
35.509708 -47.887524 4.4816914
35.267635 -48.176117 4.4883642
35.17054 -48.66721 4.5139322
35.975567 -51.09024 4.6974053
34.292767 -49.992619 4.5574198
33.964687 -50.171539 4.5546455
33.708271 -50.456944 4.5616937
33.456215 -50.751072 4.5696416
33.215954 -51.065739 4.5795383
32.952087 -51.346638 4.5865116
32.828445 -51.851162 4.6135039
32.296787 -51.710773 4.5832877
31.828503 -53.112495 4.6548171
31.530424 -53.35487 4.6590161
31.241611 -53.614532 4.6648645
30.971663 -53.908978 4.673862
30.740555 -54.275005 4.6891575
30.510983 -54.64893 4.7052031
30.267395 -55.002846 4.7195988
18.288816 -34.223228 2.9167354
18.079876 -34.337448 2.9169602
17.905581 -34.518555 2.9229586
17.718397 -34.676609 2.9270823
17.509325 -34.79269 2.9277573
17.373888 -35.057613 2.9410284
16.489206 -36.008335 2.9769433
16.294577 -36.167931 2.9818168
16.076792 -36.27726 2.9826417
17.237329 -40.912739 3.3372159
16.955828 -40.94495 3.3312926
16.571589 -40.722179 3.3048253
16.546125 -41.385124 3.3503373
15.887994 -40.457458 3.2672608
15.877706 -41.171963 3.3170466
15.635727 -41.29752 3.319371
15.374741 -41.373055 3.3177965
15.180036 -41.62962 3.3308427
15.742169 -44.008247 3.5134161
14.501328 -41.337585 3.2929785
14.264926 -41.476707 3.2970273
13.97544 -41.460453 3.2888548
13.722033 -41.549213 3.2891545
14.020816 -43.345173 3.4244912
8.7140694 -27.515656 2.1692724
8.5583582 -27.611467 2.1726463
8.3989058 -27.696861 2.1752706
8.2205801 -27.72015 2.1730962
7.7157478 -26.615982 2.082747
7.0045748 -25.939054 2.019315
4.846694 -23.619818 1.8120737
3.6428981 -23.576899 1.7928791
3.4592626 -23.336424 1.7729348
3.2946987 -23.207144 1.761538
3.1490214 -23.203207 1.7597386
3.0058212 -23.21616 1.7592887
2.8684368 -23.275732 1.7624378
2.1168387 -21.515104 1.6246269
1.9850594 -21.530668 1.6248518
1.8494074 -21.501707 1.6217777
1.70974 -21.416231 1.6145047
1.4869847 -20.187183 1.5210812
1.3610079 -20.165087 1.5187569
1.3137207 -21.419191 1.6126302
1.1818306 -21.418882 1.6120304
1.0576645 -21.574133 1.6232023
0.92873073 -21.660913 1.6292756
0.7980023 -21.725996 1.6337743
0.66669327 -21.796267 1.6387229
0.12033015 -19.950336 1.4991875
-0.0020842147 -19.938732 1.4982877
-0.1241041 -19.886492 1.4943888
-0.3657741 -19.755854 1.4847915
-0.48639783 -19.729311 1.4829921
-0.60532999 -19.657185 1.4778185
-0.72493988 -19.626192 1.4757941
-0.84895289 -19.705061 1.4820923
-0.97102088 -19.723383 1.4838918
-1.0966524 -19.800692 1.49019
-1.2263298 -19.92696 1.5002371
-1.3565205 -20.036459 1.5090847
-1.4876603 -20.139141 1.5174823
-1.6275867 -20.334398 1.5329279
-1.7646557 -20.467094 1.5437248
-1.8959845 -20.518438 1.5484484
-2.0328026 -20.617563 1.5568461
-1.9452395 -18.561682 1.4023899
-2.0516164 -18.482002 1.3972914
-2.1565089 -18.396767 1.3918179
-2.2518833 -18.241663 1.381096
-2.352231 -18.138502 1.3743479
-2.4586487 -18.088156 1.3716487
-2.5707121 -18.080627 1.3722484
-2.3980517 -16.153893 1.2270147
-2.4942288 -16.120148 1.2255901
-2.5862784 -16.062208 1.222366
-2.6691563 -15.9526 1.215243
-2.753175 -15.856341 1.2091697
-2.8347003 -15.751802 1.2024966
-2.9203427 -15.675294 1.1979979
-3.0055304 -15.600286 1.1936492
-3.0887403 -15.518958 1.1888505
-3.1658499 -15.411803 1.1821024
-3.2527113 -15.355991 1.1793282
-3.335181 -15.28216 1.1752044
-3.4096549 -15.175789 1.1686063
-3.491257 -15.105032 1.1647823
-3.5746551 -15.044518 1.1617832
-3.6501131 -14.95352 1.1564597
-3.7304063 -14.885379 1.1529357
-3.8139737 -14.832271 1.1506114
-3.8642364 -14.654311 1.1386148
-3.9415946 -14.584117 1.1350157
-4.0216961 -14.526021 1.1323916
-4.0985136 -14.457898 1.1290175
-4.1693692 -14.371185 1.1242188
-4.2384644 -14.281281 1.1191952
-4.3080621 -14.195843 1.1145465
-4.3871093 -14.143426 1.1125221
-4.4674835 -14.096278 1.1109476
-4.5311708 -13.998395 1.1053991
-4.600709 -13.921094 1.1015003
-4.6752062 -13.860476 1.098951
-4.7471852 -13.793811 1.0959519
-4.8191843 -13.728668 1.0931027
-4.8915706 -13.665979 1.0904784
-4.9592686 -13.591679 1.0869544
-5.0304093 -13.52828 1.0843302
-5.1073179 -13.481307 1.0830555
-5.1755838 -13.4125 1.0800563
-5.2468443 -13.352648 1.0778069
-5.3134918 -13.282242 1.0747329
-5.3884983 -13.233688 1.0734582
-5.4604373 -13.178267 1.0716587
-5.5175681 -13.088461 1.067085
-5.578126 -13.008534 1.0633361
-5.6434917 -12.941156 1.0606369
-5.7175364 -12.894434 1.0596621
-5.7854848 -12.834563 1.0576377
-5.8421149 -12.750774 1.0536638
-5.9130874 -12.699319 1.0523893
-5.9836488 -12.647473 1.0511146
-6.0512047 -12.589849 1.0493901
-6.1064687 -12.507676 1.0456412
-6.1755695 -12.454784 1.0443665
-6.2325926 -12.378358 1.0411425
-6.2848263 -12.293712 1.0372435
-6.3468213 -12.229249 1.0350691
-6.412909 -12.173312 1.0336446
-6.4794898 -12.118784 1.0323699
-6.5503988 -12.072663 1.0318451
-6.6508012 -12.08029 1.0359689
-6.8935242 -12.341352 1.0619864
-7.0851302 -12.503576 1.0796815
-7.3574915 -12.800508 1.1092231
-7.6081433 -13.050619 1.1349407
-7.9397764 -13.429461 1.1721302
-8.0748386 -13.468585 1.1798531
-8.424593 -13.858477 1.2185421
-8.6904869 -14.10025 1.2444847
-8.9823771 -14.375637 1.2736515
-9.2704964 -14.636166 1.3017684
-9.6978998 -15.105152 1.3487802
-9.999239 -15.366321 1.3775719
-10.468281 -15.873257 1.4287825
-10.926731 -16.349293 1.4776685
-11.049767 -16.315792 1.4807427
-11.571692 -16.862711 1.5368267
-11.907758 -17.126261 1.5674931
-13.399456 -18.775957 1.733496
-50.011375 -66.563919 6.2592869
-50.525146 -66.39547 6.2724833
-51.489506 -65.966965 6.2912278
-55.629101 -62.129414 6.2695589
-66.548996 -51.92691 6.3459625
-75.982094 -46.810574 6.7093844
-37.841698 -19.043797 3.1844094
-37.896187 -18.780691 3.1792359
-37.937222 -18.511951 3.1730876
-22.622467 -8.4064655 1.8137232
-22.563074 -8.2271862 1.8048757
-89.154106 -28.839325 7.0446143
-89.352707 -27.697035 7.0329175
-91.408737 9.0101929 6.9054537
-92.488541 10.264099 6.9960279
-91.050232 11.237205 6.897131
-91.131866 11.815411 6.9086776
-92.082779 13.089601 6.9924293
-21.85989 5.9076438 1.701705
-21.717514 6.0123997 1.6934574
-21.713793 6.1550593 1.6960816
-21.57506 6.2590079 1.6882088
-21.452122 6.3663087 1.6816107
-21.248528 6.4480166 1.6687144
-21.20285 6.5765014 1.6682645
-21.081297 6.680872 1.6618913
-20.927008 6.7735596 1.6529689
-20.819721 6.88025 1.6477953
-20.724197 6.9900227 1.6435965
-20.52062 7.0618935 1.6308501
-20.374344 7.1516762 1.6226774
-20.274685 7.256732 1.6182537
-20.124857 7.342721 1.609856
-19.979414 7.4288836 1.6018333
-19.859785 7.5234299 1.5959101
-19.736029 7.6153531 1.5896868
-19.617466 7.7082295 1.5839134
-19.512396 7.8054938 1.5792648
-19.322828 7.8675432 1.567793
-19.217993 7.962676 1.5632193
-19.060343 8.0347414 1.5543718
-18.930033 8.1169634 1.5477737
-18.835083 8.2134333 1.5440997
-18.703197 8.2928772 1.5374266
-18.590143 8.3796196 1.532328
-18.481262 8.4673634 1.5276043
-18.375622 8.5557709 1.5231806
-18.291229 8.6534357 1.5205564
-18.138924 8.7179928 1.5123087
-18.02953 8.8020058 1.50766
-17.905495 8.8779182 1.5018117
-17.786556 8.9553318 1.4964132
-17.691317 9.0438747 1.4930393
-17.572649 9.1196461 1.4877157
-17.471365 9.2035971 1.4838918
-17.352125 9.2772465 1.4785683
-17.243162 9.3554869 1.4741446
-17.149616 9.4413967 1.4710704
-17.048702 9.5226212 1.4673965
-16.966526 9.6137781 1.4653721
-16.854479 9.6873922 1.4607984
-16.73097 9.7534647 1.4552499
-16.483677 9.7453146 1.4389045
-16.453505 9.8642187 1.4415288
-16.37307 9.9530764 1.4398043
-16.268396 10.026671 1.4359804
-16.174431 10.106224 1.4331312
-16.077576 10.183403 1.430057
-15.987936 10.264623 1.4276577
-15.883698 10.335882 1.4239838
-15.779187 10.406247 1.4203098
-15.671926 10.47406 1.4164109
-15.573511 10.547099 1.4133369
-15.468213 10.614812 1.4096628
-15.38969 10.700417 1.4084632
-15.266677 10.754447 1.4032147
-15.163875 10.821853 1.3998406
-15.06567 10.891909 1.3969165
-14.943042 10.943494 1.3917429
-14.861998 11.024877 1.3904684
-14.772545 11.099688 1.3884438
-14.675592 11.168383 1.3857447
-14.544391 11.210132 1.3798213
-14.461184 11.288119 1.3784717
-14.365051 11.355614 1.3759224
-14.262407 11.417371 1.3727733
-14.167295 11.484575 1.370374
-14.058791 11.540287 1.3667001
-13.960108 11.603387 1.3640008
-13.847448 11.654154 1.359952
-13.79769 11.757657 1.3621264
-13.728307 11.844702 1.3624263
-13.664383 11.936586 1.363326
-13.689486 12.107405 1.3732232
-13.621625 12.197161 1.373898
-13.777039 12.489465 1.3972914
-14.940637 13.882031 1.532553
-14.895128 14.011021 1.5366768
-16.303261 15.911142 1.7119771
-16.213837 16.019287 1.7128768
-16.275993 16.279251 1.729972
-17.5261 17.745977 1.874456
-44.556675 46.235531 4.8271184
-44.406898 46.64962 4.841814
-44.136223 46.938652 4.8436136
-43.843987 47.204933 4.8432388
-43.545429 47.464249 4.842339
-43.235294 47.71059 4.8403144
-42.917789 47.948231 4.8376155
-42.600983 48.186012 4.8351412
-42.284184 48.423218 4.8328166
-37.291183 43.238071 4.292295
-37.030998 43.472904 4.2929697
-36.50238 43.933262 4.2938695
-36.15242 44.059277 4.2844224
-35.856911 44.250057 4.281498
-35.562294 44.441212 4.2787991
-35.272861 44.638237 4.2768493
-34.986652 44.83889 4.275425
-34.701126 45.040081 4.2742252
-34.416264 45.24184 4.2732506
-34.137417 45.451363 4.2731757
-33.873333 45.680801 4.275125
-33.606544 45.907093 4.2769246
-33.304367 46.084953 4.274375
-33.02039 46.287628 4.2743001
-32.721977 46.469799 4.2725005
-32.440212 46.67543 4.2730255
-32.152641 46.87278 4.2729506
-31.860518 47.063404 4.2724257
-31.577232 47.267132 4.2732506
-31.310213 47.495792 4.2764745
-31.04973 47.735497 4.2808232
-30.77133 47.948616 4.2829227
-30.477076 48.137363 4.2829976
-30.175325 48.314159 4.2821732
-29.881445 48.503494 4.2826228
-29.583271 48.685932 4.2826228
-29.296284 48.887066 4.2844224
-28.999321 49.071915 4.2849469
-28.695665 49.245476 4.2846475
-28.395445 49.42495 4.2850223
-8.9487143 15.800664 1.3644507
-8.8282614 15.813482 1.3608516
-8.7541428 15.909287 1.3644507
-8.639246 15.931147 1.3617514
-26.809111 50.166298 4.2759495
-26.622984 50.561905 4.2956691
-26.315454 50.730507 4.2961941
-13.059398 25.558886 2.1572008
-12.365283 24.571426 2.0673764
-11.713909 23.637209 1.9826503
-11.351744 23.264135 1.9454608
-11.216557 23.349531 1.9468105
-11.07947 23.431437 1.9479351
-10.939695 23.508018 1.9486849
-10.804797 23.595552 1.9504094
-10.069958 22.352203 1.8424401
-9.9249411 22.39625 1.8410155
-9.795701 22.475922 1.8425901
-9.7330275 22.711584 1.8569859
-9.586132 22.753416 1.8555614
-9.1624727 22.126356 1.7997772
-8.7532701 21.510679 1.7452676
-8.4175053 21.054729 1.7040293
-8.0424719 20.480394 1.6534936
-7.7465763 20.08835 1.6179538
-7.4494457 19.676676 1.5810642
-7.1392541 19.212589 1.5402008
-6.8401699 18.759508 1.5004621
-6.6070423 18.471565 1.4741446
-6.3470111 18.093971 1.440854
-6.0876513 17.701639 1.4065887
-5.8301649 17.297371 1.3715737
-5.6979642 17.254229 1.3653505
-5.6033425 17.323971 1.3681246
-5.509284 17.397001 1.3711988
-5.4151297 17.471436 1.3744229
-5.3153496 17.529144 1.3763723
-5.2161989 17.590109 1.3786217
-5.1170549 17.652431 1.381021
-5.0181584 17.717077 1.3836453
-4.9202552 17.786938 1.3867193
-4.8320837 17.894772 1.3927927
-4.724225 17.931799 1.3933924
-4.6287503 18.017431 1.3978162
-4.5251346 18.073545 1.3999906
-4.428802 18.161037 1.4046392
-4.322813 18.211155 1.4064388
-4.2168236 18.262598 1.4083883
-4.1132054 18.326075 1.4113123
-4.0225625 18.451319 1.4190352
-3.9152591 18.503944 1.4212096
-3.810869 18.572556 1.4246587
-3.7123959 18.673832 1.4306569
-3.6071689 18.74522 1.4344058
-3.5017526 18.818958 1.4383798
-3.3978605 18.904865 1.4433283
-3.2901487 18.973503 1.4470023
-3.1797495 19.029724 1.4497765
-3.0710008 19.099089 1.4536004
-2.9619772 19.170788 1.4576492
-2.8559916 19.267513 1.4636475
-2.7492106 19.365633 1.4697958
-2.635967 19.423637 1.4729449
-2.5248041 19.501749 1.4776685
-2.4100981 19.557451 1.4807427
-2.2945714 19.610497 1.4836669
-2.186393 19.734222 1.4919895
-2.072943 19.820656 1.497538
-1.9577329 19.8985 1.5024865
-1.8427444 19.987591 1.5083349
-1.7249408 20.055151 1.5126086
-1.6084414 20.147861 1.5188318
-1.4886703 20.210058 1.5228058
-1.367995 20.268557 1.5265547
-1.2510551 20.398001 1.5357021
-1.1320285 20.516808 1.5440997
-1.0089521 20.581133 1.5484484
-0.88594121 20.663649 1.5542219
-0.76060009 20.708557 1.5572209
-0.63803703 20.860348 1.5683179
-0.51159006 20.927671 1.5731165
-0.3849625 21.028124 1.5804644
-0.25710925 21.126812 1.5877373
-0.12795052 21.206768 1.5936607
0.0021771202 21.249033 1.5968097
0.13328286 21.365288 1.6055822
0.26565528 21.46777 1.6133801
0.39982465 21.598337 1.6233523
0.53423178 21.672235 1.6291256
0.66910094 21.730349 1.6337743
0.80709362 21.852388 1.6432966
0.94557965 21.94964 1.6510193
1.0850933 22.042027 1.6584423
1.2297993 22.206209 1.6713387
1.3699489 22.261944 1.6761372
1.1402738 16.840809 1.268253
1.6613176 22.491081 1.6948069
1.8106616 22.622606 1.705529
1.9541466 22.665714 1.7096528
2.1032732 22.762522 1.7179004
2.2537589 22.859343 1.726223
2.4515388 23.394516 1.7677612
2.6332026 23.722946 1.7937789
2.7758126 23.681583 1.7919044
0.36464524 2.8074424 0.21195264
0.37461388 2.7517948 0.20790379
0.38938653 2.7346354 0.20677911
0.40132782 2.6996441 0.20430481
0.40279371 2.5995696 0.19688192
0.41556716 2.577359 0.19538234
0.4289059 2.5600076 0.19425766
0.43027955 2.4747984 0.18795945
0.38718656 2.1482408 0.16321647
0.40036064 2.1458247 0.16321647
0.41087916 2.1296191 0.16216677
0.42627385 2.1387939 0.16306651
0.4383862 2.1312542 0.16269162
0.57868493 2.2481802 0.17363851
0.58865535 2.2301235 0.17251383
0.55718541 2.0103409 0.15594353
0.56679094 1.9972904 0.15519375
0.57403493 1.9765363 0.15384413
0.59069073 1.9882727 0.1550438
0.59013993 1.9426248 0.15174472
0.6035254 1.9437294 0.15211962
0.61333197 1.9333354 0.15159477
0.63347352 1.9551516 0.1536192
0.63075352 1.9067267 0.15009519
0.6405291 1.8971511 0.14964531
0.66189152 1.9214729 0.15189469
0.71868593 2.0061538 0.15931758
0.75627232 2.0710289 0.164866
0.76583815 2.0579374 0.1641912
0.78480923 2.0699852 0.16554081
0.79964936 2.0707126 0.16599068
0.80905813 2.0574141 0.16531588
0.82796264 2.0681508 0.16659051
0.84665322 2.0778086 0.16779017
0.85633308 2.0652046 0.16719034
0.85504538 2.0268312 0.1644911
0.86746567 2.0215466 0.1644911
0.87028778 1.9942482 0.16269162
0.88331622 1.9906938 0.16284157
0.89346552 1.980691 0.16246669
0.91141647 1.9878637 0.16351639
0.91559994 1.9650576 0.16209179
0.92508161 1.953994 0.16164191
0.93359816 1.9410908 0.16104209
0.94811559 1.9407026 0.16149196
0.9427312 1.9000053 0.15856779
0.96244299 1.9102173 0.1599174
1.0095472 1.9735329 0.16576575
0.97065479 1.8690543 0.15744311
0.96490991 1.8304191 0.1546689
0.98176455 1.8350168 0.15556864
0.97778893 1.8009104 0.15316932
0.99603403 1.8079803 0.154294
1.0275309 1.8384 0.15744311
1.0569799 1.8641618 0.16021731
1.1001991 1.9129738 0.16501597
1.1636409 1.9949222 0.17273878
1.1504866 1.9448243 0.16898984
1.1875212 1.979637 0.17266379
1.1861789 1.9501582 0.17071435
1.2017848 1.9487858 0.1712392
1.2285141 1.9650545 0.17333859
1.2304108 1.9414732 0.171914
1.2493036 1.9447958 0.17288873
1.2911248 1.9830643 0.17701256
1.3158946 1.9942515 0.17873707
1.3020653 1.9471726 0.17521307
1.2765259 1.8838265 0.1701895
1.2615435 1.8373137 0.16666549
1.276778 1.8352697 0.16719034
1.2926089 1.8339229 0.16779017
1.3026788 1.8243337 0.16764021
1.288143 1.7807482 0.16434115
1.2878515 1.7575246 0.16291656
1.3015815 1.753594 0.16329145
1.2997382 1.7288325 0.16171689
1.3006599 1.708128 0.16051723
1.3129424 1.7024847 0.16074218
1.3209097 1.6912522 0.16044226
1.3349724 1.6878093 0.16089213
1.3409414 1.6741369 0.16036728
1.3624911 1.6798214 0.16171689
1.364548 1.6614094 0.16074218
1.3753538 1.6537722 0.16081715
1.3970326 1.6590356 0.16216677
1.4426905 1.6712132 0.16509093
1.4693179 1.6811049 0.16696541
1.5106537 1.7071658 0.1704894
2.6469746 2.6456511 0.28048322
2.7908642 2.7554905 0.29397938
2.9319143 2.8594806 0.30702567
3.1461434 3.0310361 0.32756984
3.5438673 3.3726375 0.36693367
6.2792845 5.9035878 0.64712918
6.3037 5.8540897 0.64592952
6.3395014 5.8153009 0.64592952
6.3846693 5.7849979 0.64690423
6.4267325 5.751699 0.64757907
6.4619031 5.7121572 0.64757907
6.4848127 5.6619053 0.64637941
6.5103703 5.6141934 0.64547968
6.5515275 5.5799603 0.64615446
6.5894575 5.5428662 0.64652938
6.6179752 5.497869 0.6460045
6.6531267 5.4584231 0.64615446
6.6934662 5.4231477 0.64682925
6.7001443 5.3607917 0.64428002
6.7243047 5.3127785 0.64345521
6.7497015 5.2658987 0.64278042
6.7826753 5.2249923 0.64285541
6.8407974 5.2032003 0.64532971
6.8757844 5.1635232 0.64562958
6.8985271 5.1147032 0.64480484
6.9112744 5.0587306 0.64308035
6.9389505 5.0138922 0.64278042
6.9687729 4.9706421 0.64270544
6.9991412 4.9277892 0.64270544
7.0349774 4.8887343 0.64323032
7.0574412 4.8403997 0.64255548
7.0878344 4.797564 0.64263046
7.1345506 4.7656164 0.64420503
7.1386809 4.7052841 0.64195567
7.0194626 4.5651531 0.6286844
7.0456634 4.5209198 0.62853444
7.0850658 4.4850712 0.62958413
7.1268306 4.4504938 0.63085878
7.1446648 4.4009271 0.63003403
7.1459684 4.3414702 0.62778467
0.88136923 0.52740574 0.076316126
0.96442735 0.56917024 0.083289146
0.98427153 0.57278103 0.084713742
0.98171502 0.56325352 0.084188893
0.9851526 0.55721921 0.084188893
0.98855311 0.55116397 0.084188893
0.98405361 0.54076105 0.083514079
0.98559999 0.53376204 0.083364122
0.98533869 0.52582443 0.083064213
0.99119347 0.52116245 0.083289146
0.99260235 0.51415241 0.083139189
0.99662638 0.508506 0.083214164
0.99705553 0.50103635 0.082989231
0.9983241 0.4940235 0.082839273
0.99775183 0.48613933 0.082539357
0.99352527 0.47655362 0.081939526
0.9973321 0.47087479 0.082014509
0.99749035 0.46348414 0.081789568
1.0048486 0.4594309 0.082164466
1.0031029 0.4512085 0.081789568
1.0104109 0.44706523 0.082164466
1.0122209 0.44045866 0.082089484
1.0084885 0.43148974 0.081564635
1.0129551 0.42606804 0.081714593
1.014629 0.4194631 0.081639618
1.0144128 0.41210189 0.081414677
1.0206259 0.40735066 0.081714593
1.032388 0.40472573 0.082464382
1.0357822 0.39874232 0.082539357
1.0260859 0.38778907 0.081564635
1.0321848 0.38287529 0.081864551
1.0363884 0.37721801 0.082014509
1.0508894 0.37521809 0.082989231
1.0409395 0.36447152 0.082014509
1.0488141 0.36002353 0.082464382
1.039664 0.34975889 0.081564635
1.0380031 0.34212214 0.081264719
1.0296462 0.33237058 0.080439955
1.0079 0.31851932 0.078565486
1.0384097 0.32118642 0.080814846
1.0632633 0.32175443 0.08261434
1.0738218 0.31777617 0.083289146
1.0853288 0.31395802 0.084038936
1.0891538 0.30783623 0.084188893
1.1063993 0.3054018 0.085388549
1.1169167 0.30094725 0.086063363
1.1399562 0.29967809 0.087712891
1.113765 0.28548121 0.085538507
1.1048552 0.27597737 0.084713742
1.0900584 0.26517603 0.083439104
1.0994267 0.26032528 0.084038936
1.1000317 0.25335005 0.083963953
1.0957277 0.24528512 0.083514079
1.1118265 0.24174386 0.084638759
1.1015819 0.23243976 0.08373902
1.1098253 0.2270795 0.084263869
32.975147 6.3459721 2.5239968
33.077187 6.1553802 2.5288703
33.232105 5.9734788 2.5378678
33.328068 5.7798533 2.5424416
33.501583 5.5984249 2.5530136
33.597332 5.4027328 2.5577371
33.680107 5.2042489 2.5615611
33.926441 5.0293756 2.5779064
33.946793 4.8197107 2.5771565
29.626007 4.0208783 2.2471004
29.941854 3.8768001 2.2692189
29.974976 3.6942272 2.2699687
30.132767 3.5261159 2.2802408
34.708019 3.845881 2.624768
34.881714 3.6486154 2.6361649
34.970924 3.4411581 2.6412635
35.108555 3.2373221 2.650111
35.243004 3.0317554 2.6588085
35.450798 2.8306143 2.6731293
35.510262 2.6161904 2.6763535
35.703735 2.4102802 2.6897748
35.879097 2.2010553 2.7019212
35.924782 1.9826781 2.7043955
35.983082 1.7645067 2.7079196
36.058987 1.5465068 2.7128682
36.064808 1.325114 2.7126431
32.182068 0.98468858 2.4200013
36.90757 0.041879185 2.1467607
47.15992 -1.973284 2.745693
34.568703 -1.6589206 2.0129869
34.570831 -1.8717006 2.013742
38.864578 -2.3434465 2.2647347
42.71104 -4.4224925 2.4977207
36.585556 -4.242588 2.142288
1.1318204 -0.1451416 0.065686643
1.2100592 -0.16274251 0.070333585
1.2347399 -0.17378616 0.07184384
1.39069 -0.20447257 0.081079632
1.4180251 -0.21739316 0.082764149
1.4097641 -0.22498758 0.082357541
1.4044176 -0.2329794 0.082125194
1.4049293 -0.2419315 0.082241371
1.3945737 -0.24896705 0.081718586
1.3871299 -0.25642958 0.081370071
1.3855302 -0.26493603 0.081370071
1.3750645 -0.27168956 0.080847286
1.370437 -0.27952272 0.080673024
1.3628348 -0.28669235 0.080324508
1.3522694 -0.29314429 0.079801723
1.3387537 -0.29882458 0.079104684
1.336895 -0.30703339 0.079104684
1.328185 -0.31362364 0.078698076
1.3233252 -0.32106075 0.078523815
1.3097063 -0.32627675 0.077826776
1.3047781 -0.33356455 0.077652514
1.2978787 -0.34029755 0.077362083
1.2870897 -0.34592137 0.076839298
1.29553 -0.35672924 0.077478252
1.2933166 -0.36467174 0.077478252
1.2987278 -0.37481627 0.077942953
1.2925738 -0.38164666 0.077710599
1.294986 -0.39101413 0.078001037
1.287793 -0.3974798 0.077710599
1.2977064 -0.40927953 0.07846573
1.2970711 -0.41784692 0.078581907
1.2944828 -0.42579773 0.078581907
1.2899531 -0.43309671 0.07846573
1.2834939 -0.4397088 0.078233384
1.2788869 -0.44691691 0.078117207
1.2780013 -0.45542613 0.078233384
1.2779976 -0.46428227 0.078407645
1.2788694 -0.47350228 0.078639992
1.278742 -0.48239791 0.078814253
1.2804171 -0.49202621 0.079104684
1.282022 -0.50169319 0.079395115
1.2798468 -0.5099197 0.079453208
1.2766939 -0.51776308 0.079453208
1.2762612 -0.52673 0.079627462
1.2757664 -0.53571099 0.079801723
1.2706194 -0.54274434 0.079685554
1.2736742 -0.55331588 0.080092162
1.2702552 -0.56112057 0.080092162
1.2722521 -0.57135886 0.080440678
1.2796196 -0.58413094 0.081137717
1.2769169 -0.59239185 0.081195809
1.2768698 -0.60191894 0.081428155
1.2830559 -0.61448711 0.08206711
1.2765684 -0.62103766 0.081892848
1.2727337 -0.62885886 0.081892848
1.2403001 -0.6223253 0.08003407
12.371577 -6.3049278 0.80722207
12.243993 -6.3348436 0.80141342
12.166004 -6.3894277 0.79885757
12.101023 -6.4503379 0.79717308
12.008532 -6.4959669 0.79368788
11.936068 -6.5517535 0.79153866
11.852905 -6.6010671 0.78869241
11.769589 -6.6496072 0.78584617
11.724236 -6.7192173 0.78555572
11.75356 -6.83217 0.79031885
13.134694 -7.7432451 0.88645244
11.668834 -6.9758897 0.79031885
11.48495 -6.961967 0.78073454
11.424155 -7.0213284 0.77951473
11.368149 -7.083374 0.77864343
11.296619 -7.1354012 0.77672654
11.197976 -7.1695914 0.77295089
11.131164 -7.2234926 0.77138257
11.070784 -7.2812333 0.77027893
10.99101 -7.3257699 0.76783925
10.91607 -7.3729553 0.76574814
10.855797 -7.429647 0.76470256
10.813286 -7.4983926 0.76493496
10.760539 -7.560009 0.76447022
10.67979 -7.6015778 0.7620306
10.610273 -7.6506152 0.76040417
10.554262 -7.7090974 0.75976521
10.601459 -7.8437791 0.76661944
10.907027 -8.1739054 0.7923519
11.049101 -8.3867445 0.80640888
11.179467 -8.5943279 0.81976885
11.281702 -8.7835836 0.83121192
17.640144 -13.908909 1.3063616
17.51078 -13.982001 1.3031087
17.421555 -14.086671 1.3028764
17.337883 -14.195832 1.3031087
17.294258 -14.338267 1.3064196
17.19219 -14.432559 1.305374
17.096466 -14.531958 1.3048513
17.006222 -14.635936 1.3047931
16.920612 -14.743943 1.3051417
16.811859 -14.831637 1.3037477
16.718304 -14.932519 1.3035734
14.459789 -13.075601 1.1336116
14.361614 -13.1479 1.1322174
14.280671 -13.235772 1.1322174
14.163517 -13.289676 1.1293712
14.091116 -13.38527 1.1301264
41.302105 -40.209419 3.3532224
41.065983 -40.473297 3.3541517
40.830296 -40.737907 3.3552554
24.637182 -24.884838 2.0368023
20.779308 -21.775602 1.7506089
27.836523 -29.531994 2.360636
26.7967 -31.380819 2.4003093
26.660284 -31.611807 2.4054208
37.684464 -45.244022 3.4253662
37.397266 -45.463604 3.4245529
37.174255 -45.761951 3.4297807
36.981472 -46.099762 3.4380291
36.750599 -46.392326 3.4429665
36.506462 -46.669632 3.4468582
36.280437 -46.971764 3.452667
36.081745 -47.311768 3.4613218
35.861023 -47.62558 3.468118
35.62709 -47.924042 3.4738686
35.395565 -48.227856 3.4800839
35.162235 -48.531441 3.4863572
34.937546 -48.849403 3.4937341
34.667095 -49.105267 3.4967546
34.421642 -49.398144 3.5025053
34.205009 -49.735092 3.5114508
33.982735 -50.067116 3.5201056
33.754333 -50.393291 3.5284121
33.492382 -50.671917 3.5334656
33.23373 -50.957577 3.5390999
33.041447 -51.348587 3.5521114
32.780331 -51.63633 3.5580363
32.531757 -51.946487 3.5655875
32.318394 -52.316681 3.5773211
32.078842 -52.648701 3.5864987
31.809185 -52.934391 3.592598
31.52603 -53.199856 3.597419
31.303265 -53.570713 3.6094429
31.070654 -53.929592 3.6207118
30.831856 -54.282421 3.6316321
30.549416 -54.562042 3.6377313
30.342361 -54.980961 3.6531823
18.870659 -34.695396 2.2973216
18.351351 -34.239479 2.2596231
18.051874 -34.182823 2.2485285
17.88188 -34.369995 2.2535822
17.689775 -34.51638 2.2560217
17.502396 -34.673294 2.2592165
17.307091 -34.815792 2.2615399
17.158972 -35.055828 2.2702529
17.005091 -35.288158 2.2785013
16.816057 -35.450462 2.2822771
16.630739 -35.622631 2.2867496
16.441439 -35.788414 2.2908738
16.273344 -36.003246 2.2981927
16.116209 -36.246548 2.3073704
15.913899 -36.391403 2.3103328
15.730137 -36.58099 2.3161995
15.569524 -36.828545 2.325784
15.354364 -36.950119 2.3274684
15.200195 -37.222008 2.3386793
16.399731 -40.87426 2.5618484
15.93595 -40.434498 2.5281
15.737275 -40.659996 2.5361161
15.503806 -40.798721 2.5387881
15.37808 -41.227943 2.5595832
15.167027 -41.436836 2.5667279
15.791369 -43.976707 2.7180438
15.524884 -44.08313 2.7186828
13.937842 -42.030399 2.5757892
12.409378 -38.20422 2.33653
8.7239132 -27.429434 1.6740507
8.596096 -27.613033 1.6820085
8.4346495 -27.691999 1.683635
8.2617245 -27.733664 1.6830541
7.6358562 -26.219572 1.5882565
7.493959 -26.333145 1.5923226
7.3031001 -26.273788 1.5859911
6.8679547 -25.937771 1.5604911
6.5886145 -26.176933 1.5699011
6.3308544 -26.523821 1.5859331
6.1880846 -26.648714 1.5911027
4.8783746 -23.625818 1.4029598
5.2772384 -26.373735 1.5642667
5.0790501 -26.218422 1.5531721
4.8553925 -25.914494 1.5333645
4.6697979 -25.797424 1.5247096
4.5172606 -25.859032 1.5266845
4.3628173 -25.911858 1.5281948
3.8284419 -23.62232 1.391691
3.6276495 -23.287298 1.3706055
3.4719996 -23.224207 1.36561
3.3127322 -23.12846 1.3587557
3.1570737 -23.048458 1.3528891
3.0013578 -22.958506 1.3464994
2.8595672 -22.969555 1.3460928
2.7304163 -23.086802 1.3519596
2.5903742 -23.118002 1.3528309
2.32061 -21.925262 1.2821393
2.1650531 -21.728489 1.269825
2.0200794 -21.617117 1.2625641
1.871608 -21.448101 1.2519923
1.7303697 -21.340771 1.24508
1.5971558 -21.321121 1.2433374
1.3870999 -20.17819 1.176131
1.3275999 -21.214569 1.2360766
1.2003847 -21.275141 1.2391552
1.0724761 -21.334951 1.2422338
0.94475853 -21.413935 1.246474
0.81944466 -21.579941 1.255826
0.69546264 -21.849979 1.2712771
0.5558452 -21.638271 1.2587304
0.42519057 -21.750069 1.2650619
0.29311794 -21.856085 1.2711029
0.14585705 -20.047581 1.1657916
0.022793941 -20.003174 1.1631777
-0.099323846 -19.879147 1.155975
-0.2205306 -19.809284 1.1519669
-0.34136674 -19.766636 1.1495854
-0.45909339 -19.612465 1.1407562
-0.5783332 -19.572359 1.138607
-0.69588715 -19.497606 1.1344829
-0.8162604 -19.510923 1.1355284
-0.94184852 -19.628199 1.142673
-1.0669631 -19.708776 1.1477267
-1.189977 -19.736736 1.1497597
-1.3184059 -19.839632 1.1562073
-1.4576875 -20.07312 1.1703223
-1.5900019 -20.180243 1.1771185
-1.7071178 -20.09152 1.1725297
-1.8493069 -20.288454 1.1846697
-1.9936862 -20.481409 1.1966356
-1.9153159 -18.498674 1.0813916
-2.0317261 -18.513367 1.0829599
-2.1338985 -18.402378 1.0772092
-2.2424142 -18.353264 1.0751182
-2.3493905 -18.295591 1.0725623
-2.4484153 -18.182884 1.0668118
-2.5508826 -18.103262 1.0630361
-2.3810635 -16.179089 0.95081252
-2.4748404 -16.128651 0.94872141
-2.5644662 -16.055 0.94529426
-2.6496844 -15.95919 0.94058925
-2.7368758 -15.880652 0.93692982
-2.8249595 -15.811475 0.93385118
-2.9133875 -15.747706 0.93112111
-2.994009 -15.646189 0.92618376
-3.0721395 -15.537424 0.92083979
-3.1554379 -15.459591 0.91735458
-3.2389257 -15.38621 0.91415977
-3.3205736 -15.307509 0.91067457
-3.4052958 -15.245927 0.90823495
-3.4737351 -15.115775 0.90172923
-3.557924 -15.058228 0.89958
-3.6342368 -14.970145 0.89563012
-3.7134666 -14.897193 0.8926096
-3.7991135 -14.851883 0.89127362
-3.8721843 -14.759732 0.88714945
-3.940897 -14.654715 0.88227016
-4.0137711 -14.568661 0.87855262
-4.0860095 -14.483228 0.87489313
-4.1639981 -14.420479 0.87262774
-4.2359972 -14.339128 0.8692587
-4.3094649 -14.265083 0.86635441
-4.371285 -14.155387 0.86130083
-4.4463415 -14.091168 0.85903549
-4.5235319 -14.035116 0.85729289
-4.5945849 -13.961578 0.8545047
-4.6642704 -13.885807 0.85160035
-4.7325521 -13.807818 0.84857982
-4.807631 -13.751191 0.84689534
-4.8811879 -13.691342 0.84503657
-4.9511228 -13.622666 0.842655
-5.0224795 -13.559265 0.84062195
-5.0907779 -13.488964 0.83818233
-5.1659255 -13.437905 0.83696252
-5.232996 -13.366912 0.83452284
-5.3067832 -13.314149 0.83324492
-5.3763666 -13.251735 0.83138615
-5.445004 -13.188046 0.82946932
-5.5149956 -13.128615 0.82784289
-5.5758328 -13.04863 0.82493854
-5.6347032 -12.965645 0.82185996
-5.7044683 -12.908913 0.82046586
-5.7762041 -12.857276 0.81942028
-5.8400569 -12.7889 0.81732917
-5.9032888 -12.720226 0.81523806
-5.9735627 -12.667511 0.81419247
-6.0408244 -12.609013 0.81279844
-6.0975456 -12.52952 0.81006831
-6.1597123 -12.462337 0.80815148
-6.2244201 -12.40111 0.80664122
-6.2872486 -12.336889 0.80495667
-6.3550291 -12.283006 0.8039692
-6.4205284 -12.225221 0.8027494
-6.4818015 -12.160047 0.80106491
-6.543467 -12.096338 0.79949653
-6.6069975 -12.036708 0.79821861
-6.858511 -12.315155 0.81947839
-7.1284151 -12.617033 0.84248072
-7.3114328 -12.757545 0.85485321
-7.5631671 -13.011069 0.87495124
-7.7756929 -13.189734 0.89016998
-8.0378208 -13.445103 0.91073269
-8.3385582 -13.755792 0.93524528
-8.6533356 -14.079443 0.96086156
-8.9977312 -14.440404 0.98926598
-9.3820601 -14.85336 1.021504
-9.6442051 -15.062868 1.0399756
-9.9451361 -15.32498 1.062281
-10.365391 -15.759943 1.0968426
-10.887688 -16.334846 1.1415113
-11.013974 -16.306616 1.1442415
-11.546857 -16.871433 1.1888521
-12.046108 -17.371235 1.2292804
-12.568558 -17.889214 1.2713933
-13.383785 -18.803188 1.342201
-13.583571 -18.838129 1.3506236
-15.846529 -20.876671 1.524303
-20.109194 -23.657812 1.8059076
-20.300865 -23.588459 1.8100898
-55.031616 -44.146595 4.1042838
-52.872757 -29.178917 3.513077
-37.991108 -18.885534 2.467864
-88.144485 -29.831196 5.4137335
-88.663437 -28.799095 5.4234924
-91.671883 8.9241905 5.3584352
-91.699799 9.4952507 5.3633723
-91.517754 10.044334 5.3562279
-91.250122 10.581997 5.3442616
-91.328148 11.159377 5.3527427
-91.15274 12.844947 5.3554144
-91.099869 13.408077 5.3570409
-91.962181 14.11202 5.412746
-21.963236 5.9063888 1.3226258
-21.746603 5.9914536 1.3117636
-21.703667 6.1231489 1.3114151
-21.621569 6.2434645 1.3087431
-21.417219 6.3270822 1.298694
-21.302498 6.4355679 1.2941052
-21.191071 6.5440636 1.2897487
-21.062929 6.646327 1.2844048
-20.89538 6.7347097 1.2766792
-20.77211 6.8359556 1.2716837
-20.620945 6.9267244 1.2650038
-20.528948 7.0362897 1.2619833
-20.377014 7.1242294 1.2553033
-20.278378 7.2296815 1.2519343
-20.138872 7.3195276 1.2460675
-20.018688 7.4152179 1.2414205
-19.855129 7.4934945 1.2341017
-19.743549 7.5901055 1.2300355
-19.61294 7.6783514 1.2248077
-19.48756 7.7674994 1.2199284
-19.3424 7.8475175 1.2138293
-19.161009 7.9111896 1.2054648
-19.07897 8.0146904 1.2033737
-18.993633 8.1163073 1.2011083
-18.853748 8.1937008 1.1954159
-18.74559 8.2838087 1.1917564
-18.591507 8.3524427 1.1851926
-18.479973 8.4389906 1.1813588
-18.411545 8.5446587 1.1803132
-18.259445 8.6106291 1.1739237
-18.128841 8.6854086 1.1689283
-18.016859 8.7680855 1.1651527
-17.893808 8.844408 1.1606799
-17.766043 8.9173136 1.1559168
-17.686975 9.013916 1.1543485
-17.561289 9.08603 1.1497597
-17.426546 9.1522989 1.1445899
-17.318085 9.231348 1.1411628
-17.247946 9.3303108 1.1402915
-17.15449 9.4162703 1.1379099
-17.059759 9.5009508 1.1354703
-16.967243 9.5862951 1.1332049
-16.869127 9.6678858 1.130591
-16.688658 9.7009706 1.1224588
-16.502401 9.7286587 1.1139201
-16.458677 9.8394661 1.1150237
