# .PCD v0.7 - Point Cloud Data file format
VERSION 0.7
FIELDS x y z
SIZE 4 4 4
TYPE F F F
COUNT 1 1 1
WIDTH 1557
HEIGHT 1
VIEWPOINT 0 0 0 1 0 0 0
POINTS 1557
DATA ascii
16.852486 4.5064392 3.5878801
16.751873 4.3695769 3.5606654
17.335585 4.4083996 3.6789992
17.010538 4.2147923 3.6044106
17.113205 4.1289454 3.6207395
17.80093 4.1794529 3.7608449
24.46851 5.586668 5.1631107
17.989529 3.9914556 3.7900758
17.994532 3.8768733 3.7860439
17.950867 3.7523596 3.7719326
31.624197 6.4081588 6.6385536
17.861965 3.505574 3.7439115
28.416206 5.3959718 5.9505243
17.801945 3.1546664 3.7185109
19.8755 3.3964489 4.1474962
19.924959 3.2792025 4.1535439
19.904074 3.1504524 4.1450772
21.043409 3.1985497 4.3783178
19.988729 2.9128821 4.1549549
23.017359 3.2101011 4.7806931
21.73077 2.8948607 4.5095534
18.925425 2.4030802 3.9239321
20.674589 2.4963615 4.2835698
25.200855 2.8860769 5.2181449
23.02807 2.4942057 4.7647672
20.470512 2.0902169 4.2325673
25.37451 2.4336913 5.2439485
20.434137 1.8334285 4.2200689
20.427433 1.7065449 4.2164402
20.207052 1.5633441 4.1688647
19.242199 1.3699851 3.9678788
19.301069 1.2551962 3.9783616
25.443958 1.4979044 5.2433438
22.119267 1.1660558 4.5563221
19.701504 0.91743392 4.0567803
21.739462 0.87867188 4.4754844
21.763042 0.74590182 4.4793148
22.359554 0.62901109 4.6012769
22.222961 0.48872522 4.5724497
21.744686 0.34473896 4.4734683
20.6749 0.20090684 4.2529283
20.693375 0.07410723 4.256557
20.281704 0.054494899 3.7677338
20.244297 -0.069824778 3.7607892
20.263149 -0.19422792 3.7644444
25.818695 -0.4057335 4.7975321
27.861839 -0.77986884 5.1787491
23.760122 -0.8110944 4.416863
23.651546 -0.95271659 4.3976741
23.71204 -1.1009206 4.4101009
23.870764 -1.2551135 4.4409862
23.862614 -1.4015582 4.4409862
23.68874 -1.5372587 4.410284
24.521273 -1.7424164 4.5672665
24.489534 -1.8912542 4.5634289
34.062462 -2.8406198 6.351275
32.684227 -2.9277592 6.097435
19.372185 -1.8554801 3.6151373
25.027491 -2.5520103 4.6739926
32.535851 -3.5192537 6.0808048
24.59478 -2.8132579 4.5992479
31.560434 -4.0027609 5.9112124
24.593407 -3.272752 4.6094818
31.330742 -4.3649325 5.877769
24.515396 -3.5690649 4.6027198
44.135612 -6.7016993 8.2957382
42.603027 -6.7366991 8.0152168
43.904961 -7.4959145 8.2769156
44.210529 -7.8275547 8.3434362
42.924828 -7.8718786 8.1096992
44.146881 -8.3762779 8.3501978
43.728561 -8.8541861 8.290987
33.919468 -12.033293 6.6877184
33.809837 -12.463593 6.6957593
33.755733 -12.679454 6.7003284
33.695663 -12.893364 6.7039833
33.626911 -13.104157 6.7061763
33.581512 -13.324382 6.7133036
33.539234 -13.546383 6.7213445
25.253454 -10.562246 5.0859118
25.266876 -10.750485 5.1018109
25.144495 -10.881111 5.0904808
25.175344 -11.07835 5.1104002
25.238821 -11.291633 5.1372647
25.092989 -11.411689 5.1217308
25.076538 -11.777688 5.1474986
24.890221 -11.877139 5.1241069
24.597467 -11.923291 5.0787845
24.89431 -12.256376 5.1555395
25.334835 -12.666967 5.262814
25.126888 -12.756315 5.2357674
25.049019 -12.910702 5.23595
24.831688 -12.992146 5.2070751
12.588807 -8.1420784 2.7845371
2.0299604 -1.3313627 0.44898778
2.0782607 -1.3813283 0.46159753
2.0469091 -1.3786823 0.45648053
2.0432844 -1.3945398 0.45757705
2.0298367 -1.4036973 0.45648053
2.0163534 -1.412742 0.45538405
1.9956186 -1.4165547 0.45264277
1.9797039 -1.4236091 0.45099804
1.9613936 -1.4287857 0.44880503
1.9399294 -1.4314575 0.44588101
1.9271713 -1.4403919 0.44496727
1.9112405 -1.4468511 0.44332251
1.8999856 -1.4567571 0.44277427
1.8840209 -1.4629629 0.44112951
1.8726897 -1.4726729 0.44058126
1.8590028 -1.4804624 0.43948475
1.8491184 -1.4912242 0.439302
1.8406953 -1.5031637 0.43948475
1.8291639 -1.5125507 0.4389365
1.8221105 -1.5256387 0.43948475
1.8157157 -1.5393325 0.44021577
1.7950432 -1.5408423 0.43747449
1.7877818 -1.5537616 0.43802276
1.812914 -1.5952169 0.44661203
1.8023576 -1.6056569 0.44642925
1.7946622 -1.6186606 0.44697753
1.7846966 -1.629642 0.44697753
1.7667203 -1.6332229 0.44496727
1.7717443 -1.6581361 0.44880503
1.7615368 -1.6689762 0.44880503
1.751263 -1.6797533 0.44880503
1.7493898 -1.6986836 0.45099804
1.7494538 -1.7197208 0.45373929
1.7507194 -1.7422091 0.45684603
1.7517744 -1.7647773 0.4599528
1.7526181 -1.7874234 0.46305954
1.7525649 -1.8094399 0.46598354
1.8012575 -1.8826573 0.48206559
1.7754864 -1.8786725 0.47822782
1.76661 -1.8924053 0.47895882
1.7582985 -1.9068224 0.47987258
1.7372942 -1.9074018 0.47731408
1.6347872 -1.8171859 0.45209453
1.4503198 -1.6731758 0.40933096
1.4741305 -1.7433864 0.42212346
1.4627751 -1.7516441 0.42194071
1.4144531 -1.7150891 0.41097569
1.3983129 -1.7168767 0.40933096
1.4358331 -1.7851655 0.42358547
1.4376985 -1.8101054 0.42742324
1.4429532 -1.8397753 0.43235749
1.411764 -1.8229491 0.42632672
1.4352037 -1.8768642 0.43692625
1.3400984 -1.775026 0.41115844
1.3044935 -1.7501158 0.40348294
1.282654 -1.7430452 0.40001068
1.26731 -1.7445205 0.39854869
1.2548623 -1.7498676 0.39800042
1.2480799 -1.7631502 0.39927968
1.2349844 -1.767552 0.39854869
1.2313751 -1.7856159 0.40092444
1.2314641 -1.8093898 0.40457943
1.2192419 -1.81528 0.40421394
1.2124279 -1.8292816 0.40567595
1.2060263 -1.8440903 0.40732071
1.1952218 -1.8522816 0.40750346
1.1859469 -1.8628972 0.40823445
1.1771098 -1.874301 0.40914819
1.1681772 -1.8856664 0.41006196
1.1581237 -1.8953151 0.4106102
1.1469803 -1.9032273 0.41079295
1.1372908 -1.9136093 0.41152397
1.1250305 -1.9197034 0.41134119
1.1142145 -1.9282726 0.41170672
1.1043096 -1.9384894 0.41243771
1.0991379 -1.9572279 0.41499621
21.54636 -38.897625 8.2632093
21.277132 -38.973873 8.2515135
20.336538 -37.800655 7.9764738
20.044811 -37.812675 7.952899
19.708643 -37.736263 7.911232
19.375523 -37.659779 7.8701134
19.070751 -37.633259 7.8399591
18.741135 -37.552513 7.7990232
18.411495 -37.465622 7.7573562
18.075068 -37.358406 7.7120342
17.773628 -37.317711 7.6809664
17.443327 -37.21064 7.6367412
17.162785 -37.204483 7.6137142
16.842749 -37.107662 7.5725956
16.496088 -36.944584 7.5185013
16.21888 -36.930782 7.4952922
15.922585 -36.868946 7.4627628
15.643032 -36.841068 7.4375429
15.358743 -36.797543 7.4095821
15.249085 -37.174885 7.4666004
14.761209 -36.62397 7.3375788
14.454774 -36.508179 7.2964597
14.173836 -36.450489 7.2674026
9.2480745 -24.222668 4.8172688
13.603313 -36.29578 7.2027087
9.4140921 -25.595686 5.0670886
13.046085 -36.152954 7.142036
8.8506203 -25.00676 4.9285641
8.6051426 -24.795883 4.8764801
7.7761421 -22.859163 4.4859424
7.661231 -22.982927 4.5009279
11.695339 -35.814629 7.0009527
11.452005 -35.812672 6.9866982
11.18329 -35.726513 6.9563613
10.938238 -35.7108 6.9400969
10.696058 -35.700954 6.9252939
7.2727923 -24.828773 4.8068523
7.1855245 -25.100721 4.8508949
7.0229006 -25.11404 4.845047
6.4946985 -23.787119 4.5811553
7.272655 -27.294046 5.2481942
9.4078989 -36.197964 6.9497824
5.3144021 -20.976797 4.020112
5.744978 -23.275007 4.4539614
5.872036 -24.433043 4.6686931
6.2757111 -26.836075 5.1206346
6.1111484 -26.875036 5.1208172
5.3706088 -24.307547 4.6250157
5.2366209 -24.411179 4.6385388
5.0791254 -24.406273 4.6315947
4.9076943 -24.330002 4.6113091
8.1784792 -41.866154 7.9269485
7.9672689 -42.158031 7.9728189
4.4092102 -24.143476 4.5597734
4.3214197 -24.512829 4.6244674
4.1460495 -24.392525 4.5968719
4.0004315 -24.442732 4.6016235
7.2221832 -45.888626 8.6325474
7.0262728 -46.499794 8.739274
6.852869 -47.315571 8.8845606
6.6483898 -47.977074 9.0009718
6.4801617 -48.971157 9.1798849
6.2542219 -49.602085 9.2908144
6.0978947 -50.875359 9.5221758
5.8336887 -51.334805 9.6013069
5.5140781 -51.327599 9.5934486
5.1932907 -51.30373 9.5828495
4.8696547 -51.24263 9.565671
4.5441799 -51.148148 9.5426445
4.2285538 -51.154491 9.538806
3.9358945 -51.457882 9.5907078
3.6795394 -52.326458 9.7482386
3.4394917 -53.611759 9.9836206
-1.6975201 -49.749577 9.2506094
-2.0102983 -49.92585 9.2855148
-2.3221591 -50.032391 9.3078098
-3.3934238 -47.765553 8.8988152
-3.6921194 -47.817352 8.9125214
-4.2759151 -47.738091 8.9068556
-4.5797133 -47.825459 8.9282379
-5.1192541 -50.211365 9.3794479
-5.5458512 -51.275719 9.5844936
-6.0381632 -47.611752 8.9187346
-6.3344693 -47.605968 8.9247656
-6.6303883 -47.594444 8.9300652
-7.4973841 -51.503841 9.6722145
-7.6274624 -50.233093 9.442131
-7.9639482 -50.365002 9.4759407
-8.2540112 -50.20071 9.4543762
-19.816065 -56.965862 11.208961
-20.120195 -56.716259 11.183925
-20.491228 -56.656452 11.196717
-21.378536 -56.916142 11.299058
-21.566101 -56.362423 11.215176
-23.259443 -55.613594 11.20293
-23.599474 -55.468018 11.202565
-38.194313 -86.80014 17.625143
-38.800865 -86.731079 17.659134
-50.591038 -77.184906 17.152185
-51.247547 -77.149834 17.213955
-50.385342 -74.851212 16.76969
-50.792149 -74.465111 16.752693
-51.387287 -74.353447 16.798197
-51.651371 -73.763725 16.736246
-52.917591 -73.632088 16.852474
-53.426838 -73.386292 16.870932
-55.250633 -73.966515 17.158947
-41.74313 -51.791794 12.362482
-42.593945 -49.649719 12.157435
-43.089912 -49.608631 12.211895
-43.840832 -49.851982 12.337811
-43.819008 -49.214893 12.246435
-44.74617 -49.639584 12.420231
-48.713898 -49.583599 12.918225
-47.995293 -48.256256 12.648851
-20.684561 -19.799969 5.3201976
-20.693506 -19.566626 5.2915058
-20.416569 -19.068838 5.1906281
-20.132149 -18.5732 5.0892015
-20.274073 -18.475149 5.0963287
-20.309595 -18.280678 5.0769572
-20.338354 -18.081898 5.0563064
-20.338846 -17.860102 5.0290766
-20.735479 -17.984274 5.0998011
-21.615976 -18.5168 5.2883992
-21.790733 -18.43589 5.3033848
-21.777451 -18.196558 5.2728653
-21.354856 -17.622046 5.1442094
-21.392466 -17.43354 5.1273961
-21.562603 -17.353115 5.1425643
-22.037354 -17.513493 5.2301021
-22.123516 -17.361555 5.2251678
-21.911003 -16.978571 5.1502399
-56.480564 -43.215454 13.217022
-20.845308 -15.74715 4.8538189
-20.939177 -15.617186 4.8532705
-76.92614 -55.2024 17.597548
-45.994839 -32.579987 10.474854
-45.986801 -32.15237 10.427887
-45.893532 -31.669685 10.362462
-45.837521 -31.217588 10.306357
-44.312206 -29.782383 9.9220343
-44.576866 -29.564812 9.9404917
-44.965561 -29.426949 9.9867277
-45.105633 -29.124891 9.9779558
-45.093601 -28.726614 9.9361057
-45.122509 -28.357309 9.9039412
-47.030579 -28.757484 10.244588
-47.230556 -28.483095 10.249887
-43.015484 -25.582445 9.300683
-43.240337 -25.358315 9.315486
-43.629177 -25.227861 9.3657417
-43.813042 -24.976725 9.372138
-41.734482 -23.453627 8.8964386
-43.908119 -24.321899 9.3279123
-43.833897 -23.930479 9.2807627
-40.889847 -21.998571 8.6285267
-41.029274 -21.750023 8.6296234
-41.297031 -21.568413 8.6579494
-41.42947 -21.315063 8.6581326
-41.810291 -21.187561 8.7103996
-42.13744 -21.029404 8.7515182
-42.428032 -20.850245 8.7851439
-42.770226 -20.693575 8.8295527
-42.731297 -20.352116 8.7955608
-42.649734 -19.993139 8.7533455
-42.53503 -19.621927 8.704917
-42.398586 -19.244349 8.6526499
-42.312984 -18.89324 8.6113482
-42.239079 -18.550234 8.5729713
-42.241089 -18.242762 8.5504923
-42.297028 -17.959793 8.5393448
-24.66975 -10.296533 4.9667587
-25.131779 -10.308774 5.0469861
-30.818754 -12.202028 6.1590219
-44.571667 -17.017839 8.8661022
-44.958794 -16.850309 8.92239
-29.586439 -10.882009 5.8574839
-45.871498 -16.553301 9.0625591
-46.390198 -16.419481 9.1449795
-29.975851 -10.402949 5.8956785
-47.824257 -16.269484 9.3876715
-30.980785 -10.327531 6.0680122
-30.950113 -10.106721 6.049737
-49.055809 -15.687106 9.5711536
-49.545208 -15.509171 9.6479082
-50.152706 -15.3621 9.7476902
-31.028717 -9.2961521 6.0186696
-31.01441 -9.0848579 6.0049634
-31.392822 -8.9869328 6.0674639
-53.374023 -14.926356 10.299596
-37.129704 -10.138091 7.1520872
-35.910007 -9.0981989 6.8836269
-55.606968 -13.726495 10.644263
-55.619408 -13.368035 10.630739
-55.695595 -13.02539 10.629826
-36.766705 -8.360693 7.0064349
-36.584991 -8.0836029 6.9622097
-38.633377 -8.2879496 7.34233
-36.123169 -7.5178432 6.8562145
-40.032261 -8.0755186 7.5888605
-58.209927 -11.371487 11.022373
-58.563595 -11.067966 11.076285
-58.974709 -10.771308 11.141344
-83.661629 -14.750615 15.788685
-83.679802 -14.224972 15.775344
-83.596687 -13.683619 15.743546
-83.373146 -13.122269 15.685979
-41.70993 -5.5192065 7.8183947
-41.814217 -5.2721543 7.8317356
-48.056179 -5.7599502 8.9943933
-42.927856 -4.8782067 8.0285578
-42.900284 -4.608623 8.0179577
-43.020676 -4.354713 8.0353193
-43.2257 -4.1076846 8.0687628
-46.644344 -4.1439838 8.7021751
-46.852459 -3.5835729 8.7321463
-45.276924 -3.1837287 8.4346285
-89.814423 -4.1042509 16.709929
-61.543297 0.96616071 11.438862
-61.620163 1.7239299 11.456223
-32.37392 1.9012134 6.0257969
-32.460732 2.1062477 6.0442548
-32.360897 2.2992535 6.0281725
-32.14719 2.4824114 5.9910741
-32.071587 2.6746335 5.9799266
-31.53277 3.2151585 5.8894649
-31.7957 3.6367228 5.9464831
-31.542429 3.8039737 5.9033542
-31.680403 4.0179734 5.9336905
-44.552425 6.2066493 8.3591528
-41.080112 5.9801521 7.7142272
-41.257462 6.2647176 7.7546148
-41.109482 6.5005541 7.7341471
-43.754158 7.1941595 8.2399998
-41.225288 7.0384569 7.7716107
-40.929619 7.246717 7.7240958
-44.741886 8.2050743 8.4530869
-40.782551 7.7379956 7.7136788
-43.464649 8.5234652 8.2308626
-44.418503 8.9938745 8.4218369
-42.676273 10.567223 8.1700068
-42.535355 10.809752 8.1555691
-42.506279 11.08046 8.162879
-25.159117 6.7238598 4.8384681
-25.117386 6.8781075 4.8384681
-25.057671 7.027317 4.8351784
-25.488092 7.6567736 4.9446459
-27.57126 8.4672928 5.3589411
-16.39152 5.255198 3.1973701
-25.091619 8.2142172 4.9053545
-25.002514 8.3552475 4.897862
-16.222219 5.5322247 3.1836636
-16.02268 5.5741634 3.1511343
-25.64135 9.0967245 5.055027
-25.608164 9.2622452 5.0595961
-25.310295 9.6849594 5.0351071
-13.8023 5.3790994 2.7512765
-17.03517 6.759542 3.4044261
-12.46081 5.0333562 2.4957914
-12.368765 5.0846772 2.4835472
-12.302866 5.14606 2.4766028
-12.184209 5.1845021 2.4590585
-12.125098 5.2474523 2.4535761
-32.406898 14.260358 6.5789819
-12.035561 5.3850102 2.4486418
-12.117743 5.5112586 2.4722166
-12.022119 5.5570478 2.4596069
-11.985126 5.629456 2.4590585
-15.615011 7.4514766 3.2138176
-15.461946 7.4952607 3.1917048
-7.803463 3.8424685 1.6145694
-12.352524 6.1764464 2.5648711
-12.380143 6.285501 2.5785773
-12.328235 6.3545899 2.5758362
-16.712662 8.7444639 3.5038424
-16.636984 8.8353186 3.4992735
-23.83779 12.847198 5.0312696
-10.46493 5.7235842 2.2149043
-14.489083 8.0400887 3.0778513
-21.723566 12.229079 4.6315947
-21.596893 12.332891 4.6206293
-14.125094 8.1817446 3.031981
-14.089886 8.2772236 3.0352705
-14.102181 8.4012575 3.0489767
-21.145502 12.773286 4.5897446
-12.471264 7.6386418 2.7161884
-12.455898 7.7347274 2.7231328
-12.375754 7.7905846 2.7160056
-12.379935 7.8996902 2.7275188
-11.155627 7.2152343 2.4672823
-58.291534 38.207539 12.953131
-58.083023 38.582436 12.959162
-12.71003 8.5563335 2.8457584
-11.637962 7.9388947 2.6164067
-11.474991 7.9313402 2.5906389
-11.450269 8.0185175 2.5961213
-11.484248 8.1477842 2.6151273
-17.175138 12.344019 3.929285
-9.8517456 7.1730423 2.2629676
-18.781363 13.851011 4.3355389
-13.273655 9.91572 3.0774858
-13.214131 9.9981651 3.0778513
-12.142701 9.3052692 2.8413723
-17.971312 13.947308 4.2262545
-17.922497 14.086475 4.2350264
-17.943424 14.281896 4.2606115
-13.195933 10.636328 3.14821
-17.876493 14.590528 4.2869272
-13.172032 10.886395 3.1741607
-17.747372 14.851707 4.2993546
-17.619905 14.929816 4.2905827
-17.404097 14.931384 4.2602458
-9.130846 8.0306158 2.2580333
-9.1093025 8.1113338 2.2649777
-12.745004 12.218458 3.2796075
-11.894401 11.543948 3.0787649
-11.758821 11.553324 3.0619519
-11.693985 11.631497 3.0635967
-12.781485 12.870064 3.369338
-12.568534 12.970167 3.3549008
-10.719709 11.199095 2.8793845
-12.44355 13.160572 3.3644037
-10.064727 10.77656 2.7386665
-9.9564133 10.79259 2.7271533
-9.70193 10.647102 2.6752522
-9.9139919 11.014797 2.752373
-9.8821487 11.115831 2.7624242
-9.785862 11.144492 2.754566
-10.727397 12.368892 3.0411184
-10.660895 12.445681 3.0438597
-10.567183 12.490596 3.0389254
-10.383173 12.426944 3.0078578
-9.3852587 11.959991 2.8236456
-14.568482 18.800926 4.4188733
-9.5024509 12.42016 2.904604
-9.203824 12.184059 2.8360727
-9.369895 12.563417 2.9110003
-9.221508 12.52409 2.8887048
-9.1600971 12.601907 2.8936388
-9.069417 12.639503 2.8894358
-13.077178 18.462452 4.203228
-13.080264 18.709131 4.2410569
-7.3247333 10.615453 2.3950961
-7.2312346 10.618753 2.3857758
-12.526914 18.639105 4.1721601
-13.170924 19.859398 4.4272795
-11.773394 17.990992 3.9943442
-12.722854 19.972429 4.3995018
-12.483926 19.865324 4.3589311
-12.190331 19.664963 4.2984409
-12.127397 19.834173 4.3190913
-11.938954 19.79792 4.2951512
-11.821272 19.877565 4.2966132
-11.222605 19.13727 4.1215382
-10.917951 18.882351 4.052093
-27.71908 48.623402 10.401388
-10.459441 18.883169 4.0102434
-26.529177 48.593819 10.288814
-13.827222 25.701904 5.4227209
-14.507359 27.367201 5.7553263
-13.287752 25.442636 5.3331733
-24.702063 48.012436 10.034243
-13.040751 25.734453 5.3604031
-23.94462 47.978554 9.9649801
-12.72657 25.897839 5.3614993
-23.354046 48.268776 9.9649801
-14.08917 29.582121 6.0882974
-12.101241 25.815247 5.2973542
-22.378426 48.510136 9.9280643
-21.309889 46.949142 9.5815697
-11.710753 26.666157 5.4113903
-11.562115 26.772711 5.4185176
-19.795063 46.61908 9.4121609
-11.249366 26.952501 5.4265585
-11.097209 27.053764 5.4331374
-18.68257 46.352737 9.2873421
-10.720587 27.077299 5.4110246
-10.572771 27.190218 5.4205279
-17.499701 45.83366 9.1172018
-17.171558 45.815891 9.0925303
-16.840561 45.785675 9.0658484
-10.755999 29.807093 5.8880029
-15.773805 45.450733 8.9404821
-15.428129 45.351204 8.9021044
-15.089868 45.265938 8.8670158
-14.775824 45.247395 8.8454514
-14.423943 45.105904 8.800312
-14.08082 44.982449 8.7591934
-13.767402 44.946735 8.7356186
-13.493048 45.036015 8.7367153
-13.236082 45.184948 8.7496901
-13.045988 45.570606 8.8087187
-8.3596058 29.893629 5.7675705
-12.730784 46.624489 8.9816008
-7.7417607 29.054407 5.5868306
-7.4987884 28.85301 5.5391326
-12.17131 48.038414 9.2093077
-11.797152 47.791477 9.1479034
-11.465085 47.70237 9.1172018
-11.166351 47.746925 9.1124496
-10.864669 47.777157 9.1053228
-11.271779 51.01284 9.7087641
-10.930715 50.951271 9.6840925
-10.590632 50.886475 9.6592388
-10.259534 50.857983 9.641695
-9.930316 50.833134 9.625247
-9.6426897 51.02256 9.6497355
-9.4165316 51.557571 9.7398319
-9.2918901 52.702667 9.9452429
-9.048089 53.22781 10.033694
-8.7819901 53.652958 10.103505
-8.6079302 54.692574 10.289179
-8.3265352 55.104046 10.356797
-8.1428757 56.221485 10.557274
-7.9095049 57.07674 10.708591
-4.9076924 38.924004 7.2902465
-4.6376405 38.693722 7.2416348
-3.9333444 38.858608 7.2577167
-3.3530769 37.743481 7.0411577
-2.8836544 37.703365 7.0265374
-2.8823657 40.992085 7.6361928
-2.3770061 40.988056 7.6294308
-1.9774063 38.146675 7.0979929
-1.8706985 40.945389 7.6166387
-1.515823 38.33704 7.129426
-1.108938 40.687874 7.5636411
-0.85489887 40.487492 7.5252633
-0.33787462 38.223927 7.1031098
0.13577573 39.560314 7.351285
0.62554938 39.830925 7.4024549
0.87090099 39.870567 7.4106789
1.3706318 40.165413 7.4680624
1.6140116 40.080601 7.4539905
1.8593643 40.058155 7.4517975
2.3550632 40.104954 7.4653211
2.5924435 39.956318 7.4404669
4.453238 57.676632 10.750624
0.40822154 2.222302 0.41773745
0.42056686 2.2129939 0.41645822
0.44075888 2.2441392 0.42285448
0.44339994 2.1864669 0.41243771
0.46022457 2.2000659 0.41554445
7.1194911 14.238798 2.9568706
7.1457543 14.074741 2.9318337
7.2590055 14.083066 2.9427989
7.3872108 14.118405 2.9596119
7.4990606 14.120571 2.9696631
7.6079497 14.115834 2.978435
7.5679998 13.837709 2.9294579
7.726222 13.923406 2.9576015
7.6919065 13.663262 2.9122794
7.2354312 12.669826 2.7097921
8.4246683 14.544522 3.1220767
7.3739319 12.552107 2.7037613
9.0462933 15.185031 3.2832627
7.8944182 13.068274 2.8357072
9.1472321 14.934537 3.2531087
9.3828707 15.110329 3.3039134
8.3530655 13.26938 2.9122794
8.1863108 12.829159 2.8265696
7.8740625 12.174374 2.6927962
8.5808058 13.090357 2.9071624
10.115587 15.227333 3.3958368
10.431725 15.496111 3.4700334
10.496695 15.387952 3.460165
9.4293776 13.642571 3.0804098
9.5247517 13.60137 3.0842476
9.5505743 13.46168 3.0657897
9.6438951 13.417994 3.069262
9.1925306 12.625729 2.9007661
8.8981276 12.065046 2.7843542
11.141273 14.914386 3.4581547
9.0128899 11.911821 2.774303
10.31227 13.45689 3.1491239
10.446484 13.460159 3.1648405
10.486958 13.34247 3.1522307
10.501282 13.193254 3.132128
10.147701 12.589667 3.0034719
10.926589 13.387111 3.2097969
10.54882 12.763546 3.0756583
9.5682211 11.433366 2.7690032
10.683681 12.608381 3.0696275
11.223027 13.081347 3.2015731
10.685449 12.301153 3.0264983
24.315836 27.64938 6.84196
10.433529 11.71751 2.9141068
10.620426 11.781067 2.9460883
11.806568 12.936446 3.2532916
10.736176 11.619521 2.9384127
23.670324 25.305799 6.4386296
23.675758 25.002316 6.398242
23.6702 24.691204 6.3556614
23.434404 24.14687 6.2524071
12.501407 12.72385 3.3134165
23.295645 23.421795 6.1381884
23.147337 22.988817 6.0617986
23.235321 22.794716 6.0480924
23.357805 22.635296 6.0437064
12.201901 11.679677 3.1374278
23.797405 22.501642 6.085556
12.350058 11.53443 3.1388898
12.437942 11.474434 3.143276
12.562613 11.447568 3.1569822
12.710075 11.439991 3.1763537
12.882159 11.452592 3.201756
13.004639 11.419394 3.2147312
13.1064 11.367085 3.2225895
13.187846 11.296685 3.2255135
13.238149 11.199677 3.2209449
13.27267 11.089869 3.2127211
15.418186 12.722847 3.7134569
13.510646 11.010009 3.2373922
17.306417 13.92765 4.1270208
13.744027 10.922295 3.260967
13.758194 10.796483 3.2485402
17.44561 13.518209 4.1001568
14.808661 11.330023 3.4636371
17.494869 13.215989 4.0732923
14.724344 10.981682 3.4121015
14.65924 10.793773 3.3815823
14.700541 10.6857 3.375917
14.493449 10.399835 3.3135991
14.699794 10.411866 3.3461287
15.281496 10.683716 3.4636371
15.361328 10.599801 3.4669268
15.893321 10.82357 3.5720081
15.995337 10.749978 3.5800493
15.928266 10.563596 3.5504436
12.677519 8.2959824 2.8139598
16.092213 10.390269 3.5583019
17.131622 10.91308 3.7733991
17.044262 10.710975 3.7395902
17.281799 10.712905 3.7772367
13.796678 8.4355831 3.0036547
13.605708 8.2045403 2.9510226
17.160875 10.205533 3.7090709
14.316827 8.3955622 3.0827856
14.356156 8.3006687 3.0802269
14.343614 8.1763916 3.0667036
16.131678 9.0650616 3.4373212
16.31686 9.0378456 3.4649165
12.45517 6.7991443 2.6354127
12.056825 6.4859581 2.5425756
13.722502 7.2739034 2.8846841
13.291059 6.9410515 2.7849026
12.208262 6.2804747 2.5497029
12.656116 6.4129958 2.6350472
12.583508 6.2794609 2.6118379
12.485917 6.1353521 2.5836945
12.678204 6.1335611 2.6156757
12.615299 6.0078807 2.5950248
12.562016 5.8882127 2.5765672
15.791237 7.2842021 3.2302651
15.866074 7.2009883 3.2364786
15.943175 7.1183324 3.2432404
18.173063 7.9806671 3.6871409
16.808252 7.2585592 3.4009538
20.665865 8.625288 4.1602817
17.013599 6.9785414 3.4159393
17.05792 6.8747516 3.4163048
17.107096 6.7728524 3.4177668
18.446749 7.1726766 3.6767242
18.617163 7.1077514 3.7019436
18.231474 6.7053199 3.6085582
26.37245 9.5165081 5.2092686
24.67218 8.732193 4.8625908
24.771734 8.5967607 4.8717284
24.889357 8.2967901 4.8744698
26.992146 8.8141575 5.2757893
26.688 8.5339727 5.2059789
16.636675 5.2073002 3.2381232
18.192127 5.571897 3.5343616
18.141211 5.4347715 3.5179141
18.206295 5.3327541 3.5241275
18.239618 5.2212124 3.5243104
18.584713 5.1968465 3.5848007
29.656036 8.0972939 5.7120147
30.832819 8.2156763 5.9289393
17.936922 4.6614628 3.442621
18.093847 4.5839162 3.4672923
18.018547 4.44736 3.4475551
17.442303 4.1917319 3.3322396
17.645756 4.1262746 3.3662312
17.735931 4.0327501 3.3786583
18.116503 4.0025506 3.4464586
17.811001 3.8205738 3.3837752
17.93421 3.7320509 3.4027812
17.977011 3.6260214 3.4066191
17.934273 3.5030181 3.3943748
19.388927 3.5407681 3.6613731
17.99765 3.1726546 3.3947403
24.030994 4.0845885 4.5287061
23.940145 3.9181604 4.506959
23.95208 3.7693584 4.504766
19.340704 2.8007567 3.6303055
19.620464 2.718472 3.6796482
21.235477 2.6771302 3.9762518
25.781914 3.0898571 4.8243961
23.094456 2.6240647 4.3181777
20.71419 2.2248843 3.8702567
23.076988 2.3356102 4.3092232
25.510353 2.4239271 4.7609816
20.791945 1.7182928 3.8757391
25.782976 1.9717278 4.8042936
28.452385 2.0004187 5.2995472
25.573681 1.6403244 4.7611647
25.171032 1.4594626 4.6844096
22.427414 1.1622775 4.1721601
22.107073 1.0096958 4.1113043
19.964363 0.7890408 3.7116294
21.795502 0.72756284 4.051362
22.278177 0.60686743 4.1403618
19.233383 0.40574566 3.573653
18.877682 0.28235868 3.5071318
21.142202 0.18656851 3.9278231
20.653433 0.063156672 3.4689958
26.167082 -0.24115834 4.3957925
24.430639 -0.37507036 4.1042624
24.444639 -0.52532721 4.10708
23.890324 -0.80681652 4.0152621
23.702629 -0.94611162 3.984601
24.256912 -1.1173549 4.0789046
26.018353 -1.358539 4.3765669
40.339825 -2.354712 6.789022
24.33852 -1.5705152 4.0968041
23.686062 -1.6744089 3.9885786
26.115816 -2.0073092 4.3999357
33.791351 -2.8059871 5.6964893
24.783785 -2.2111611 4.1796722
25.183048 -2.4026246 4.2494473
25.138401 -2.5541091 4.2444754
32.583771 -3.5127523 5.5057273
31.131147 -3.9370751 5.2715421
24.699221 -3.2777054 4.1853075
31.389124 -4.5581846 5.3285551
24.562551 -3.7208514 4.1730428
43.85022 -6.9182825 7.4585958
42.518482 -6.9758143 7.2391615
42.430408 -7.7659588 7.2472825
42.396492 -8.0289125 7.2497683
42.528378 -8.3245173 7.2809267
42.825447 -8.6558409 7.3407574
32.140968 -11.168103 5.7163777
33.906731 -12.015339 6.043541
33.802078 -12.447221 6.051662
33.734299 -12.657856 6.0533195
33.679947 -12.873762 6.0576286
33.628811 -13.091266 6.0627661
33.50293 -13.279556 6.0546451
33.340183 -13.690813 6.0551424
24.986078 -10.439853 4.5489326
25.027737 -10.638104 4.5683236
25.125832 -10.862304 4.5983219
25.375586 -11.155575 4.6564951
25.240034 -11.281288 4.6442308
25.266407 -11.479594 4.6619644
24.817669 -11.45994 4.5920238
24.543333 -11.516489 4.5542359
24.746382 -11.79758 4.6052828
24.527969 -11.878703 4.5781021
24.49975 -12.05118 4.5865545
24.967028 -12.471874 4.6883163
24.757227 -12.557471 4.6632905
22.683363 -11.681081 4.2859092
23.173899 -12.478624 4.4213157
23.01816 -12.761586 4.4211497
12.220503 -7.5819817 2.4149141
12.34321 -7.7634082 2.4485586
12.403441 -7.9079208 2.4701042
12.293394 -7.9442687 2.4578397
12.269167 -8.0357599 2.4628119
2.0650163 -1.3704872 0.41447905
2.0762069 -1.396342 0.4184567
2.0513024 -1.3979467 0.415142
2.0426862 -1.4105068 0.415142
2.032377 -1.4218833 0.41481051
2.0123508 -1.4263424 0.41249022
1.99475 -1.4323351 0.41066712
1.984329 -1.4433875 0.41033563
1.9738473 -1.4543657 0.41000417
1.9625156 -1.4646801 0.40950695
1.9511316 -1.47491 0.40900975
1.9279512 -1.4760622 0.40602651
1.9227545 -1.4908857 0.40685517
1.9158971 -1.5044827 0.40735239
1.9120324 -1.5205073 0.40851253
1.9141873 -1.5414896 0.41099858
1.9001074 -1.549466 0.41000417
1.8829606 -1.554816 0.4083468
1.8665762 -1.5606468 0.40685517
1.8494389 -1.5656979 0.40519783
1.8360537 -1.573807 0.40436915
1.8241283 -1.583104 0.40387192
1.8106763 -1.5910118 0.40304324
1.7994064 -1.6007808 0.40271178
1.7895504 -1.6117916 0.40271178
1.7767123 -1.6200837 0.40204883
1.7399293 -1.6062026 0.39591658
1.765343 -1.6498458 0.40403765
1.7530375 -1.6586132 0.40354046
1.7471002 -1.6734315 0.40453488
1.7438787 -1.6909858 0.40619224
1.7489517 -1.7168537 0.40983844
1.7537723 -1.7428472 0.41348463
1.7673763 -1.7780571 0.41928539
1.7674869 -1.8001276 0.42193717
1.7770042 -1.8321775 0.42690924
1.8018843 -1.8807906 0.43569326
1.7930212 -1.8946767 0.43635622
1.7854023 -1.9099656 0.43735063
1.7776631 -1.9252323 0.43834504
1.7671456 -1.9375609 0.43867651
1.716943 -1.9058683 0.42906383
1.6285225 -1.830164 0.40967271
1.6098194 -1.8544793 0.41066712
30.667589 -35.774677 7.9170222
30.4252 -35.935833 7.9112215
30.204763 -36.122597 7.911387
1.4991455 -1.8151057 0.39359629
1.4710058 -1.849339 0.39508793
1.4638945 -1.8637592 0.39624807
1.4741867 -1.9007617 0.40221456
1.4271239 -1.863574 0.39243615
1.4037682 -1.8565621 0.38912141
1.378193 -1.8461733 0.38514376
1.2866925 -1.7458293 0.3624379
1.2713151 -1.7473117 0.361112
1.2657468 -1.7622887 0.36260363
1.2480662 -1.7603674 0.36061481
1.2530712 -1.7906171 0.36525542
1.239819 -1.7950261 0.36459246
1.2343355 -1.8107488 0.36624983
1.2276049 -1.8248348 0.36757571
1.2180208 -1.8347979 0.36807293
1.2045786 -1.838937 0.36740997
1.1938077 -1.8471218 0.36757571
1.1782104 -1.8477597 0.36624983
1.1700007 -1.8599631 0.36724424
1.1653247 -1.878001 0.3693988
1.1553239 -1.8876394 0.36989602
1.1452484 -1.8972259 0.37039322
1.1366119 -1.9093018 0.37138766
1.1318637 -1.9281471 0.37370795
1.1175418 -1.9307879 0.37287927
1.1193572 -1.9615926 0.37751988
1.1048828 -1.9641261 0.37669119
21.596237 -38.955746 7.4836221
21.272163 -38.932617 7.4539552
20.443792 -37.968342 7.2451277
20.09304 -37.871796 7.2030311
19.730087 -37.745289 7.1557961
19.435814 -37.744648 7.1329246
19.107498 -37.673218 7.0971255
18.732321 -37.50214 7.0430956
18.42482 -37.459743 7.0137601
18.081154 -37.337772 6.970006
17.758354 -37.252167 6.9335437
17.47122 -37.236332 6.9105067
17.169241 -37.184361 6.8811712
16.850613 -37.09058 6.8445435
16.53137 -36.988895 6.8069215
16.248938 -36.964146 6.783884
15.967433 -36.937328 6.7608471
15.652539 -36.827675 6.7230592
15.331613 -36.696445 6.6817908
15.067578 -36.695866 6.6647201
14.755424 -36.572712 6.625772
14.492952 -36.567215 6.6085353
14.216437 -36.522198 6.5845037
9.2291937 -24.147003 4.3424253
13.607832 -36.269176 6.508265
13.349936 -36.256668 6.4911942
8.2705212 -22.893709 4.0888491
8.1453724 -22.987713 4.0966387
9.0964975 -26.181232 4.6559982
12.304479 -36.128086 6.412138
7.3699541 -22.082304 3.9103513
7.4139018 -22.676395 4.0074725
7.216588 -22.540192 3.9754856
7.1129494 -22.695091 3.9950423
6.9145751 -22.545969 3.9612322
10.725513 -35.753601 6.2712622
6.6087928 -22.531654 3.9441614
7.206296 -25.138941 4.3929749
7.0678654 -25.239664 4.4029188
9.7239046 -35.563717 6.1941953
6.7878594 -25.437883 4.4226418
5.9088159 -22.701824 3.9403493
5.3347855 -21.024715 3.6433504
5.8834901 -23.798906 4.1180186
6.2349281 -25.901699 4.4753456
8.9147882 -38.05986 6.5674329
5.4523172 -23.937784 4.1239853
5.3123674 -24.002563 4.1294541
5.2022843 -24.208258 4.159287
5.0498233 -24.221378 4.1561379
4.8643847 -24.070181 4.1249795
4.6921678 -23.974728 4.1035995
4.5341487 -23.9459 4.093821
4.3644128 -23.849102 4.072607
4.221941 -23.897768 4.0764189
4.0532031 -23.793926 4.0543761
3.9199002 -23.896202 4.0676346
7.2149143 -45.739254 7.7799582
7.0175638 -46.333569 7.8735991
6.9565778 -47.91481 8.1349649
6.6663828 -47.984917 8.1397715
6.4482212 -48.600727 8.2373896
6.3301244 -50.064877 8.4788675
6.0749521 -50.53653 8.552289
5.8434896 -51.26363 8.6691322
5.5218577 -51.233807 8.6581936
5.2055955 -51.249062 8.6552105
4.8846722 -51.213284 8.6439409
4.5626321 -51.155849 8.6293564
4.2477622 -51.172073 8.627533
3.9386072 -51.261089 8.6383057
3.7017136 -52.384087 8.8235989
3.4758122 -53.887905 9.0731974
3.1760538 -54.438866 9.162529
2.9098008 -55.757298 9.3813009
2.6216352 -56.947392 9.5786924
2.32251 -58.224686 9.7910004
2.0095029 -59.550671 10.011761
-2.2414696 -48.656494 8.183857
-2.8396554 -48.646984 8.1875038
-3.1149125 -48.269436 8.1270094
-3.3810542 -47.825436 8.0555773
-3.6754246 -47.816574 8.0577316
-4.1501002 -49.976871 8.4259977
-4.4910307 -50.335518 8.4909658
-4.6325064 -48.553673 8.1949615
-5.5257683 -51.255211 8.6618404
-5.4434314 -47.740993 8.0733109
-5.7229581 -47.596054 8.0545835
-6.0195961 -47.597221 8.0608807
-7.3895946 -50.886314 8.6396313
-8.5891418 -50.413544 8.5925627
-8.9156427 -50.457977 8.6093016
-11.240646 -61.414387 10.490739
-20.171898 -56.923782 10.147499
-20.053671 -55.506016 9.9164629
-21.400921 -57.034966 10.235836
-21.693787 -56.754269 10.209153
-22.763901 -55.434849 10.069271
-23.073957 -55.223152 10.056344
-23.873558 -55.221882 10.108717
-24.19051 -55.025608 10.099767
-38.270672 -85.62326 15.759821
-50.888485 -85.492706 16.718605
-50.480701 -76.050972 15.33852
-50.57761 -75.191559 15.227477
-50.598133 -74.234413 15.096214
-51.540913 -73.658813 15.106655
-53.000252 -74.763565 15.399677
-53.484455 -74.473801 15.407301
-54.341679 -73.74041 15.392385
-55.057987 -73.760422 15.4668
-42.165024 -52.351734 11.295055
-42.336487 -51.909378 11.255445
-43.417572 -51.920795 11.372621
-42.379894 -50.052586 11.0201
-42.247181 -49.279499 10.906736
-43.95153 -50.012203 11.187493
-44.693954 -49.615627 11.22064
-45.168999 -48.922138 11.188322
-49.586609 -49.281658 11.747184
-48.880322 -47.987156 11.50985
-20.161135 -19.551409 4.7178178
-20.192413 -19.342745 4.6972661
-20.430346 -19.331676 4.7249441
-20.452753 -19.116392 4.7029014
-20.288525 -18.730984 4.6385956
-20.198313 -18.41942 4.5920238
-20.313152 -18.297117 4.5925212
-20.478823 -18.219986 4.60462
-20.575418 -18.080967 4.601305
-20.503506 -17.796007 4.5606999
-20.893084 -17.910551 4.6228509
-21.328482 -18.057936 4.6946144
-21.395004 -17.890036 4.6850019
-21.795609 -17.998924 4.7484789
-21.72451 -17.717136 4.7091994
-22.821302 -18.379593 4.9225016
-21.992004 -17.490335 4.7203035
-21.981018 -17.262486 4.6951118
-21.956381 -17.026365 4.6674337
-22.218607 -17.012426 4.7009125
-22.807165 -17.242119 4.8030062
-21.04504 -15.707981 4.4113717
-46.221004 -32.764008 9.5195246
-46.001808 -32.186367 9.4335079
-42.907879 -29.631142 8.7614479
-42.97887 -29.292326 8.7390738
-43.000687 -28.922388 8.7072515
-42.97028 -28.520567 8.6654863
-42.924198 -28.11211 8.6212349
-42.993176 -27.781834 8.6006832
-42.946629 -27.379675 8.5575924
-43.003628 -27.046341 8.5357151
-42.916531 -26.625477 8.4858284
-42.965534 -26.292158 8.4634542
-42.955502 -25.925097 8.4299755
-42.928177 -25.550577 8.3936796
-42.878323 -25.165897 8.3535709
-42.297874 -24.477535 8.2110376
-42.137192 -24.040634 8.151041
-43.823364 -24.647455 8.447875
-41.366432 -22.932659 7.9468546
-41.044235 -22.425907 7.8583517
-40.925785 -22.036188 7.8096251
-41.068935 -21.78928 7.8112826
-41.256046 -21.565199 7.821558
-20.580288 -10.597483 3.8883083
-20.528828 -10.412122 3.8664312
-42.145348 -21.051577 7.9153647
-42.502037 -20.904877 7.9581246
-42.838974 -20.745131 7.9972382
-23.316126 -11.115028 4.3389449
-23.384779 -10.972174 4.3391104
-42.50177 -19.624435 7.865478
-42.39782 -19.261713 7.8242097
-24.879274 -11.119309 4.5777707
-42.243698 -18.569727 7.753109
-42.22559 -18.253435 7.7290773
-42.284153 -17.971628 7.7194648
-24.85075 -10.382599 4.5242376
-25.277981 -10.379378 4.5903664
-24.934219 -10.059887 4.516614
-26.192806 -10.381245 4.7330651
-30.052414 -11.698079 5.4177213
-30.148497 -11.522966 5.4221964
-30.317429 -11.374829 5.43993
-31.696138 -11.670745 5.6744466
-45.812366 -16.549856 8.1841888
-30.352489 -10.754912 5.4097657
-46.853195 -16.278681 8.333848
-30.632479 -10.432818 5.4364495
-31.039228 -10.359241 5.4972744
-48.702766 -15.922832 8.6093016
-48.835239 -15.635123 8.6155996
-31.199242 -9.7781916 5.4927998
-50.24345 -15.408816 8.8300629
-50.603424 -15.180145 8.8767996
-53.358521 -15.650399 9.3431816
-30.988047 -8.8829479 5.4155669
-53.475334 -14.974486 9.3307514
-53.730778 -14.691081 9.3594236
-30.269699 -8.0771465 5.2630897
-36.225315 -9.428586 6.2888303
-36.049168 -8.9118624 6.2387781
-36.651596 -8.8225107 6.3335791
-36.755932 -8.609374 6.3423634
-36.89941 -8.4044876 6.358108
-35.903645 -7.9462795 6.1779528
-38.666805 -8.3092699 6.6446657
-37.876186 -7.8965545 6.5003095
-59.880924 -12.101156 10.265006
-59.870819 -11.717216 10.250752
-85.285019 -15.066539 14.552931
-85.04921 -14.487315 14.497244
-83.958977 -13.772039 14.296703
-19.747622 -3.115099 3.3577869
-19.860943 -3.0081956 3.3738635
-19.864388 -2.8841491 3.3713772
-19.611139 -2.7246211 3.3254683
-67.112625 -8.9042616 11.37577
-41.955078 -5.3047643 7.1050806
-42.84301 -4.8836627 7.2447963
-46.56879 -4.4417019 7.8598433
-46.473362 -4.1450148 7.839292
-46.52446 -3.8619838 7.8437667
-46.483368 -3.571532 7.832994
-86.51474 -5.0473037 14.562378
-88.687057 -4.6281924 14.923019
-42.661488 -1.7017635 7.1733642
-42.676056 -1.4401318 7.1741929
-61.494495 -0.18767622 10.332792
-61.663124 0.190171 10.361133
-32.70092 0.70282185 5.4949541
-32.676033 1.1035935 5.4926338
-32.71693 1.3059968 5.5007553
-32.678749 1.5053577 5.4957829
-32.696472 1.7072825 5.5004234
-32.618435 1.9039642 5.4891534
-32.57563 2.1021023 5.4840159
-32.051571 2.2658474 5.3979988
-32.045914 2.4631498 5.3994904
-32.294567 2.6816878 5.4440732
-31.578131 2.8173912 5.3260694
-32.431026 3.094182 5.4730773
-32.588032 3.3110614 5.5029097
-31.467976 3.3924556 5.3171196
-31.514175 3.5931845 5.3285551
-31.535595 3.7917821 5.3360133
-31.514669 3.9855807 5.3365107
-40.891785 5.9381747 6.942328
-41.946262 6.8819308 7.1417084
-41.379253 7.049902 7.0523767
-41.946056 7.4116015 7.1566248
-41.924038 7.6732769 7.160768
-43.589088 8.5321455 7.4625735
-44.414577 8.9770412 7.6132278
-44.885349 9.6469784 7.7136641
-44.908115 9.9405375 7.7279172
-45.004929 10.252043 7.7552638
-44.683849 10.467712 7.7108464
-44.959145 10.823633 7.7696829
-44.024536 10.884841 7.6195259
-43.924419 11.146518 7.6138906
-50.923817 15.961717 8.966795
-25.463755 8.153265 4.4914222
-23.895018 7.9755502 4.2315478
-23.862417 8.2914839 4.2434807
-25.760319 9.1284924 4.5910296
-23.762581 8.5850277 4.244144
-25.648211 9.4446058 4.591361
-15.746362 5.908277 2.8244481
-15.902336 6.0783749 2.859087
-15.831656 6.1629558 2.8531203
-16.935848 6.7127633 3.0596275
-12.479903 5.035357 2.2596195
-12.410458 5.0961037 2.2526584
-12.336188 5.1542878 2.2448688
-12.287086 5.2225542 2.24172
-12.221169 5.3725452 2.241554
-22.698408 10.145262 4.1763577
-12.142648 5.5168104 2.2393994
-25.627935 11.8341 4.7420149
-22.287306 10.457872 4.1354208
-25.425591 12.12139 4.7317395
-15.451774 7.4830966 2.8832843
-7.8466969 3.8595695 1.4675664
-12.351297 6.169785 2.31829
-12.321123 6.2494702 2.3197815
-16.850384 8.6772614 3.1832669
-16.669226 8.7137871 3.1590693
-16.622414 8.8196001 3.1603951
-21.966982 11.828716 4.1909423
-21.845528 11.936799 4.1816611
-21.836559 12.10648 4.1940913
-21.722324 12.217999 4.1864676
-21.658083 12.357408 4.188622
-21.619408 12.511802 4.1959147
-22.779688 13.370561 4.4370608
-18.949133 11.27907 3.7040098
-58.914452 35.559418 11.562885
-12.499795 7.649447 2.4608231
-12.466868 7.734839 2.4636405
-12.422513 7.8132887 2.4643035
-12.450839 7.9381404 2.4795513
-12.576662 8.1273279 2.5145216
-18.336807 12.009906 3.6818011
-21.684889 14.393718 4.3720922
-17.826368 11.990738 3.6085458
-11.594392 7.9025397 2.3560777
-11.527021 7.9606433 2.3522658
-11.516743 8.0583611 2.3602211
-17.553282 12.44343 3.6140151
-18.571527 13.510735 3.8576472
-17.79204 13.111349 3.7122965
-12.285179 9.1699972 2.5743523
-12.275094 9.2802954 2.5841308
-18.195997 13.933056 3.8495259
-18.392267 14.263216 3.9095225
-18.303629 14.375191 3.9093568
-18.188065 14.465745 3.9035561
-13.203516 10.634169 2.8471539
-18.136805 14.79194 3.9312339
-18.287504 15.102641 3.983938
-18.060152 15.291509 3.9749882
-17.965237 15.401394 3.9748225
-17.859972 15.502287 3.9725022
-17.691919 15.547784 3.9562602
-17.459887 15.534773 3.9255989
-16.975746 15.481388 3.8591387
-11.874341 11.515697 2.7778761
-11.754904 11.540668 2.7664404
-11.690166 11.618834 2.7679322
-12.786119 13.023906 3.0652626
-10.366251 10.689404 2.5004339
-10.215317 10.795752 2.4957933
-10.251238 10.96774 2.5209851
-10.145113 11.124774 2.5282776
-10.145963 11.263753 2.5456798
-10.238568 11.50778 2.5866168
-10.135217 11.533347 2.57833
-10.317652 11.887268 2.6432984
-10.523074 12.275297 2.7152281
-10.544415 12.454037 2.7404199
-10.464004 12.513962 2.7394254
-10.37572 12.564245 2.7364421
-10.290329 12.617738 2.7342877
-9.3400173 12.044299 2.5594361
-9.5938807 12.529687 2.6500936
-14.440434 19.10116 4.022223
-9.4452982 12.654378 2.651751
-14.242971 19.328533 4.0329957
-9.34093 12.840309 2.6665015
-13.189612 18.366804 3.7981479
-13.133698 18.527842 3.8147213
-13.027116 18.618586 3.8168759
-7.2970157 10.566319 2.1560342
-7.240375 10.623118 2.1585202
-12.310692 18.302868 3.7050042
-12.516096 18.857086 3.8016284
-12.275887 18.74378 3.763509
-11.834156 18.313496 3.66241
-24.584265 38.561829 7.6836658
-31.254934 49.695335 9.8642559
-30.830883 49.69511 9.8264685
-30.434273 49.734463 9.7971325
-29.862539 49.479538 9.710618
-29.389912 49.378796 9.6552629
-28.825312 49.113388 9.5685825
-28.338184 48.969246 9.5064316
-27.884712 48.874954 9.4547215
-27.400591 48.718502 9.3917418
-27.038507 48.772724 9.3700304
-26.626671 48.732609 9.3307514
-25.981649 48.253391 9.208272
-13.309012 25.084978 4.7703562
-25.10568 48.029354 9.1060133
-13.688212 26.582596 5.0229378
-24.297155 47.905499 9.0253
-12.81498 25.655479 4.8175907
-12.736534 25.894686 4.847755
-12.538296 25.891579 4.8326726
-23.137518 48.536312 9.0344152
-12.091442 25.7703 4.7819576
-11.957067 25.895937 4.7915702
-13.39855 29.49201 5.4419188
-11.73737 26.262201 4.8323412
-11.674825 26.558523 4.8736095
-11.526905 26.664963 4.8800731
-19.810852 46.61158 8.5096941
-11.277892 26.993675 4.9145465
-11.294469 27.506639 4.9952598
-11.133226 27.594629 4.9987402
-10.964064 27.66334 4.9989061
-10.836329 27.838535 5.0184631
-17.571274 45.973465 8.2693768
-11.105317 29.599083 5.310987
-16.816675 45.672012 8.1773939
-10.506377 29.082952 5.1948061
-16.12682 45.513348 8.1129227
-15.799026 45.472645 8.0882273
-15.428786 45.301743 8.0408268
-9.3296156 27.954117 4.9506769
-9.1756907 28.065203 4.9602895
-9.0243616 28.18672 4.9718909
-14.110944 45.024014 7.927629
-13.781792 44.938152 7.8974652
-8.8613186 29.539175 5.1808844
-8.3701515 28.536913 4.995923
-13.122132 45.776711 8.00105
-12.948436 46.240021 8.0680075
-7.8476243 28.701366 4.9985747
-12.666816 47.47023 8.2549582
-7.6088376 29.233564 5.0746474
-12.111706 47.733936 8.2743492
-11.819299 47.810226 8.2748461
-11.483022 47.704472 8.2441854
-11.197068 47.803799 8.2493229
-6.5871944 28.920511 4.9828296
-10.34323 48.131966 8.271697
-9.8551712 50.356274 8.6214008
-9.658102 51.007828 8.7226658
-9.4507408 51.644283 8.8214445
-9.2656088 52.448101 8.9488955
-9.1418381 53.667652 9.1472816
-8.817955 53.756798 9.1530819
-8.6274624 54.694397 9.3035707
-8.3348217 55.031017 9.3519659
-8.1946573 56.442558 9.5831671
-7.9909329 57.51936 9.7575216
-4.6976767 39.078846 6.6128445
-4.4410524 38.959961 6.5879841
-4.2283325 39.231602 6.6294179
-4.1546512 40.902149 6.9073577
-3.8038847 39.881344 6.7308488
-3.5786419 40.122978 6.767808
-2.6967275 38.161503 6.4273858
-2.61708 40.573673 6.8309531
-2.385478 40.887272 6.8811712
-1.6829737 36.556248 6.1481204
-1.4609952 36.625011 6.1580644
-1.5897161 47.109325 7.9196739
-1.116978 40.464077 6.8009548
-0.87019747 40.541157 6.8128881
-0.58670646 38.279781 6.4320264
-0.37127092 40.400867 6.7880278
-0.1252601 41.022682 6.8922758
0.35210273 38.195873 6.4174414
0.58679479 38.214687 6.4210877
0.86954892 40.456341 6.7986345
1.4934253 44.216518 7.4332385
1.6415302 41.121281 6.9143186
2.0351458 44.178116 7.4304209
2.1118786 40.444118 6.8042698
3.0367246 52.022816 8.7558126
2.6317842 40.783215 6.8662548
2.8876092 40.845982 6.8796797
3.9853146 51.847977 8.7372503
6.4362779 72.136955 12.169479
6.90941 72.417114 12.223676
0.40643975 2.2216239 0.37751988
0.42355019 2.2374983 0.38066888
0.43613461 2.2290504 0.37967446
0.44687295 2.211833 0.37718841
0.45479959 2.182018 0.37254781
10.663725 23.470722 4.3304925
11.118512 23.695202 4.3967867
11.186455 23.464521 4.3666229
11.371485 23.480648 4.3825336
11.45397 23.285658 4.3591647
7.1424222 14.298354 2.6840696
7.2371583 14.268332 2.6867213
7.3322468 14.238562 2.689539
7.4487147 14.249237 2.700146
7.6252151 14.371394 2.7321332
8.2294388 15.282923 2.9151058
7.7731004 14.22568 2.7223547
7.797121 14.063869 2.7004774
7.2127056 12.823592 2.4706016
7.3689609 12.915286 2.4969535
7.9963808 13.81725 2.6809206
9.0279989 15.3813 2.995322
7.9797144 13.406236 2.6199298
8.1224661 13.457492 2.6396523
9.3384151 15.259623 3.0046031
9.3502436 15.070473 2.9785826
6.8529611 10.895712 2.1611722
6.9233985 10.859279 2.1623323
6.9941816 10.823218 2.1636581
7.0653234 10.787525 2.1651497
7.1444702 10.763688 2.1691275
7.2780814 10.820296 2.189513
9.1316977 13.397727 2.7228518
8.483511 12.284113 2.5068977
8.5564642 12.228596 2.5062346
8.7271519 12.311023 2.5340784
9.6751909 13.472369 2.7855
10.060518 13.829024 2.8720143
10.251658 13.911521 2.9021783
9.6130142 12.87868 2.6988201
10.993745 14.541426 3.0616164
10.317728 13.474607 2.8501372
10.402025 13.413384 2.8506343
11.321671 14.41571 3.0785215
11.429556 14.370668 3.0838251
10.250023 12.726567 2.7442317
11.415565 13.997005 3.0334413
11.533259 13.965476 3.041894
10.115619 12.096961 2.6481049
10.022694 11.837478 2.604682
11.748569 13.704402 3.0316184
12.34959 14.227852 3.1642072
12.45684 14.174771 3.1693449
10.195463 11.459011 2.5756781
12.576384 13.96149 3.1559203
12.46445 13.667649 3.1066966
23.781631 25.757803 5.8897376
23.704208 25.359961 5.8318958
23.667543 25.011322 5.7849927
23.52585 24.557993 5.7133946
23.387051 24.115141 5.6436195
23.297602 23.729816 5.586772
23.227951 23.370289 5.5355597
23.168062 23.025724 5.4874964
23.188572 22.764996 5.4591551
12.644068 12.261775 2.9580314
12.714081 12.179187 2.9568713
23.974012 22.684734 5.5448408
24.169668 22.590403 5.5579338
24.352028 22.482481 5.5680437
12.755563 11.632256 2.899195
12.872861 11.59535 2.9096365
12.868614 11.449285 2.8927314
12.891953 11.329097 2.8822899
25.618582 22.235573 5.6989756
15.702197 13.460735 3.4738023
13.193887 11.170807 2.9033384
13.219815 11.054215 2.8940573
13.355831 11.029407 2.9089735
13.255884 10.810754 2.8726773
13.42412 10.811482 2.8947203
15.462252 12.297266 3.318176
27.810356 21.84041 5.9407845
17.620283 13.663928 3.7452781
28.163975 21.564636 5.9593468
28.473904 21.252789 5.9692912
14.72783 10.852822 3.0725551
14.483923 10.536579 3.0080838
15.06096 10.815653 3.1141548
15.230021 10.796036 3.1353691
15.275778 10.68825 3.1312256
15.332956 10.588715 3.1295683
16.92314 11.534132 3.4398263
17.33073 11.656836 3.5081096
17.500528 11.615719 3.527998
13.538927 8.8671274 2.7178798
18.499859 11.954583 3.6997006
13.532798 8.6276875 2.695174
13.500333 8.4909372 2.6782689
18.832415 11.68378 3.7225721
19.050955 11.658088 3.7515759
19.265665 11.6276 3.7797511
19.295969 11.484958 3.7717957
14.325127 8.4077644 2.7894778
14.378153 8.3206959 2.7898092
14.428937 8.2323179 2.7898092
16.228363 9.127409 3.1270823
16.240074 9.0032768 3.1186297
12.260433 6.6990519 2.3459678
16.890287 9.0945768 3.2218833
13.994299 7.4248676 2.6603694
13.98803 7.3119073 2.6505909
14.022111 7.2205234 2.648602
13.916634 7.058516 2.6204269
14.12113 7.0536356 2.6507566
13.13498 6.4606609 2.4580054
15.845094 7.6732497 2.9567056
18.965729 9.0411901 3.5289924
19.731504 9.2580833 3.6609182
18.321377 8.4596863 3.3894424
18.124233 8.2341204 3.3435335
18.212229 8.139657 3.3504946
18.521835 8.1420498 3.3982265
16.847919 7.2832041 3.082665
16.895014 7.1808472 3.0831621
18.75683 7.8366199 3.4143031
16.989159 6.9759755 3.0844882
17.00695 6.8616381 3.0800133
20.433525 8.0986576 3.691911
24.250746 9.439785 4.371429
19.218685 7.3455887 3.4557369
19.341879 7.2569728 3.4698246
24.024307 8.8459702 4.3004942
26.296726 9.4998569 4.6969347
26.713326 9.4654579 4.7609091
25.104362 8.7223549 4.464407
29.494524 10.04526 5.234417
24.584833 8.037837 4.3449111
26.752546 8.5652018 4.718812
26.782955 8.3941059 4.7150002
18.139187 5.563107 3.1865816
18.17676 5.4528356 3.1872444
16.755402 4.9146013 2.932508
18.317196 5.2508364 3.2003376
19.710855 5.5196753 3.4380033
19.720572 5.3921256 3.4338598
30.076273 8.0255346 5.229445
19.586746 5.0980515 3.3993866
17.609352 4.4682069 3.0511751
17.62112 4.3562875 3.0485234
18.482618 4.4490995 3.1928794
17.72702 4.1523151 3.0578046
17.271393 3.9339643 2.9749365
17.233583 3.8142767 2.9643295
17.822624 3.8300805 3.0616164
17.831308 3.7176321 3.0591304
18.033577 3.6444845 3.0899575
18.055599 3.5337639 3.0899575
18.12636 3.432267 3.0984099
32.078136 5.8702698 5.4785466
18.238977 3.2222657 3.1106744
18.238962 3.1069808 3.1073596
27.70809 4.545167 4.7168231
18.295198 2.8859999 3.1106744
18.300861 2.7719162 3.1086855
18.212124 2.6442695 3.090786
18.185028 2.5265017 3.0834937
18.144464 2.4074795 3.0740466
30.847517 3.9003837 5.2234783
20.166134 2.4242663 3.4114854
20.366795 2.3217039 3.4429753
23.097601 2.4895077 3.90223
20.555637 2.0880401 3.4703217
20.843925 1.9881842 3.5168936
32.029064 2.8567688 5.402142
21.072157 1.749297 3.5515325
29.469807 2.26437 4.9652615
28.696173 2.0278955 4.8326726
28.710041 1.8519077 4.833004
28.678534 1.6732419 4.8258777
