# .PCD v0.7 - Point Cloud Data file format
VERSION 0.7
FIELDS x y z
SIZE 4 4 4
TYPE F F F
COUNT 1 1 1
WIDTH 1450
HEIGHT 1
VIEWPOINT 0 0 0 1 0 0 0
POINTS 1450
DATA ascii
5.1462021 6.6534085 -1.0357584
5.1446986 6.5677977 -1.0273136
3.233264 4.076014 -0.64007467
3.2613208 4.059967 -0.64068663
3.2298019 3.9705887 -0.62967157
3.2219217 3.9116282 -0.62342978
3.2503123 3.8971202 -0.62428647
3.3497291 3.9665756 -0.63872838
3.3765845 3.9489646 -0.63921797
3.4033499 3.9311733 -0.63970751
3.4267528 3.9094706 -0.63958514
3.4612172 3.9002473 -0.64154333
3.4572229 3.8479302 -0.63640302
3.5054793 3.8538084 -0.64093137
3.5398176 3.8439074 -0.64288962
3.5457394 3.8032417 -0.63970751
3.5608337 3.772753 -0.63823885
3.5667739 3.7328944 -0.6351791
3.5730498 3.693819 -0.63224179
3.6164804 3.6930978 -0.63591343
3.6306875 3.6623805 -0.63444477
3.6235616 3.6106131 -0.62930441
3.6286709 3.5716033 -0.62636709
3.6547873 3.553422 -0.62710142
3.6822491 3.5364289 -0.62808055
3.7175598 3.5267463 -0.63040596
3.7572355 3.5208344 -0.63346565
3.7809534 3.4997365 -0.63383281
3.8082161 3.4818285 -0.63481194
3.8346646 3.4630523 -0.63566864
3.8662109 3.4487069 -0.63738209
3.8962355 3.4327922 -0.63885081
3.9202201 3.4114265 -0.63934034
3.9433365 3.3892491 -0.63970751
3.9564919 3.358567 -0.63848358
3.9724617 3.3304017 -0.63774925
4.0019956 3.3135593 -0.63921797
4.0153365 3.283287 -0.63811642
4.0284572 3.2529764 -0.63701493
4.0436854 3.2244844 -0.6362806
4.0797701 3.2125056 -0.63885081
4.0774655 3.1703556 -0.6354239
5.7800117 4.4373732 -0.89709163
5.8245311 4.4150133 -0.89978421
5.8793235 4.4000039 -0.90406781
5.8670959 4.3349481 -0.89807075
4.4590597 3.2525778 -0.67911679
6.0044212 4.3235145 -0.91092157
6.6909599 4.7557592 -1.0107911
6.7947636 4.7670536 -1.0220509
6.8467331 4.7410917 -1.0254778
4.5157628 3.0862679 -0.6729973
4.534615 3.0585015 -0.6729973
4.5508175 3.0289705 -0.67263013
4.5361338 2.9791982 -0.66773456
4.502687 2.9178479 -0.66014647
6.8861508 4.4024763 -1.0063851
6.9533291 4.3855534 -1.0122597
6.6168995 4.1168447 -0.95951003
6.6826391 4.1010828 -0.96538472
6.8698516 4.1581554 -0.98876101
6.8977928 4.1174502 -0.98912817
6.9049654 4.0644765 -0.98655802
6.9108896 4.0110722 -0.98386544
6.9172812 3.9582415 -0.98129529
6.4469767 3.6368134 -0.91128874
6.4284015 3.5745194 -0.90553647
6.540731 3.5846121 -0.91826493
6.9485888 3.7528632 -0.97236091
6.9565911 3.7022305 -0.97028029
6.9686284 3.6539457 -0.96881157
6.9794536 3.6051972 -0.96722054
6.9492536 3.5357521 -0.95999956
6.9734797 3.4943798 -0.96036679
6.9867792 3.4475729 -0.95926523
6.9917321 3.3968318 -0.95706224
6.9981174 3.3470161 -0.95510405
7.0059509 3.2980959 -0.9533906
6.9639182 3.2262611 -0.94494575
6.9492655 3.1678283 -0.94029498
6.9486489 3.116195 -0.9376024
8.0418911 3.547323 -1.0823886
6.9827242 3.02911 -0.93711287
7.0066566 2.9885437 -0.9378472
6.9919114 2.9316807 -0.93344116
6.9840746 2.8781366 -0.93001425
6.962966 2.8195846 -0.92487395
6.9506249 2.765069 -0.92095751
6.9351048 2.709728 -0.9166739
6.9265819 2.6575258 -0.91336936
6.9121075 2.6034317 -0.90933055
6.9195733 2.557874 -0.90822905
6.9276738 2.5126612 -0.90724993
6.9326749 2.4664476 -0.90590364
6.9195652 2.4140563 -0.90223199
6.8985615 2.3593497 -0.89758116
6.8686795 2.3021543 -0.89182889
6.8666458 2.2547023 -0.88974828
6.8642883 2.2073624 -0.88766766
6.8682365 2.1622224 -0.88644379
6.8633533 2.1144874 -0.88411838
6.8448391 2.062885 -0.88007957
6.8726001 2.0253356 -0.88203776
6.8267212 1.9663727 -0.87457204
6.8262382 1.9209533 -0.87298101
6.812057 1.8719324 -0.86967647
6.8032837 1.8247007 -0.86710632
6.7826662 1.774633 -0.86306751
6.7780404 1.7290574 -0.86110926
6.7865958 1.6869568 -0.86086446
6.7572694 1.6357111 -0.85584652
6.7391634 1.5876197 -0.85229725
6.7207227 1.5398122 -0.84874797
6.7193875 1.4961731 -0.84740168
6.7197113 1.4530282 -0.84630018
4.6391506 0.97346157 -0.58304137
4.4991508 0.91530716 -0.56468302
4.4433351 0.87559813 -0.5569725
4.4213257 0.84311384 -0.55354565
4.4127512 0.81345105 -0.5518322
4.438179 0.79001111 -0.55440235
4.5026121 0.77300465 -0.56186807
5.442399 0.89995205 -0.67874962
5.4889855 0.87308747 -0.68388993
5.5501623 0.8479324 -0.69086611
5.6308751 0.82493556 -0.70029008
6.5862665 0.92361695 -0.81864029
3.6092403 0.48368734 -0.44755673
3.6121399 0.46153235 -0.44755673
3.6030807 0.43792382 -0.44608805
3.584995 0.41342121 -0.44351789
3.5756247 0.39012536 -0.44204924
3.5631423 0.3666555 -0.44021338
3.5445793 0.34278086 -0.43764323
3.535743 0.32004184 -0.43629694
3.5237944 0.29717422 -0.43458349
3.5107093 0.27438805 -0.43274766
3.4984682 0.25184488 -0.43103421
3.4811308 0.22913674 -0.42870882
3.4626567 0.20659183 -0.42626104
3.4450293 0.18433526 -0.42393565
3.4332075 0.1625841 -0.4223446
3.4420733 0.14184161 -0.42332369
3.4051878 0.11939989 -0.41867292
3.387007 0.09796001 -0.41634753
3.3696842 0.076770291 -0.41414452
3.3710842 0.056109298 -0.41426691
3.3485389 0.03518549 -0.41145197
3.3467069 0.014630047 -0.4112072
3.2925847 0.0089933313 -0.46921399
3.2846587 -0.011184316 -0.46808127
3.2775989 -0.031273615 -0.46709013
3.2704165 -0.051276699 -0.46609896
3.2660816 -0.071257032 -0.4655326
3.2734993 -0.091515772 -0.46666536
3.3035462 -0.11263973 -0.4710547
3.3482928 -0.13473004 -0.47756797
3.3503697 -0.15540929 -0.47799274
3.3444104 -0.17570511 -0.47728476
3.3748927 -0.19807276 -0.48181573
3.3963346 -0.22024615 -0.48507234
3.4373798 -0.2440888 -0.49116081
3.4772716 -0.26836735 -0.49710771
3.4844382 -0.29043689 -0.49838203
3.5210445 -0.31524745 -0.50390416
3.5899954 -0.34362498 -0.51409876
3.6242583 -0.36935347 -0.51933771
3.6435764 -0.39392173 -0.52245271
3.5850289 -0.4098714 -0.51438195
3.3062713 -0.39861739 -0.4745945
3.2173398 -0.40795547 -0.46213439
3.1961312 -0.42521226 -0.45944414
3.1787546 -0.44276971 -0.45732024
3.1622632 -0.4602724 -0.45533794
3.1466556 -0.47773784 -0.45349726
3.1368206 -0.49595559 -0.4525061
3.1259038 -0.51391023 -0.45137337
3.1197639 -0.53258157 -0.4509486
3.118387 -0.55205882 -0.45123178
3.1198094 -0.57207423 -0.45193973
3.1230488 -0.59249651 -0.4529309
3.1582134 -0.61925942 -0.45859459
3.2310061 -0.65412939 -0.46978039
3.2153029 -0.67151588 -0.46808127
3.2101543 -0.69102377 -0.46793967
3.2087533 -0.71135014 -0.46836445
3.2072237 -0.73168528 -0.46878922
3.1650856 -0.74254006 -0.46326712
3.1633568 -0.76264209 -0.46369189
3.1566958 -0.78156233 -0.46340871
3.1892607 -0.81041777 -0.46893081
3.1985974 -0.83371395 -0.4710547
3.2747173 -0.87503099 -0.48309007
3.3218026 -0.90947574 -0.49087763
3.3695393 -0.94479781 -0.4988068
3.4369485 -0.986471 -0.50970942
3.5020707 -1.0284486 -0.52032882
3.5241385 -1.0584552 -0.5245766
3.6301959 -1.1146169 -0.54142612
3.6544592 -1.1466449 -0.54609865
3.7293727 -1.1953201 -0.5584172
3.8028824 -1.2446492 -0.57059413
3.8796804 -1.2961783 -0.58333743
3.928812 -1.3394361 -0.59197456
3.9682066 -1.3800946 -0.59919578
4.1117477 -1.4583325 -0.62227535
4.1529951 -1.5017047 -0.62992132
4.2282324 -1.5582983 -0.64280623
4.3140497 -1.6200454 -0.65739024
4.4676876 -1.7090669 -0.68245208
4.5475163 -1.7716529 -0.69632816
4.6709127 -1.8527962 -0.71700066
4.742991 -1.9151394 -0.72988552
4.7906699 -1.9686558 -0.73908907
4.7547531 -1.9880879 -0.73540765
4.7315331 -2.0125766 -0.73370856
4.7100091 -2.0376415 -0.73229259
4.7164469 -2.074872 -0.73526603
4.7054348 -2.1045806 -0.73554921
4.6960373 -2.1350515 -0.73611563
4.6639762 -2.1551077 -0.7331422
4.6775484 -2.1963038 -0.73738992
4.6720257 -2.2287986 -0.73866427
4.5709553 -2.2151272 -0.72478825
4.6034651 -2.2658591 -0.73215103
4.6018729 -2.3002577 -0.7341333
4.5806093 -2.3248677 -0.73300058
4.5680184 -2.3538365 -0.73328376
4.5438399 -2.3767753 -0.73172623
4.5213013 -2.4004343 -0.73045194
4.507359 -2.4286005 -0.7305935
4.4897661 -2.454787 -0.7301687
4.4694252 -2.479409 -0.72931916
4.4437747 -2.5009611 -0.72762007
4.4077115 -2.5164039 -0.72422183
4.3716273 -2.5314987 -0.72082365
4.3747926 -2.5693014 -0.72393864
4.373405 -2.6047058 -0.72634572
4.351408 -2.6279099 -0.72535461
4.3318248 -2.6524928 -0.72478825
4.3171501 -2.6800666 -0.72507143
4.2972727 -2.704397 -0.72450501
4.2739205 -2.7264552 -0.72337228
4.2371583 -2.7397304 -0.7199741
4.2161279 -2.762965 -0.71926612
4.2114658 -2.7969964 -0.72139001
4.1819043 -2.8144956 -0.71926612
4.1719174 -2.8451209 -0.72054046
4.1543818 -2.8706658 -0.72054046
4.1107368 -2.877938 -0.7160095
4.0946159 -2.9042521 -0.71629268
4.0630507 -2.9195032 -0.71388561
4.0466619 -2.9455438 -0.71416879
4.0165596 -2.9615078 -0.71204489
4.0133834 -2.9973497 -0.71473515
3.9925478 -3.0201275 -0.71431041
3.9487932 -3.0253067 -0.70977944
3.9411063 -3.0579734 -0.71176171
3.9129276 -3.0747597 -0.71006262
3.8932128 -3.0980947 -0.709921
3.8779843 -3.12503 -0.71062899
3.8610377 -3.1506431 -0.71105379
3.8401067 -3.1730139 -0.71077055
3.8114533 -3.188895 -0.70907146
3.7789729 -3.2013454 -0.70666438
3.7562528 -3.221895 -0.70609802
3.7296853 -3.2390413 -0.70482367
3.7179193 -3.2690547 -0.7063812
3.694833 -3.2891734 -0.70581484
3.658402 -3.2972043 -0.70269984
3.6176243 -3.3009095 -0.69873524
3.5805755 -3.3075974 -0.69547862
3.5645518 -3.3335617 -0.69632816
3.5375597 -3.349246 -0.69505382
3.5190868 -3.3729436 -0.69547862
3.49193 -3.3882697 -0.69420427
3.4753118 -3.4137936 -0.69505382
3.4479814 -3.428772 -0.69377947
3.3968756 -3.4196682 -0.68769103
3.3772159 -3.4418595 -0.68797421
3.371882 -3.478864 -0.69123083
3.3422561 -3.4909086 -0.68953174
3.3255353 -3.5163844 -0.69052285
3.292407 -3.5244272 -0.68811578
3.2519202 -3.5241947 -0.68415123
3.2309017 -3.5448129 -0.68429279
3.2183645 -3.5748696 -0.68627512
3.1924214 -3.590112 -0.68542552
3.1585724 -3.596246 -0.68287688
3.1260662 -3.603596 -0.68061143
3.0774848 -3.5918918 -0.67480612
3.0496314 -3.6039066 -0.67353177
3.0465081 -3.6453362 -0.67777956
3.0297554 -3.670831 -0.6790539
3.0021703 -3.6832142 -0.67792118
2.9770308 -3.6984816 -0.67735475
2.9419599 -3.7011817 -0.67452294
2.9179716 -3.7176061 -0.67423975
2.8702383 -3.7033639 -0.66843444
2.8366301 -3.7067566 -0.66588581
2.8389015 -3.757261 -0.67183268
2.8045454 -3.7595353 -0.66914243
2.7837732 -3.7798607 -0.66970879
2.7389853 -3.7672486 -0.6644699
2.7025399 -3.7654884 -0.66121328
2.6742332 -3.7747309 -0.65993893
2.6521561 -3.7926908 -0.66022211
2.634459 -3.8170393 -0.66163802
2.611546 -3.83395 -0.66177964
2.5857625 -3.8466163 -0.66121328
2.5610168 -3.86076 -0.66093004
2.5090823 -3.8333352 -0.65356725
2.4855142 -3.8486583 -0.65356725
2.4719615 -3.8796978 -0.65625751
2.4539056 -3.9040108 -0.65781504
2.4257305 -3.9122641 -0.65668231
2.397547 -3.9203191 -0.65554953
2.3867438 -3.9569938 -0.65923095
2.3502705 -3.9511468 -0.65583277
2.3089497 -3.9364641 -0.65101862
2.2718639 -3.9282789 -0.6473372
2.2393804 -3.9275267 -0.64493012
2.2278535 -3.9636283 -0.64861155
2.2039709 -3.9780893 -0.64875311
2.1752496 -3.9837189 -0.64747882
2.1432579 -3.9830441 -0.64521331
2.118778 -3.99612 -0.64521331
2.0928428 -4.0064135 -0.64478856
2.058253 -3.9998159 -0.64167351
2.0282998 -4.0017748 -0.63997442
2.0063605 -4.0194588 -0.64082396
1.9803495 -4.0290289 -0.64039916
1.953434 -4.0366492 -0.63969123
1.9260736 -4.0431976 -0.63884163
1.8995473 -4.0513544 -0.63827527
1.8767272 -4.0674276 -0.63898325
1.8550093 -4.0860772 -0.64011598
1.8408054 -4.1217856 -0.64393896
1.8118957 -4.1248465 -0.64266467
1.7653472 -4.0868158 -0.63501865
1.7274636 -4.0675044 -0.63034612
1.7123922 -4.1017776 -0.63402754
1.6950856 -4.1314387 -0.63700098
1.6637796 -4.1270728 -0.63473547
1.6293094 -4.1141953 -0.63119566
1.6008039 -4.1158123 -0.62992132
1.5825856 -4.144052 -0.63275319
1.5522616 -4.140708 -0.63077086
1.5299028 -4.1585155 -0.63204521
1.4999871 -4.1557207 -0.6302045
1.4771038 -4.1723113 -0.63133729
1.4449798 -4.1625934 -0.62850541
1.4076076 -4.1367083 -0.62326652
1.3800057 -4.1386938 -0.62227535
1.3573527 -4.1555519 -0.6235497
1.3242862 -4.1402316 -0.6200099
1.3027043 -4.1605601 -0.62185055
1.2754104 -4.1627965 -0.62100101
1.2418832 -4.1439934 -0.61703646
1.2125338 -4.1382365 -0.61505413
1.181666 -4.1265659 -0.61222231
1.160059 -4.1470847 -0.61420459
1.1416371 -4.1799068 -0.61802757
1.1118866 -4.1715293 -0.61576211
1.0870173 -4.1811476 -0.61618686
1.0601251 -4.182941 -0.61547893
1.0301651 -4.1720686 -0.61293024
0.99783164 -4.1503992 -0.60882407
0.97437716 -4.1651187 -0.61009842
0.95407534 -4.1941848 -0.6134966
0.92447412 -4.1825614 -0.61094797
0.89941657 -4.1910591 -0.61137271
0.87368375 -4.1964989 -0.61137271
0.84439075 -4.1843143 -0.60882407
0.81205022 -4.1554136 -0.60386837
0.79169089 -4.1875529 -0.60783291
0.76313263 -4.1767511 -0.60556746
0.73267162 -4.1540589 -0.60160285
0.70766735 -4.1614041 -0.60202765
0.68452179 -4.1803212 -0.60415155
0.65885901 -4.184443 -0.60415155
0.63554114 -4.2040677 -0.606417
0.60390723 -4.1677213 -0.60061175
0.57791483 -4.1684065 -0.60018694
0.55479854 -4.1905198 -0.6028772
0.53292108 -4.2242908 -0.60726655
0.50852555 -4.2402582 -0.60910726
0.48037046 -4.2246113 -0.606417
0.44903621 -4.1772828 -0.59919578
0.4226971 -4.1730652 -0.59820467
0.39576954 -4.1617837 -0.59622234
0.3696112 -4.1572318 -0.59523124
0.33992594 -4.1091075 -0.58801001
0.31720495 -4.1436877 -0.59268254
0.29442054 -4.1830802 -0.59806305
0.26944759 -4.1956744 -0.59962058
0.24381343 -4.1992254 -0.59990376
0.21598431 -4.1610994 -0.59424007
0.19058442 -4.1653123 -0.59466481
0.16411839 -4.1436534 -0.59140819
0.13932225 -4.1633801 -0.59409845
0.11276768 -4.1275434 -0.58885956
0.087566115 -4.1340957 -0.5897091
0.06156639 -4.0929832 -0.58376223
0.036370445 -4.0843749 -0.58248788
0.011377961 -4.1082792 -0.58588612
-0.013903324 -4.1310401 -0.58914274
-0.039343189 -4.1407757 -0.59055865
-0.064458542 -4.1216502 -0.58786839
-0.089447692 -4.1073213 -0.58588612
-0.11423596 -4.0918517 -0.58376223
-0.13907258 -4.083159 -0.5826295
-0.16531219 -4.1119027 -0.58687729
-0.18962559 -4.0910335 -0.58404541
-0.21410313 -4.0779305 -0.58234632
-0.23935208 -4.080493 -0.58291268
-0.26464051 -4.0828986 -0.58347905
-0.2887086 -4.0673738 -0.58149678
-0.31274816 -4.0536819 -0.57979763
-0.3381075 -4.0576057 -0.58064717
-0.36035511 -4.0258746 -0.57639945
-0.3832618 -4.0048647 -0.57370919
-0.4102326 -4.0260735 -0.57710737
-0.43460971 -4.0205283 -0.57668263
-0.45859739 -4.0118842 -0.57583308
-0.48308691 -4.0080123 -0.57569146
-0.50667584 -3.9971161 -0.57455873
-0.52167618 -3.9222968 -0.56422246
-0.54709685 -3.9288266 -0.56563842
-0.56948465 -3.9136403 -0.56393927
-0.59289402 -3.906157 -0.56337291
-0.6149978 -3.8907123 -0.56167382
-0.64014232 -3.8946803 -0.56280655
-0.66402763 -3.8906786 -0.56280655
-0.68806022 -3.887506 -0.56294817
-0.71564591 -3.9036591 -0.5659216
-0.73645139 -3.8826602 -0.56351453
-0.75607479 -3.8566961 -0.56039947
-0.77893984 -3.8481033 -0.55983311
-0.80698496 -3.8645704 -0.56294817
-0.82381386 -3.8276088 -0.55827558
-0.84878254 -3.8292475 -0.55926675
-0.87556237 -3.8384449 -0.56139064
-0.89390212 -3.810833 -0.55813402
-0.91077709 -3.7783289 -0.55416942
-0.93323016 -3.7697866 -0.55374467
-0.95585632 -3.7620707 -0.55346143
-0.978423 -3.7542188 -0.55317825
-1.0019507 -3.7500575 -0.55346143
-1.0283378 -3.7562518 -0.55530214
-1.0500309 -3.7451053 -0.55459422
-1.0743555 -3.7433498 -0.55530214
-1.1012067 -3.7499852 -0.55728447
-1.1185036 -3.724195 -0.5544526
-1.142205 -3.7201011 -0.5548774
-1.1724147 -3.7366369 -0.5584172
-1.1968302 -3.7340863 -0.55912519
-1.2123331 -3.7040918 -0.55572695
-1.2325298 -3.6890717 -0.55459422
-1.2446055 -3.6505177 -0.54992163
-1.272507 -3.6587081 -0.55232871
-1.2790555 -3.606046 -0.54553229
-1.3088969 -3.6195424 -0.54878891
-1.3256062 -3.5965807 -0.54652345
-1.3459101 -3.5837452 -0.54581547
-1.3742384 -3.5920627 -0.54836416
-1.3951753 -3.5807955 -0.54793936
-1.4134716 -3.5629654 -0.54652345
-1.4275258 -3.5349481 -0.54355001
-1.4698774 -3.5764847 -0.5513376
-1.5032475 -3.5947988 -0.55558532
-1.5070705 -3.5426908 -0.54893053
-1.5162054 -3.504302 -0.54439956
-1.5472432 -3.5166807 -0.54779774
-1.562731 -3.4935653 -0.54567391
-1.5816802 -3.4785032 -0.5448243
-1.6316376 -3.5307417 -0.55459422
-1.6246682 -3.459728 -0.54496592
-1.6671722 -3.49437 -0.55204552
-1.689445 -3.4858563 -0.55232871
-1.7007499 -3.4549954 -0.54907209
-1.7108549 -3.4223568 -0.54553229
-1.7389886 -3.4259193 -0.54779774
-1.7581636 -3.4116645 -0.54723138
-1.7937431 -3.4288836 -0.55176234
-1.801754 -3.3933299 -0.54779774
-1.8211328 -3.379596 -0.547373
-1.8256924 -3.3388245 -0.54255885
-1.856227 -3.3457391 -0.54553229
-1.874294 -3.329973 -0.5448243
-1.9035238 -3.3338852 -0.547373
-1.9080733 -3.2947276 -0.54284203
-1.9357717 -3.295763 -0.54496592
-1.9615285 -3.2931793 -0.54652345
-1.9745351 -3.2692173 -0.54454112
-2.0043774 -3.273082 -0.54723138
-2.0442593 -3.2926838 -0.55261189
-2.053354 -3.2624829 -0.54963845
-2.0642846 -3.2356334 -0.54723138
-2.0846364 -3.2237375 -0.547373
-2.0962403 -3.1984653 -0.5452491
-2.1108983 -3.1781206 -0.54397476
-2.146385 -3.1889267 -0.54808098
-2.1865442 -3.2059596 -0.55331987
-2.2146142 -3.2047 -0.55544376
-2.2279921 -3.1821299 -0.55388623
-2.2325876 -3.147404 -0.55020481
-2.2662964 -3.1537454 -0.55374467
-2.2663832 -3.1133664 -0.54907209
-2.2872062 -3.1017921 -0.54949689
-2.3133023 -3.097218 -0.55119598
-2.3448019 -3.0995464 -0.55416942
-2.3607666 -3.0811713 -0.55346143
-2.3674929 -3.0509844 -0.55062962
-2.3941188 -3.04652 -0.55247033
-2.4152322 -3.0348713 -0.55303669
-2.444366 -3.0330994 -0.55544376
-2.4529185 -3.0057714 -0.55317825
-2.483294 -3.0051649 -0.55586851
-2.5315378 -3.0255589 -0.56252337
-2.5513341 -3.0114794 -0.56280655
-2.5607424 -2.9852476 -0.56082428
-2.5627866 -2.9507914 -0.55728447
-2.5886869 -2.943933 -0.55898356
-2.5922232 -2.9117253 -0.55586851
-2.6319077 -2.9200339 -0.56054109
-2.6464396 -2.9001732 -0.55983311
-2.6796319 -2.9006066 -0.56308973
-2.6899426 -2.8761561 -0.5615322
-2.7034566 -2.855283 -0.56068265
-2.7222953 -2.8400707 -0.56096584
-2.7293315 -2.8126557 -0.55884194
-2.7506998 -2.8000937 -0.55969155
-2.7664332 -2.7817588 -0.55940837
-2.8003032 -2.7814772 -0.56280655
-2.8081329 -2.7552283 -0.56096584
-2.8392005 -2.7517273 -0.56379771
-2.8867743 -2.763696 -0.56988615
-2.9151838 -2.7568157 -0.57215166
-2.9334912 -2.7402282 -0.57243484
-2.9495223 -2.7215059 -0.57229322
-2.9712861 -2.708025 -0.57328439
-3.0032945 -2.7036538 -0.57625782
-3.0124307 -2.678596 -0.57484192
-3.0340152 -2.6646352 -0.57583308
-3.0346065 -2.6323442 -0.57285964
-3.0597212 -2.6214049 -0.57455873
-3.055347 -2.5853133 -0.57073575
-3.0612793 -2.5582635 -0.56889504
-3.1196682 -2.5747249 -0.57682419
-3.1484509 -2.5661688 -0.57923126
-3.1795583 -2.5592184 -0.58206314
-3.1890028 -2.5347321 -0.58093035
-3.2083886 -2.5181735 -0.58163834
-3.209697 -2.4875224 -0.5790897
-3.2241137 -2.4671795 -0.57894808
-3.2541964 -2.4586911 -0.58163834
-3.2858827 -2.4511096 -0.58461177
-3.3040485 -2.4332504 -0.58517814
-3.3205175 -2.4140959 -0.58546132
-3.348134 -2.4029131 -0.58772683
-3.3789687 -2.3937716 -0.59055865
-3.4017045 -2.3786676 -0.59197456
-3.3991284 -2.3459396 -0.58900112
-3.4167311 -2.3272686 -0.58956754
-3.4679134 -2.3311169 -0.59593916
-3.5027728 -2.3234775 -0.59947896
-3.5260737 -2.3079059 -0.60103649
-3.5293586 -2.2792437 -0.59919578
-3.5324254 -2.2506285 -0.59735507
-3.5511966 -2.2320731 -0.59820467
-3.5925868 -2.2274594 -0.6028772
-3.6188533 -2.2131228 -0.60500109
-3.6450787 -2.1985474 -0.60712498
-3.6499927 -2.1710782 -0.60570902
-3.6820295 -2.1596625 -0.60882407
-3.7114918 -2.1464479 -0.61151433
-3.7409303 -2.1329529 -0.61420459
-3.7479072 -2.1065629 -0.61321342
-3.7694209 -2.0883248 -0.61462939
-3.7795575 -2.0637333 -0.61420459
-3.779074 -2.0334654 -0.61208069
-3.800225 -2.0148776 -0.6134966
-3.8142715 -1.9924389 -0.61377978
-3.8405077 -1.9762467 -0.6160453
-3.8454978 -1.9490633 -0.61491257
-3.8556132 -1.9245465 -0.61462939
-3.8815632 -1.9078414 -0.61689484
-3.8958695 -1.8852828 -0.61731964
-3.9252369 -1.8698598 -0.62015146
-3.9527683 -1.8533065 -0.62270015
-3.9739525 -1.8335814 -0.62425762
-3.9743123 -1.8042511 -0.62255853
-4.0268841 -1.7984062 -0.62907177
-4.0487185 -1.7784427 -0.63077086
-4.0704589 -1.758279 -0.63247001
-4.0757046 -1.7309474 -0.63162047
-4.065239 -1.6971322 -0.62836385
-4.0856495 -1.6762912 -0.62992132
-4.1022849 -1.6537825 -0.63091248
-4.1169562 -1.6304033 -0.63162047
-4.1545596 -1.6158805 -0.63586819
-4.1736436 -1.5938911 -0.63728416
-4.1907597 -1.5710331 -0.63841689
-4.1947465 -1.5432379 -0.63756734
-4.2069302 -1.5184791 -0.63799208
-4.2273655 -1.4966033 -0.63969123
-4.271069 -1.4826529 -0.64493012
-4.2632179 -1.4506757 -0.64238149
-4.2682829 -1.4232367 -0.64181507
-4.2966952 -1.4034778 -0.64478856
-4.3014545 -1.3758805 -0.64422214
-4.2994246 -1.3462061 -0.64266467
-4.3104434 -1.3206704 -0.64308941
-4.32131 -1.2950501 -0.64351422
-4.3405743 -1.2718526 -0.64521331
-4.3463936 -1.24465 -0.64493012
-4.3777809 -1.224628 -0.64846992
-4.3909421 -1.1993091 -0.64931947
-4.3953485 -1.1715789 -0.64889473
-4.4235315 -1.1500703 -0.65200973
-4.4228287 -1.1209598 -0.650877
-4.4546103 -1.0999743 -0.65455842
-4.4814873 -1.0774831 -0.65753186
-4.4725924 -1.0463547 -0.65526634
-4.4818244 -1.0195508 -0.65569115
-4.4879956 -0.99203169 -0.65569115
-4.495934 -0.96489096 -0.65597433
-4.5037079 -0.93769002 -0.65625751
-4.5239315 -0.91297758 -0.6583814
-4.5488791 -0.88900214 -0.66121328
-4.5600843 -0.86217827 -0.66206282
-4.5633407 -0.83382577 -0.66177964
-4.5459495 -0.80185187 -0.65852302
-4.5507841 -0.77394336 -0.65852302
-4.5486088 -0.74488485 -0.65753186
-4.5667844 -0.71911877 -0.65951413
-4.58775 -0.69360191 -0.6619212
-4.6105332 -0.66813898 -0.66461146
-4.6263118 -0.64146978 -0.66631055
-4.6321239 -0.61333138 -0.66659373
-4.6338358 -0.5846495 -0.66631055
-4.6225924 -0.55443549 -0.66418672
-4.6672177 -0.53076488 -0.67013359
-4.7087717 -0.50624943 -0.67565566
-4.6999707 -0.47614852 -0.67395657
-4.7008333 -0.44711334 -0.67367339
-4.699544 -0.41790989 -0.67310703
-4.7464142 -0.39274552 -0.67947865
-4.7191238 -0.36134341 -0.67523092
-4.737052 -0.33349505 -0.67749637
-4.7548146 -0.30544022 -0.67976183
-4.7852588 -0.27792782 -0.68386805
-4.8036804 -0.24943565 -0.68627512
-4.7714982 -0.21841264 -0.68146098
-4.762857 -0.18873788 -0.68004501
-4.8272452 -0.16163853 -0.68910694
-4.8261666 -0.13196169 -0.68882376
-4.835793 -0.10253642 -0.69009811
-4.859097 -0.073208593 -0.69335473
-4.8485656 -0.043293703 -0.6917972
-4.8358712 -0.013505029 -0.68995649
-4.8269539 0.016138952 -0.68868214
-4.8445816 0.045922853 -0.69123083
-4.8758826 0.076138273 -0.6957618
-4.8594885 0.10571228 -0.69349629
-4.8646855 0.13569239 -0.69434589
-4.8973994 0.16667949 -0.69915998
-4.9121108 0.19736004 -0.70142549
-4.928607 0.22831878 -0.70397413
-4.9389763 0.25917682 -0.70567328
-4.946187 0.28999728 -0.70694757
-4.9699988 0.32200181 -0.71062899
-4.9787917 0.3532604 -0.71218652
-4.9617252 0.38266316 -0.71006262
-4.9898663 0.41564405 -0.71445197
-4.9813056 0.44572484 -0.71360242
-4.9942441 0.47778755 -0.71586788
-4.9922032 0.50852287 -0.7160095
-4.9998155 0.54031342 -0.71756703
-5.0052571 0.57199204 -0.71884131
-5.0046024 0.60304785 -0.71926612
-5.0184855 0.63598216 -0.72181475
-5.0223393 0.66780591 -0.72294754
-5.0122638 0.69779158 -0.72209799
-5.0284605 0.73152328 -0.72507143
-5.0551963 0.76711226 -0.72960234
-5.039639 0.79641753 -0.72804487
-5.0287962 0.82636273 -0.72719526
-5.0070415 0.85437477 -0.72478825
-5.0182767 0.88801163 -0.72719526
-5.0127335 0.91878647 -0.72719526
-5.0157552 0.95118564 -0.72846961
-5.0418825 0.9882232 -0.7331422
-5.0706544 1.0262058 -0.73823947
-5.0526333 1.0548731 -0.73654038
-5.0373554 1.0839823 -0.73526603
-5.0257769 1.1138003 -0.73455811
-5.0468378 1.1509968 -0.73866427
-5.0483551 1.1839752 -0.73993862
-5.0323334 1.2128426 -0.73866427
-5.0382504 1.2470257 -0.74064654
-5.0688829 1.287661 -0.74631023
-5.0637608 1.3194873 -0.74673504
-5.0574822 1.3510438 -0.74701822
-5.0643744 1.3862303 -0.74928367
-5.100574 1.4298317 -0.75593853
-5.105978 1.4651954 -0.75806242
-5.0835934 1.4925947 -0.75608015
-5.1094203 1.5342889 -0.76131904
-5.0781436 1.5589316 -0.75806242
-5.0580926 1.5868028 -0.75650489
-5.068058 1.6241508 -0.75947833
-5.0928092 1.6666049 -0.76471728
-5.0777926 1.6962546 -0.7640093
-5.0541706 1.7229092 -0.76202703
-5.0902557 1.7701406 -0.76910663
-5.1016917 1.809279 -0.77250487
-5.0951486 1.8422307 -0.77321279
-5.0865359 1.8744859 -0.77363759
-5.0619636 1.9007906 -0.77165526
-5.0502052 1.9318144 -0.77165526
-5.0548606 1.9692317 -0.77420396
-5.0978961 2.022104 -0.78269947
-5.0881462 2.0544577 -0.78312427
-5.0809388 2.0878961 -0.78397381
-5.0926924 2.1293404 -0.7877968
-5.0904632 2.1651969 -0.78949594
-5.0788994 2.1971765 -0.78977913
-5.0662279 2.2286973 -0.78992069
-5.0714355 2.2682264 -0.79289412
-5.0754466 2.3074934 -0.795726
-5.0908489 2.3522913 -0.80039853
-5.0897613 2.3897934 -0.80252242
-5.0669603 2.4171436 -0.80124807
-5.0547061 2.4494832 -0.80167288
-5.0422463 2.4817634 -0.80209768
-5.0366645 2.5175226 -0.80365515
-5.0317154 2.5537548 -0.8053543
-5.0300317 2.5918338 -0.80761975
-5.0228062 2.6272361 -0.80903566
-5.048562 2.6802824 -0.81583208
-5.0241776 2.7069843 -0.81455779
-5.0066042 2.7372861 -0.81441617
-4.9966402 2.7717955 -0.8155489
-4.9985189 2.8130813 -0.81866395
-4.9914813 2.8495872 -0.82036304
-4.98247 2.8851199 -0.82177901
-4.9919906 2.9316764 -0.82630992
-4.9756093 2.9632645 -0.8265931
-4.9429264 2.9850404 -0.82418609
-4.9295835 3.0184145 -0.82503563
-4.9168577 3.052259 -0.82602674
-4.9072537 3.0881696 -0.82758427
-4.8982282 3.1246092 -0.82928336
-4.9313393 3.1884618 -0.83820373
-4.8893251 3.2040124 -0.83438069
-4.8811197 3.2416186 -0.83636302
-4.873457 3.2797966 -0.83848691
-4.8679633 3.3196754 -0.84103554
-4.8719373 3.3663619 -0.84528333
-4.8722758 3.4109507 -0.84896469
-4.8520627 3.4413548 -0.84910631
-4.8212075 3.4641311 -0.84740722
-4.8134689 3.5035503 -0.8498143
-4.8189731 3.55299 -0.85462844
-4.7962885 3.5818994 -0.85448682
-4.763166 3.6029019 -0.85250455
-4.7472563 3.6368761 -0.85363728
-4.7436237 3.6804979 -0.85703546
-4.758317 3.738889 -0.86383194
-4.7538781 3.7828064 -0.86723012
-4.7398281 3.8193569 -0.86892927
-4.7262759 3.8565028 -0.87076992
-4.7162614 3.8967783 -0.87331861
-4.7051706 3.9364407 -0.87572569
-4.6718636 3.9575596 -0.8740266
-4.6520014 3.9900174 -0.87487614
-4.6274314 4.0184865 -0.87487614
-4.6130967 4.0559545 -0.87685841
-4.6021733 4.0966878 -0.87954867
-4.5901875 4.1367764 -0.8820973
-4.5734944 4.1728692 -0.88379645
-4.5579853 4.2102561 -0.88577873
-4.5501432 4.2550459 -0.88931853
-4.5455174 4.3032994 -0.89356631
-4.5276046 4.3393278 -0.8952654
-4.5008936 4.3670273 -0.8952654
-4.4683633 4.3890128 -0.89413267
-4.4455605 4.4205351 -0.89498222
-4.4281211 4.457561 -0.89696455
-4.4090075 4.4931254 -0.89866364
-4.3834229 4.5222259 -0.89908844
-4.3453217 4.5383129 -0.89696455
-4.3398428 4.5886216 -0.90163708
-4.3325577 4.6375861 -0.90602642
-4.3127489 4.6735396 -0.90786713
-4.2859921 4.7021084 -0.90829194
-4.2656713 4.7378817 -0.91013265
-4.2516522 4.7809787 -0.91338927
-4.2339969 4.8203626 -0.9159379
-4.2082324 4.8507371 -0.91678745
-3.8395507 4.4810977 -0.84230989
-3.8292508 4.5249729 -0.84613287
-4.1671209 4.985857 -0.92769009
-4.1364503 5.011332 -0.92769009
-4.126266 5.0619373 -0.93236262
-4.113133 5.1095209 -0.93646878
-4.1088114 5.168756 -0.94269884
-4.0782418 5.1954269 -0.94298208
-4.0711536 5.2524295 -0.94878733
-4.0448661 5.2851715 -0.95020324
-4.011764 5.3091011 -0.95006168
-3.9779282 5.3320303 -0.9497785
-3.9515953 5.3651047 -0.95133603
-3.9302461 5.405262 -0.95416784
-3.9022019 5.4365134 -0.95544219
-3.8773563 5.4724698 -0.95756608
-3.8550527 5.5123811 -0.9603979
-3.8380294 5.5603704 -0.96464568
-3.8155451 5.6009955 -0.96761912
-3.8020964 5.6555181 -0.97299963
-3.7766278 5.6927633 -0.97540671
-3.7486758 5.7265954 -0.97724742
-3.7134674 5.7494893 -0.97724742
-3.6919527 5.7938709 -0.98092878
-3.6726673 5.8423944 -0.98531818
-3.6482284 5.883327 -0.98843318
-3.636857 5.946135 -0.9952296
-3.6105318 5.9852901 -0.99806148
-3.5722201 6.0047789 -0.99763668
-3.5398169 6.0342689 -0.99891102
-3.5195789 6.0850086 -1.0037252
-3.4807045 6.10391 -1.0033004
-1.788296 3.1818554 -0.52032882
-1.7615409 3.1797807 -0.51820499
-1.7415224 3.1896608 -0.51806337
-3.3627026 6.2485094 -1.0132118
-3.3280098 6.276021 -1.0143446
-3.2931061 6.3033423 -1.0154773
-3.2711313 6.3559957 -1.0207163
-3.2535579 6.4183273 -1.0275127
-3.2185369 6.4470263 -1.0289286
-3.1907115 6.4906392 -1.0327516
-3.1611779 6.5314789 -1.0361499
-0.96405178 2.0244637 -0.31898451
-0.95707661 2.0419917 -0.32082522
-0.94245487 2.0433319 -0.32011724
-0.92539674 2.0391617 -0.31855974
-0.90559882 2.0285325 -0.31601107
-0.88556814 2.0168316 -0.31332082
-0.85707653 1.9849702 -0.30751553
-0.83597761 1.9692365 -0.30425891
-0.81434131 1.9514923 -0.30071908
-0.7903235 1.9271473 -0.29618815
-0.77515149 1.9236977 -0.2949138
-0.75749934 1.9136924 -0.29264835
-0.73712766 1.8961632 -0.28925011
-0.71947306 1.88493 -0.28684303
-0.7023319 1.8744789 -0.28457758
-0.68397856 1.8601731 -0.28174573
-0.67053461 1.8587486 -0.28089616
-0.65151536 1.8413661 -0.27763954
-0.63598275 1.8331722 -0.27579883
-0.62248945 1.8304802 -0.27480769
-0.60310113 1.80985 -0.2711263
-0.58798724 1.8012841 -0.26928559
-0.56998414 1.783173 -0.26602897
-0.55192977 1.763965 -0.26263076
-0.53761435 1.7559609 -0.26093164
-0.5219965 1.743107 -0.25852457
-0.5101772 1.7424773 -0.2579582
-0.49565873 1.732252 -0.2559759
-0.4826192 1.726681 -0.25470158
-0.4675791 1.7133763 -0.25229451
-0.45348588 1.7028222 -0.25031221
-0.43929067 1.691202 -0.24818833
-0.42476866 1.6775533 -0.24578126
-0.41185546 1.6695569 -0.24422374
-0.39836189 1.6585779 -0.24224146
-0.38569555 1.6503885 -0.24068393
-0.37336454 1.6430717 -0.239268
-0.36071032 1.6337329 -0.2375689
-0.34735346 1.6204298 -0.23530343
-0.33538502 1.6128395 -0.23388751
-0.32077941 1.5915788 -0.23048928
-0.30739754 1.5750583 -0.22779903
-0.29533485 1.5642701 -0.22595833
-0.28555307 1.565079 -0.22581674
-0.2726748 1.5482795 -0.22312649
-0.26184079 1.5421164 -0.22199374
-0.25157303 1.5388094 -0.22128578
-0.23873578 1.5188115 -0.21817075
-0.23118939 1.5319932 -0.21986985
-0.22121648 1.529464 -0.21930349
-0.2099224 1.5170652 -0.2173212
-0.20047985 1.5173434 -0.2171796
-0.1880646 1.493992 -0.2136398
-0.17783192 1.4862719 -0.21236546
-0.16635725 1.4666802 -0.20939203
-0.15767258 1.470626 -0.2098168
-0.14664784 1.4518683 -0.20698495
-0.13773657 1.4527408 -0.20698495
-0.12952267 1.4614468 -0.20811769
-0.12006237 1.4562948 -0.20726813
-0.11067019 1.4510819 -0.20641859
-0.10134654 1.4458089 -0.20556903
-0.091964573 1.4385004 -0.20443629
-0.082043335 1.4202608 -0.20174603
-0.072761133 1.4098631 -0.20018852
-0.063564248 1.3984163 -0.19848941
-0.054746557 1.3928452 -0.19763985
-0.045866612 1.3832612 -0.19622393
-0.037378214 1.3835167 -0.19622393
-0.028930642 1.3856994 -0.19650711
-0.020517856 1.3917897 -0.19735667
-0.012022448 1.3968387 -0.19806464
-0.0034426989 1.3939165 -0.19763985
0.0051420778 1.4038106 -0.19905578
0.013653805 1.3928639 -0.19749826
0.021847464 1.3699883 -0.19424164
0.030167539 1.3658696 -0.19367526
0.039124724 1.3864393 -0.19664872
0.056095906 1.3848656 -0.19650711
0.065186106 1.3973507 -0.19834782
0.073758855 1.3969245 -0.19834782
0.083196051 1.4112691 -0.2004717
0.097219512 1.4937124 -0.21236546
0.10701236 1.5019749 -0.2136398
0.11136264 1.4381218 -0.20457788
0.11928216 1.4265597 -0.20302036
0.12882602 1.4346749 -0.2042947
0.13696755 1.4269594 -0.20330355
0.14511946 1.4201829 -0.202454
0.15298092 1.4113922 -0.20132126
0.16096456 1.4045256 -0.2004717
0.16922462 1.4005631 -0.20004693
0.17669614 1.3906597 -0.19877259
0.18444361 1.3836615 -0.19792305
0.19211186 1.3766207 -0.19707349
0.19913115 1.3656198 -0.19565757
0.20364836 1.3389249 -0.19197616
0.20954402 1.3229831 -0.18985228
0.21974288 1.3343714 -0.19169298
0.24712068 1.3456801 -0.19395846
0.25721619 1.3538647 -0.19537438
0.2679922 1.36489 -0.19721508
0.3184624 1.4777972 -0.21448934
0.34743243 1.5657001 -0.22765744
0.61173606 2.607044 -0.38128516
0.64510781 2.675421 -0.39190456
0.94202596 3.8053422 -0.55898356
0.98801363 3.8887219 -0.57215166
1.0031234 3.8490577 -0.56719589
0.69422781 2.5975728 -0.38284266
0.71145934 2.5980384 -0.38355061
0.73059225 2.6050625 -0.38524973
0.74547118 2.5967245 -0.38468337
0.75916016 2.5845025 -0.38355061
0.77301198 2.5731587 -0.38255948
0.78849566 2.567421 -0.38241789
0.79860634 2.5445876 -0.37972763
0.80786276 2.5198421 -0.37675419
0.74636596 2.2796214 -0.3413561
0.80360788 2.4045753 -0.36089584
0.85762018 2.5148523 -0.37831172
0.88213599 2.5357237 -0.3822763
1.0018706 2.8241677 -0.42687789
1.0171616 2.812381 -0.42602834
0.97006643 2.631454 -0.39940897
1.0752536 2.8627083 -0.43565661
1.092445 2.8551323 -0.43551502
1.1074287 2.8419182 -0.43452388
1.1255752 2.8369102 -0.43480706
1.5042249 3.724967 -0.57285964
1.5484933 3.7678609 -0.58093035
1.5658568 3.7445881 -0.57880652
1.583768 3.7230668 -0.57696581
1.4588357 3.3716469 -0.52372706
1.4695336 3.339978 -0.52018726
1.498889 3.3507798 -0.52330232
1.5865954 3.4893179 -0.54652345
2.1405785 4.6325226 -0.72818643
2.1685424 4.6184049 -0.72804487
2.1691418 4.5469332 -0.71884131
2.1331244 4.4016871 -0.69788569
2.1565959 4.3814096 -0.69675291
2.2847705 4.5708795 -0.72917759
2.803246 5.5234299 -0.8842212
2.6435132 5.1303549 -0.82376128
3.3304527 6.3675961 -1.0260968
3.3768864 6.3610311 -1.0283623
3.4304061 6.367209 -1.0327516
1.907356 3.4882298 -0.56691271
1.9316041 3.4816549 -0.56776232
1.9490476 3.4628353 -0.56662953
1.9712399 3.4525306 -0.56691271
1.9913951 3.4386568 -0.56662953
2.010452 3.4229586 -0.56606317
2.0263526 3.4020524 -0.56464726
2.0195601 3.3437927 -0.55700129
2.1501257 3.5111725 -0.58716047
2.2165222 3.5702484 -0.5993374
2.2299526 3.5431747 -0.59707189
3.48018 5.4557652 -0.92386711
3.8048627 5.8849025 -1.0006101
3.8078079 5.810935 -0.99197298
3.9945195 6.0150781 -1.0310525
4.0180893 5.9707427 -1.0276543
3.8243427 5.6081767 -0.96917665
3.8496795 5.5715742 -0.96691114
3.8809552 5.5437927 -0.96620321
3.9916272 5.6280823 -0.98517656
4.1387072 5.7602606 -1.0127871
4.171061 5.7307553 -1.0120791
4.2507863 5.765614 -1.0228401
4.2819376 5.7338705 -1.021849
4.315845 5.7059097 -1.0215658
4.3507748 5.6793213 -1.0215658
4.3715849 5.6345282 -1.0183092
3.3560667 4.2710114 -0.77519512
3.3458483 4.2046328 -0.76684117
3.3498478 4.157043 -0.7618854
3.1788025 3.8955553 -0.71742541
3.2360597 3.9164269 -0.72492981
3.5680664 4.2647662 -0.79360211
3.5986457 4.2480803 -0.79459327
3.6207771 4.2214108 -0.79374367
3.6440153 4.1961246 -0.79317731
3.6611974 4.164021 -0.79133666
3.6840458 4.1385202 -0.79077023
3.7173216 4.1246624 -0.79246938
3.7385573 4.0973878 -0.79161984
3.7569118 4.0670986 -0.79020387
3.7689512 4.030231 -0.78751361
3.7997334 4.0134997 -0.78878796
3.819494 3.9851065 -0.7877968
3.8397388 3.9573321 -0.78694725
3.8556247 3.9252219 -0.78524816
3.8663762 3.8881519 -0.7825579
3.8522406 3.8266776 -0.77491194
3.7011435 3.6316967 -0.73993862
3.6558373 3.543458 -0.72648734
3.7404268 3.5812116 -0.73894745
3.9435532 3.7296257 -0.77462876
3.9620237 3.7013032 -0.77377915
3.9832051 3.6755803 -0.77349597
3.9932468 3.6397326 -0.7710889
4.0221252 3.6211238 -0.77236325
4.0561032 3.6069031 -0.77462876
4.07444 3.5786805 -0.77392077
4.0798721 3.5393395 -0.77080572
4.1060224 3.5181046 -0.77165526
4.1093974 3.4774947 -0.76825708
4.1276197 3.4496748 -0.76769072
4.1204638 3.4009645 -0.76245177
4.1404867 3.3749924 -0.76231021
4.1557198 3.3451777 -0.76131904
4.0979071 3.2573917 -0.74701822
4.0531912 3.181447 -0.73526603
4.0452538 3.135289 -0.73031032
5.430593 4.1561828 -0.97639787
5.4275622 4.1012955 -0.97130054
5.4319968 4.0525227 -0.96761912
5.4161129 3.9891725 -0.9603979
4.4933867 3.267076 -0.79289412
5.4204302 3.8906555 -0.95261031
5.4530854 3.8636193 -0.95416784
5.461277 3.8193061 -0.95147759
5.4780917 3.7812254 -0.95034486
5.4962816 3.7441969 -0.94949532
5.5166879 3.7087445 -0.94907051
5.5319166 3.6698992 -0.94779617
5.0963368 3.3360202 -0.86949563
5.3570166 3.4599266 -0.91041583
5.5400949 3.5302093 -0.93788475
5.5700321 3.5014188 -0.93930066
5.5720625 3.4551749 -0.93604404
5.5821805 3.4142048 -0.93420333
5.5962439 3.3757977 -0.9330706
5.6134486 3.3393712 -0.93250424
5.6184649 3.2958477 -0.92995554
5.6454368 3.2652771 -0.93108827
5.6799841 3.2389138 -0.93349534
5.6773157 3.1913867 -0.92981398
5.7045836 3.16081 -0.93108827
5.7534089 3.1418819 -0.93590242
5.7124333 3.074146 -0.92613256
5.6760931 3.0098152 -0.91721225
5.6742749 2.9643862 -0.91395563
5.6782751 2.9222643 -0.91169012
5.6828547 2.8806534 -0.90956622
5.6995373 2.8452873 -0.90942466
5.6769128 2.7906063 -0.90305299
5.6921468 2.7548583 -0.9027698
5.7017941 2.7164731 -0.90163708
5.7040148 2.6747105 -0.89937162
5.730206 2.6442246 -0.90092909
5.7364082 2.6045122 -0.89937162
5.7125134 2.5514979 -0.89314151
5.695435 2.5020616 -0.88804424
5.6934147 2.4596069 -0.88535398
5.688355 2.4161103 -0.88223892
5.7048998 2.3819246 -0.88252211
5.7514601 2.3600314 -0.88747782
5.755734 2.3206239 -0.88592035
5.7450156 2.2754188 -0.8820973
5.7219677 2.2257664 -0.87643361
5.7170224 2.1835494 -0.87360179
5.7127018 2.1418242 -0.87091154
5.7099433 2.1009188 -0.86850446
5.7152781 2.063154 -0.86737174
5.7259636 2.027386 -0.86708856
5.7149172 1.9840946 -0.86354876
5.707305 1.9422917 -0.86057532
5.7003341 1.9009705 -0.85774344
5.6846027 1.8570405 -0.85363728
5.6751485 1.8154876 -0.85052222
5.6446161 1.7676105 -0.84429216
5.6695528 1.7372944 -0.84641606
5.7000184 1.7084447 -0.84938949
5.6989946 1.670096 -0.8476904
5.7176995 1.63755 -0.84896469
5.7009478 1.5949652 -0.84500015
5.7001228 1.5570843 -0.84344262
5.6961784 1.5185084 -0.84146035
5.6795216 1.4767997 -0.83763731
5.6404986 1.4297562 -0.8305577
5.6520486 1.3958321 -0.83098251
5.6518445 1.3590417 -0.82970816
5.6620049 1.3247882 -0.82999134
5.6902971 1.2946359 -0.83296478
5.6865349 1.2571311 -0.83126569
5.6631699 1.2155641 -0.82673472
4.6674886 0.97181326 -0.68018663
4.5899143 0.92630303 -0.6680097
4.4148092 0.86278152 -0.64167351
4.4093208 0.83365202 -0.64011598
4.4338284 0.8101427 -0.64294785
4.4182439 0.77930802 -0.63997442
5.1128969 0.86962003 -0.74008018
5.2851844 0.86561096 -0.76429248
5.3197322 0.837789 -0.76854026
5.3404331 0.80750173 -0.77080572
5.3129582 0.77002877 -0.76613319
3.5673442 0.49449053 -0.51339084
3.5467594 0.46947068 -0.5099926
3.5397518 0.44645885 -0.50857669
3.5266986 0.42284259 -0.50631118
3.5184076 0.39996338 -0.50475371
3.5168583 0.37794349 -0.50418735
3.5063078 0.35505852 -0.50234663
3.4887114 0.33166024 -0.49951476
3.4788485 0.30919388 -0.49781567
3.4658821 0.28661576 -0.49569178
3.4409256 0.26329997 -0.49186879
3.426677 0.24106748 -0.48960331
3.4132733 0.21908337 -0.48747942
3.397753 0.19715783 -0.48507234
3.3939562 0.17604856 -0.48436439
3.3860722 0.15481175 -0.48309007
3.3661864 0.1332064 -0.48011661
3.3402276 0.1116514 -0.47629362
3.3368917 0.09104529 -0.47572726
3.3235316 0.070273191 -0.47374496
3.3120227 0.049698565 -0.47204587
3.3013761 0.029276792 -0.47048834
3.2604914 -0.0074475487 -0.52088118
3.2495236 -0.027361115 -0.51913959
3.2571929 -0.047414888 -0.52040619
3.2390711 -0.067030646 -0.51755625
3.2464952 -0.087116458 -0.51882291
3.2932682 -0.10860062 -0.52642274
3.3477914 -0.13097139 -0.53528929
3.3646793 -0.15231566 -0.53813922
3.3676257 -0.17316119 -0.53877252
3.3556564 -0.19319619 -0.53703088
3.3682032 -0.21466272 -0.53924751
3.4081917 -0.23822021 -0.54589742
3.4568772 -0.26295108 -0.55397224
3.4798002 -0.28618214 -0.55793053
3.5025675 -0.30970436 -0.56188875
3.5576143 -0.336588 -0.57107192
3.6026375 -0.36316764 -0.57867181
3.6337218 -0.38884053 -0.58405501
3.646965 -0.41290766 -0.58658832
3.35024 -0.40012711 -0.5390892
3.2536733 -0.40885094 -0.52388948
3.1953061 -0.42144361 -0.51486462
3.1828792 -0.43968976 -0.51328135
3.1683946 -0.45751694 -0.51138139
3.1596694 -0.47606614 -0.51043141
3.1420574 -0.49314693 -0.50805646
3.1272788 -0.51050711 -0.50615644
3.1172729 -0.52853018 -0.50504816
3.1110539 -0.54713416 -0.50457317
3.1144378 -0.56745237 -0.50568146
3.1303029 -0.59021199 -0.50884807
3.1460052 -0.61318749 -0.51201469
3.2389791 -0.6519711 -0.52784771
3.2252502 -0.6698243 -0.52626443
3.2336311 -0.69228959 -0.5283227
3.2216086 -0.71041614 -0.5270561
3.2162261 -0.72995156 -0.52689773
3.1953409 -0.74585545 -0.52420616
3.1878238 -0.76475644 -0.52373117
3.1754019 -0.78241175 -0.52246451
3.1829853 -0.80502921 -0.52452278
3.2095246 -0.83273005 -0.52974772
3.2520638 -0.86510289 -0.53766423
3.2819407 -0.89465177 -0.54352242
3.3477142 -0.9346922 -0.55539721
3.3779912 -0.96552998 -0.56141376
3.4459209 -1.0078638 -0.57376355
3.5153475 -1.0516331 -0.58642995
3.6023035 -1.1017796 -0.60210466
3.653904 -1.1421299 -0.61192119
3.7154891 -1.1864589 -0.62347931
3.7691557 -1.2291365 -0.63377076
3.8289936 -1.2746999 -0.64517057
3.895891 -1.3235846 -0.65783697
3.9651287 -1.3743075 -0.67097843
4.0646076 -1.4367902 -0.68934476
4.1430297 -1.4931777 -0.70422781
4.2162757 -1.5488777 -0.71831918
4.2788191 -1.6017234 -0.73066896
4.2845941 -1.6339294 -0.73336059
4.3002586 -1.6701993 -0.73779386
4.2688117 -1.6882008 -0.73415226
4.2528772 -1.7121493 -0.73320228
4.2532554 -1.742705 -0.73510224
4.2306347 -1.7638297 -0.73304391
4.2297311 -1.7939966 -0.73478556
4.1986985 -1.8113104 -0.73130232
4.2046852 -1.8445767 -0.73431057
4.1229529 -1.8389652 -0.72196078
4.1187854 -1.8674908 -0.72322744
4.1242871 -1.9005806 -0.72623575
4.1563621 -1.9463717 -0.73399389
4.1247263 -1.9625041 -0.73051065
4.1117182 -1.9873463 -0.73035228
4.1180592 -2.0216768 -0.73367727
4.1055765 -2.0469067 -0.73367727
4.0770836 -2.0640309 -0.73082733
4.033607 -2.073209 -0.72528571
4.0181837 -2.0965493 -0.72481072
4.0139694 -2.1257865 -0.72639406
4.0034595 -2.1517782 -0.72686905
3.9789126 -2.1701558 -0.72481072
3.9629302 -2.1930945 -0.72433573
3.9235709 -2.2028663 -0.71958584
3.900543 -2.2215238 -0.71784419
3.9270205 -2.2686315 -0.72528571
3.9215455 -2.2976766 -0.72686905
3.8954899 -2.3146334 -0.72465241
3.8414662 -2.3145401 -0.71721089
3.8339326 -2.342186 -0.71847755
3.8429921 -2.3802252 -0.72291076
3.8333321 -2.4069109 -0.72386074
3.7860062 -2.4097083 -0.71768588
3.7587044 -2.4248633 -0.71531093
3.7792892 -2.4711177 -0.72211915
3.7426562 -2.4800787 -0.71800256
3.7183518 -2.4969411 -0.71626091
3.7135725 -2.5269313 -0.71831918
3.7020621 -2.5524721 -0.71911085
3.6669049 -2.5615675 -0.71531093
3.6390293 -2.5754626 -0.71293598
3.6191463 -2.5948658 -0.71214432
3.6087484 -2.6210856 -0.7132526
3.5933928 -2.6437645 -0.71341097
3.5992706 -2.6822848 -0.71784419
3.5764403 -2.6995599 -0.71657759
3.5574555 -2.7196543 -0.7161026
3.5344555 -2.7365952 -0.71483594
3.5199287 -2.7600586 -0.71531093
3.4944215 -2.7748499 -0.71356928
3.4904099 -2.8067584 -0.71626091
3.4669974 -2.8231344 -0.71499425
3.4305651 -2.8286495 -0.71103603
3.4298184 -2.8635688 -0.71451926
3.4076591 -2.8807347 -0.71356928
3.3644164 -2.8797579 -0.70818603
3.3533981 -2.9061677 -0.70961106
3.3243709 -2.9169199 -0.70723605
3.287957 -2.9208677 -0.70327783
3.2890596 -2.9581556 -0.70739442
3.2642765 -2.9722979 -0.70596945
3.2452514 -2.9916019 -0.70581108
3.2160068 -3.0013523 -0.70343614
3.1817415 -3.0061097 -0.6999529
3.1646633 -3.0269413 -0.70026952
3.1481588 -3.048363 -0.70074451
3.1315103 -3.0696959 -0.7012195
3.097899 -3.0742464 -0.69789457
3.0657434 -3.0798998 -0.69488633
3.0467875 -3.0986531 -0.69488633
3.0311568 -3.120831 -0.69567794
2.9900775 -3.11657 -0.69061136
2.9688609 -3.1327078 -0.69013637
2.9367628 -3.1371689 -0.68712813
2.923491 -3.1616545 -0.68855309
2.9027047 -3.1780751 -0.68823642
2.8957157 -3.2097561 -0.69124472
2.8720255 -3.2230401 -0.69029474
2.8391488 -3.2257771 -0.68712813
2.8257799 -3.2505894 -0.6887114
2.7980635 -3.2588768 -0.68681145
2.7537496 -3.2473657 -0.68079489
2.7248971 -3.253603 -0.67857826
2.704253 -3.2695007 -0.67841995
2.6785195 -3.2791493 -0.67699498
2.6533895 -3.2893744 -0.67572832
2.6220834 -3.2916911 -0.67287838
2.6067202 -3.3139267 -0.67414504
2.5718019 -3.3111427 -0.67034507
2.5694618 -3.3503668 -0.67509502
2.5417037 -3.3566232 -0.67319506
2.534066 -3.3895545 -0.6766783
2.5214286 -3.4161618 -0.67889494
2.5004201 -3.4315686 -0.67889494
2.4793174 -3.4468465 -0.67889494
2.4466894 -3.4458919 -0.67572832
2.3903682 -3.4107056 -0.66591185
2.3682721 -3.4236844 -0.66559517
2.3728273 -3.4756646 -0.67287838
2.3260798 -3.4524889 -0.66559517
2.281894 -3.4321609 -0.65894532
2.256459 -3.4394929 -0.65767866
2.2299473 -3.4449842 -0.65609533
2.2268348 -3.4868968 -0.66147858
2.2048714 -3.4996593 -0.66132027
2.1724124 -3.4955103 -0.65799534
2.1493757 -3.5062487 -0.65752035
2.1186266 -3.5041614 -0.65467036
2.0905125 -3.5060697 -0.65261209
2.0814705 -3.5401106 -0.65657037
2.0512917 -3.5382936 -0.65387875
2.0329719 -3.5568142 -0.65498704
2.0115941 -3.5700817 -0.65514535
1.9771872 -3.5599136 -0.65102881
1.9519882 -3.5659153 -0.64992046
1.9497583 -3.6143248 -0.65657037
1.9145696 -3.6018074 -0.6521371
1.875944 -3.5819972 -0.64643723
1.8457822 -3.5776451 -0.64358723
1.8363189 -3.6135509 -0.64802051
1.8101351 -3.6168034 -0.64659554
1.7791802 -3.6101279 -0.64342892
1.7557025 -3.6183119 -0.64295393
1.7487868 -3.661092 -0.64865381
1.7157886 -3.6494141 -0.64469558
1.6800979 -3.6311967 -0.63962901
1.6590128 -3.6441333 -0.640104
1.6216909 -3.6209011 -0.63424575
1.5950649 -3.6208436 -0.63250411
1.5716405 -3.6278446 -0.63202912
1.5481902 -3.6346943 -0.63155413
1.5430174 -3.685111 -0.63867903
1.5237583 -3.7027276 -0.640104
1.5024904 -3.7156689 -0.6407373
1.4738317 -3.7101357 -0.63820404
1.446733 -3.7080708 -0.63630408
1.4165368 -3.6975145 -0.63297909
1.3952127 -3.7098336 -0.63361245
1.3693467 -3.7099874 -0.63218749
1.3563051 -3.7452435 -0.63677907
1.3247076 -3.7293034 -0.63266248
1.3066711 -3.7513485 -0.63503742
1.2775676 -3.7415411 -0.63202912
1.249887 -3.7352641 -0.62965417
1.2226392 -3.729727 -0.62743753
1.1955066 -3.7239969 -0.62522095
1.1844729 -3.7689414 -0.63155413
1.1595837 -3.7704756 -0.63060415
1.1284639 -3.7510445 -0.62617093
1.1090481 -3.7702124 -0.6282292
1.0839843 -3.7703037 -0.62712091
1.0546901 -3.7550199 -0.62347931
1.0295411 -3.7538025 -0.62221265
1.0044469 -3.7524185 -0.62094599
0.97491932 -3.7336714 -0.6168294
0.95126092 -3.7367125 -0.61635441
0.93924701 -3.7865636 -0.62363762
0.91437304 -3.7855368 -0.62252933
0.89474219 -3.8064551 -0.62506258
0.86740988 -3.7945473 -0.62221265
0.8361904 -3.7641337 -0.61635441
0.81182945 -3.7634025 -0.61540443
0.78609359 -3.755749 -0.61334616
0.7591083 -3.741148 -0.61017954
0.73252225 -3.7273269 -0.60717124
0.70982242 -3.7327213 -0.60732961
0.68904674 -3.7486601 -0.60922956
0.66775715 -3.7625396 -0.61081284
0.63899684 -3.7334757 -0.60542965
0.61495292 -3.7305064 -0.6043213
0.59297872 -3.7400608 -0.60527128
0.56823617 -3.731915 -0.60337132
0.54846346 -3.7568264 -0.60685462
0.52977204 -3.7914138 -0.61192119
0.50297302 -3.7681675 -0.60764623
0.48308113 -3.7966499 -0.61176282
0.45550838 -3.7642536 -0.60606295
0.42936432 -3.7404921 -0.60178804
0.40747014 -3.7528725 -0.60337132
0.38604313 -3.771018 -0.60590464
0.36346409 -3.7792127 -0.60685462
0.33823457 -3.7587533 -0.60321301
0.31401145 -3.7469828 -0.60099638
0.29040366 -3.7409635 -0.59972972
0.26772535 -3.7466147 -0.60036308
0.24428163 -3.7412896 -0.59925473
0.22079694 -3.7338471 -0.59782976
0.19903007 -3.7568235 -0.60131305
0.17509861 -3.7392347 -0.59830475
0.15074947 -3.7057083 -0.59276319
0.1279068 -3.703603 -0.5922882
0.10540317 -3.712214 -0.59355485
0.082316861 -3.698971 -0.59133822
0.059539635 -3.6944702 -0.59054655
0.037016448 -3.7095759 -0.59292156
0.014354841 -3.7363925 -0.59719646
-0.0084362561 -3.679142 -0.58801329
-0.031103183 -3.689882 -0.58975494
-0.054017805 -3.70838 -0.59276319
-0.076832496 -3.7109399 -0.59323817
-0.099202506 -3.6955934 -0.59086323
-0.12145233 -3.682086 -0.58880496
-0.14408158 -3.6822584 -0.58896327
-0.16640443 -3.6753867 -0.58801329
-0.18880071 -3.6713383 -0.5875383
-0.21052848 -3.6563101 -0.58532166
-0.23365083 -3.6657884 -0.58706331
-0.25345144 -3.6258719 -0.58088839
-0.27741873 -3.6468928 -0.58453
-0.29865637 -3.631345 -0.58231342
-0.32093227 -3.6294444 -0.58231342
-0.3437545 -3.6333046 -0.5832634
-0.36871731 -3.6576519 -0.5875383
-0.38715848 -3.6180134 -0.58152175
-0.40723905 -3.5969286 -0.57851344
-0.43269959 -3.6227939 -0.58310503
-0.45110187 -3.5897009 -0.57819682
-0.46963125 -3.5604351 -0.57392186
-0.49255037 -3.5653114 -0.57518852
-0.51342911 -3.5553813 -0.57408023
-0.53449893 -3.5472822 -0.57328856
-0.5576331 -3.5527146 -0.57471353
-0.57798928 -3.5404561 -0.57328856
