# .PCD v0.7 - Point Cloud Data file format
VERSION 0.7
FIELDS x y z
SIZE 4 4 4
TYPE F F F
COUNT 1 1 1
WIDTH 1449
HEIGHT 1
VIEWPOINT 0 0 0 1 0 0 0
POINTS 1449
DATA ascii
6.8431034 3.4817476 -0.94531292
6.8882961 3.4516981 -0.9486174
6.9093456 3.4093671 -0.9486174
6.9274569 3.365607 -0.94825023
6.9381285 3.3183272 -0.94690394
6.9520726 3.2727346 -0.94604725
6.970222 3.2291813 -0.94580245
6.9998384 3.1908801 -0.94714874
7.0265307 3.1511188 -0.94812787
7.0611701 3.1147544 -0.95020849
7.1129279 3.0855873 -0.95461446
7.148159 3.0488935 -0.95681745
7.1520877 2.9988358 -0.95485926
7.1868711 2.9617012 -0.95706224
7.2325063 2.9287221 -0.96073395
7.2328186 2.8773193 -0.95840853
7.2226043 2.8220506 -0.95473689
7.2240314 2.771637 -0.95265627
7.2771249 2.740901 -0.95742941
7.2993913 2.6982622 -0.95816374
7.3083458 2.6507163 -0.95718467
7.3572006 2.6174657 -0.96146828
7.3628144 2.5686777 -0.96012199
7.3803148 2.5240941 -0.96036679
7.4022508 2.4809697 -0.96122348
7.4220495 2.4370513 -0.96183544
7.4425321 2.3932874 -0.96256977
7.4741173 2.3529398 -0.96477276
7.4817748 2.3049898 -0.96391606
7.4881744 2.2567482 -0.96293694
7.514257 2.214406 -0.96452796
7.5191197 2.1657856 -0.96342647
7.5332227 2.1198773 -0.9635489
7.5604434 2.0775585 -0.96538472
7.5692139 2.0301013 -0.96489513
7.5680857 1.9801025 -0.96318173
7.5781693 1.9331379 -0.96293694
7.6004834 1.8892359 -0.96428323
7.6273665 1.8463001 -0.96624142
7.6366196 1.7990097 -0.96599668
7.6049476 1.7423674 -0.96061152
7.6058078 1.6935147 -0.95938766
7.5956845 1.6424103 -0.95681745
7.5852208 1.591494 -0.9542473
7.5763645 1.5411637 -0.95192194
7.540885 1.4858227 -0.94629204
7.5332861 1.436365 -0.94421142
7.5429339 1.3902946 -0.94433379
7.5444822 1.3427687 -0.94347709
7.5369291 1.2937652 -0.94151884
7.5486422 1.2481426 -0.94200838
7.5336142 1.1982167 -0.93919343
7.531014 1.1504703 -0.93796957
7.5271287 1.1026571 -0.93662328
7.5239248 1.0550729 -0.93539941
7.5145178 1.006779 -0.93344116
7.5107083 0.95939451 -0.9322173
7.4997044 0.91125703 -0.93013668
2.3555083 0.27172196 -0.29089877
2.3482516 0.2562955 -0.28979728
2.3428693 0.24117139 -0.28894055
2.3373897 0.22612303 -0.28808382
2.3407099 0.21195562 -0.28832859
2.3399885 0.19742262 -0.28808382
2.3480818 0.18360186 -0.28894055
2.3491645 0.16919085 -0.28894055
2.3471873 0.15457812 -0.28857338
2.3510637 0.14035025 -0.28894055
7.4687667 0.39934781 -0.92083508
7.4383607 0.35196587 -0.91679627
7.4284801 0.30582881 -0.91532761
7.4302173 0.26024276 -0.91532761
7.4485397 0.21513346 -0.91740823
7.456665 0.16958375 -0.91826493
2.4432406 0.040733784 -0.29983318
2.4454293 0.025762284 -0.30007794
2.4534812 0.010791052 -0.30105707
2.4442225 0.0065131998 -0.34786937
2.4491661 -0.0085002901 -0.34857732
2.4490678 -0.023527931 -0.34857732
2.4607549 -0.03873862 -0.35027641
2.4624503 -0.0538796 -0.35055962
2.4699898 -0.069207676 -0.35169235
6.052968 -0.20585914 -0.86453986
6.0743408 -0.24390669 -0.86779648
6.0667968 -0.28089949 -0.86694694
6.0491424 -0.31729138 -0.86468148
5.9788928 -0.35041305 -0.85491163
5.9716907 -0.38677287 -0.85420364
5.9672308 -0.4232673 -0.85392046
5.9191189 -0.45637786 -0.84740722
5.8915443 -0.49063706 -0.84386742
5.8548989 -0.52378219 -0.83905327
5.8180699 -0.55649626 -0.83423913
5.7850003 -0.58917898 -0.82999134
5.7861977 -0.62519515 -0.83069932
5.7694664 -0.65922731 -0.82885861
5.7446737 -0.69213128 -0.82588518
5.7147846 -0.72413421 -0.82220376
5.6915889 -0.7567091 -0.8195135
5.6662483 -0.78875393 -0.81654006
5.6524854 -0.82222497 -0.81526572
5.6561422 -0.85822809 -0.81654006
5.6224136 -0.88843977 -0.8124339
5.5904818 -0.91859078 -0.80861092
5.5574164 -0.94821721 -0.80464631
5.5475941 -0.98160958 -0.80407995
2.5774438 -0.47273332 -0.3730728
2.5346177 -0.48098215 -0.36726752
2.5306473 -0.49633491 -0.36712593
2.5227027 -0.51087213 -0.36641794
2.5301802 -0.52856565 -0.36797547
2.5297928 -0.54470497 -0.36840025
2.5399339 -0.56321424 -0.37038255
2.5451167 -0.58076835 -0.37165686
5.2449708 -1.2300615 -0.76882344
5.282557 -1.2731166 -0.7754783
5.2679191 -1.3038417 -0.77448714
5.2435088 -1.3319991 -0.77208006
5.1557255 -1.3434392 -0.76032788
2.5784445 -0.68912041 -0.38001081
2.5588903 -0.70074868 -0.37774533
2.5535891 -0.71616948 -0.37760374
2.5396311 -0.72909522 -0.37618783
2.5398591 -0.74605817 -0.37689579
2.531441 -0.76049006 -0.37632942
2.5238879 -0.77513719 -0.37590465
2.4822459 -0.77905691 -0.37038255
2.4727054 -0.79276305 -0.36967456
4.7512751 -1.5548836 -0.71331924
4.7895322 -1.599998 -0.72054046
4.7458916 -1.6178613 -0.71544313
4.7078242 -1.6372 -0.71119535
4.6724982 -1.657125 -0.70737237
4.6389675 -1.6773515 -0.70383257
4.6137261 -1.700309 -0.70156705
4.5837436 -1.7212807 -0.69859362
4.5555277 -1.7426558 -0.69590336
4.5096965 -1.7569243 -0.69052285
4.4831877 -1.7783591 -0.68811578
4.4106874 -1.7810086 -0.6786291
2.5527599 -1.0493387 -0.39303732
2.5444465 -1.0642189 -0.39275414
2.5451565 -1.0829102 -0.39388686
2.5284696 -1.0941842 -0.39232937
2.5262389 -1.1116705 -0.39303732
2.5112371 -1.1235137 -0.39176297
2.4961851 -1.1352149 -0.39048865
2.4837804 -1.148019 -0.38963911
2.471313 -1.1607138 -0.38878953
2.4569962 -1.1724467 -0.38765681
2.4417381 -1.1836162 -0.38638246
3.9834869 -1.9607962 -0.63331956
4.0307107 -2.0148487 -0.64280623
4.0085611 -2.0346158 -0.6412487
3.9757609 -2.0487468 -0.63799208
3.9271488 -2.0542955 -0.63218683
3.8663783 -2.0528283 -0.62439924
3.845866 -2.0722883 -0.6231249
3.8382897 -2.0986958 -0.62397444
3.8158174 -2.1169264 -0.62241691
3.750129 -2.1106899 -0.61377978
3.7500038 -2.141021 -0.61590368
3.7179482 -2.153079 -0.61278868
3.7106431 -2.1793599 -0.61377978
3.6954997 -2.2010741 -0.6134966
3.6446366 -2.2011952 -0.60726655
3.6259961 -2.2204158 -0.606417
3.6215558 -2.2483649 -0.60797453
3.5850689 -2.2563107 -0.60415155
3.5669839 -2.2756042 -0.60344356
3.5321701 -2.284013 -0.59990376
3.4882796 -2.286113 -0.59480643
3.4329519 -2.2800956 -0.58772683
3.4279313 -2.3071957 -0.5892843
3.4210713 -2.3332045 -0.59055865
3.4034328 -2.3519011 -0.58999228
3.3621743 -2.3540077 -0.58531976
3.3056765 -2.3448179 -0.57795691
3.2719309 -2.3511961 -0.57455873
3.2670479 -2.3782175 -0.57625782
3.2396445 -2.3888214 -0.57399237
3.2479293 -2.4258294 -0.57809854
3.2321939 -2.4451156 -0.57795691
3.2100573 -2.4594846 -0.57668263
3.2089849 -2.4900563 -0.57923126
3.183526 -2.5017495 -0.57739055
3.1208606 -2.4836416 -0.56875342
3.1086457 -2.5052283 -0.56931978
3.1192956 -2.5455313 -0.57413393
3.0830114 -2.5476007 -0.57031095
3.0695994 -2.5683751 -0.57073575
3.0545375 -2.5878012 -0.57087731
2.9927623 -2.5671864 -0.56224018
2.9657414 -2.5757666 -0.56011629
2.9290631 -2.5756156 -0.55615169
2.9117253 -2.5922232 -0.55586851
2.7861862 -2.511306 -0.53477126
2.6310375 -2.4009297 -0.50772715
2.5813487 -2.3847904 -0.50093067
2.5666673 -2.4005845 -0.50093067
2.5612354 -2.4251344 -0.50277138
2.543448 -2.4380646 -0.50220501
2.5263088 -2.4515572 -0.50178027
2.5182817 -2.4739482 -0.50319618
2.5065646 -2.4928434 -0.50390416
2.489826 -2.506772 -0.50362092
2.4709308 -2.5184696 -0.502913
2.4561205 -2.5342941 -0.50305456
2.4405239 -2.5493171 -0.50305456
2.4268765 -2.5664012 -0.50347936
2.4131114 -2.5834138 -0.50390416
2.4032571 -2.6047187 -0.50517845
2.3958998 -2.6289256 -0.50701916
2.3843608 -2.6487265 -0.50801033
2.3700376 -2.6655259 -0.50843507
2.3595178 -2.6867113 -0.50970942
2.3533685 -2.7131014 -0.51197487
2.3392537 -2.7304969 -0.51254129
2.3166995 -2.7379985 -0.51126695
2.3004906 -2.7529216 -0.51140851
2.2867069 -2.770802 -0.51211649
2.274667 -2.7909188 -0.51324922
2.259362 -2.8071365 -0.51367402
2.2371664 -2.814748 -0.51254129
2.2186308 -2.8268647 -0.51225811
2.2048826 -2.845119 -0.51310766
2.2018249 -2.87746 -0.51650584
2.1889029 -2.8972337 -0.51763862
2.1746366 -2.9153705 -0.51848817
2.1696246 -2.946193 -0.52160317
2.150924 -2.9586494 -0.52146161
2.1315749 -2.9701834 -0.52117842
2.1178889 -2.9896679 -0.52231115
2.0949655 -2.9961174 -0.52117842
2.0771048 -3.0097301 -0.52131999
2.0619428 -3.0273268 -0.52216953
2.0516143 -3.0522439 -0.52429342
2.0470779 -3.086221 -0.52797484
2.0389478 -3.1152875 -0.53080666
2.0214057 -3.130234 -0.53123146
2.0080135 -3.1517611 -0.53278899
1.995487 -3.1749172 -0.5346297
1.9790988 -3.1921489 -0.53547925
1.9661908 -3.2152102 -0.53731996
1.9535853 -3.2390804 -0.53930223
1.9296242 -3.2442005 -0.5381695
1.9116857 -3.2593946 -0.53873587
1.8990861 -3.2839162 -0.54085976
1.8818436 -3.3006663 -0.5417093
1.8673775 -3.3225055 -0.54340839
1.8536738 -3.3460228 -0.54539073
1.8430734 -3.3755782 -0.54836416
1.8260801 -3.3937967 -0.54949689
1.8080049 -3.4101846 -0.55034643
1.7888802 -3.4247236 -0.5509128
1.7759881 -3.4514785 -0.55346143
1.7597011 -3.4720228 -0.55501896
1.7361528 -3.4783263 -0.55431104
1.7152144 -3.4898021 -0.5544526
1.7062778 -3.5261002 -0.55855876
1.6948307 -3.5579507 -0.561957
1.6817954 -3.5871038 -0.56493044
1.6668063 -3.6126351 -0.56733751
1.6495204 -3.6336105 -0.5690366
1.6300205 -3.6499903 -0.57002777
1.6119746 -3.6698923 -0.5715853
1.5870702 -3.6742616 -0.57073575
1.5768826 -3.7130857 -0.57526666
1.5597923 -3.7363935 -0.57739055
1.5390922 -3.7513885 -0.5782401
1.5219693 -3.7754509 -0.58050561
1.5057027 -3.8022044 -0.58319587
1.4827034 -3.8122942 -0.58333743
1.4610503 -3.8259439 -0.58404541
1.4483234 -3.86357 -0.58843476
1.4368991 -3.905828 -0.59353209
1.4142512 -3.9182956 -0.59409845
1.3964618 -3.944629 -0.5967887
1.3774281 -3.9680853 -0.59905422
1.3578398 -3.990519 -0.60117811
1.3389677 -4.0156784 -0.60372674
1.3176852 -4.0341687 -0.60528427
1.2796315 -4.0006938 -0.59905422
1.2603863 -4.0254741 -0.60160285
1.2333418 -4.0255604 -0.60047013
1.2162948 -4.0586538 -0.60429311
1.188305 -4.0555911 -0.60273558
1.1636705 -4.0637579 -0.6028772
1.138714 -4.0708213 -0.6028772
1.1105829 -4.0662727 -0.60117811
1.0845914 -4.0691848 -0.60061175
1.0583569 -4.0709729 -0.59990376
1.0426048 -4.1138535 -0.60528427
1.01948 -4.1288223 -0.60655862
0.98810673 -4.1099758 -0.6028772
0.9597109 -4.1024675 -0.60089493
0.9325431 -4.0995917 -0.59962058
0.91100532 -4.1216679 -0.60202765
0.8854903 -4.1262126 -0.60188603
0.86702067 -4.1645179 -0.60670018
0.83772808 -4.1513228 -0.60400993
0.80293 -4.1087809 -0.59707189
0.78028041 -4.1272473 -0.59905422
0.75832474 -4.1504588 -0.60174447
0.73267162 -4.1540589 -0.60160285
0.70766735 -4.1614041 -0.60202765
0.68788421 -4.2008357 -0.60712498
0.65932137 -4.1873765 -0.60457629
0.62798733 -4.1541495 -0.59919578
0.60447562 -4.1716399 -0.60117811
0.58499163 -4.2193937 -0.60754973
0.55935109 -4.2248669 -0.60783291
0.53130841 -4.2115231 -0.60542583
0.50828946 -4.2382927 -0.60882407
0.48272219 -4.245266 -0.60939044
0.4533802 -4.2176366 -0.60500109
0.42569435 -4.2026114 -0.6024524
0.39755297 -4.1805077 -0.5989126
0.37321165 -4.1976585 -0.60103649
0.34605825 -4.1830983 -0.59862942
0.32152039 -4.1999483 -0.60075331
0.29678869 -4.2166543 -0.6028772
0.27135533 -4.2253108 -0.60386837
0.24341072 -4.1923075 -0.5989126
0.21876335 -4.2144828 -0.60188603
0.19417076 -4.2434344 -0.60585064
0.16695003 -4.2148714 -0.60160285
0.14125124 -4.2207637 -0.60231084
0.11630199 -4.2561851 -0.60726655
0.090416603 -4.2677054 -0.60882407
0.063747421 -4.236506 -0.60429311
0.037948806 -4.2585945 -0.60740817
0.011736814 -4.2310295 -0.60344356
-0.014145013 -4.206274 -0.59990376
-0.039990976 -4.2100677 -0.60047013
-0.066021971 -4.2226105 -0.60231084
-0.092636406 -4.2547855 -0.60698336
-0.11923604 -4.2719488 -0.60953206
-0.14521118 -4.2642112 -0.60854089
-0.1718089 -4.2741203 -0.61009842
-0.19711754 -4.2532082 -0.60726655
-0.22279702 -4.2440104 -0.60613382
-0.25062582 -4.2731986 -0.61052316
-0.2762022 -4.2617016 -0.60910726
-0.30031812 -4.2312908 -0.60500109
-0.32612321 -4.2273946 -0.60471791
-0.35320458 -4.2391253 -0.60670018
-0.37938488 -4.2388501 -0.60698336
-0.40180919 -4.1989956 -0.60160285
-0.42636383 -4.1846333 -0.59990376
-0.45383823 -4.1986699 -0.60231084
-0.48352176 -4.2302294 -0.60726655
-0.51100683 -4.2399602 -0.60910726
-0.53664011 -4.233799 -0.60868245
-0.56013137 -4.2117815 -0.60599226
-0.58582741 -4.2072845 -0.60585064
-0.61675781 -4.2388778 -0.61094797
-0.64468461 -4.2477369 -0.61278868
-0.67150813 -4.2485905 -0.6134966
-0.69419599 -4.2238765 -0.61052316
-0.72026652 -4.2205133 -0.61066478
-0.74235737 -4.1945686 -0.60754973
-0.76718903 -4.1850657 -0.6068418
-0.79930496 -4.2143216 -0.61179751
-0.82686102 -4.218081 -0.61307186
-0.85370833 -4.2177792 -0.61377978
-0.87957209 -4.2124615 -0.61377978
-0.90498644 -4.20505 -0.6134966
-0.93055701 -4.1984515 -0.61335504
-0.95828068 -4.2013488 -0.61462939
-0.98268616 -4.1896071 -0.61377978
-1.0102292 -4.1911979 -0.61491257
-1.0423454 -4.210866 -0.61873555
-1.0679196 -4.2034316 -0.61859393
-1.0921943 -4.191052 -0.61774439
-1.114825 -4.1727948 -0.6160453
-1.1377954 -4.1563272 -0.61462939
-1.1675502 -4.1645188 -0.61689484
-1.1936271 -4.1591797 -0.61717802
-1.2160584 -4.1413288 -0.61562049
-1.2371774 -4.1195674 -0.6134966
-1.2618505 -4.1100059 -0.61321342
-1.2840832 -4.0927405 -0.61179751
-1.3112856 -4.0913835 -0.61278868
-1.3437518 -4.1058412 -0.61618686
-1.3664112 -4.0900073 -0.61505413
-1.3787094 -4.0440655 -0.60939044
-1.4021972 -4.0317893 -0.60882407
-1.4265786 -4.0221767 -0.60868245
-1.4482031 -4.0049691 -0.60740817
-1.4713811 -3.9922922 -0.6068418
-1.5010679 -3.9970903 -0.60896569
-1.5202618 -3.9739351 -0.6068418
-1.5406653 -3.9543853 -0.60528427
-1.5488448 -3.9043679 -0.59905422
-1.5772188 -3.9058063 -0.60075331
-1.6064208 -3.9088748 -0.60273558
-1.6311384 -3.9007709 -0.60301876
-1.6476825 -3.8733802 -0.60032851
-1.6749547 -3.8713748 -0.60160285
-1.6946924 -3.8519628 -0.60018694
-1.7041533 -3.8098624 -0.59523124
-1.7381479 -3.8227654 -0.5989126
-1.7690433 -3.8282046 -0.60146129
-1.781563 -3.7939789 -0.59777987
-1.7996956 -3.7722538 -0.59608078
-1.8232393 -3.7620308 -0.59622234
-1.8318657 -3.7214615 -0.59154981
-1.8674979 -3.7358317 -0.59565598
-1.8944168 -3.7322476 -0.59693033
-1.9209083 -3.7275937 -0.59806305
-1.9483315 -3.7245092 -0.59947896
-1.9614021 -3.6941221 -0.59650552
-1.986379 -3.6863754 -0.59721351
-2.0018389 -3.6610882 -0.59508961
-2.014183 -3.6305563 -0.59211618
-2.0412757 -3.6267567 -0.59353209
-2.0703607 -3.6262 -0.59551442
-2.0960431 -3.6194253 -0.59650552
-2.1101928 -3.5928376 -0.59424007
-2.1347306 -3.5840747 -0.59494805
-2.1531003 -3.5649765 -0.59395689
-2.1687319 -3.5415671 -0.5922578
-2.191988 -3.5307164 -0.59268254
-2.2120292 -3.5146866 -0.5922578
-2.2436666 -3.5169058 -0.59494805
-2.2625167 -3.4989159 -0.59424007
-2.2823155 -3.4824834 -0.59381527
-2.3091166 -3.4766607 -0.59523124
-2.3326159 -3.4657121 -0.5957976
-2.3527219 -3.4496982 -0.59551442
-2.3789084 -3.4425278 -0.5967887
-2.3886337 -3.4116459 -0.59395689
-2.4135306 -3.4025779 -0.59494805
-2.4389834 -3.3941364 -0.59608078
-2.4492791 -3.3646998 -0.59353209
-2.4751647 -3.3567796 -0.59480643
-2.5063753 -3.3558068 -0.59735507
-2.5179622 -3.3285213 -0.59523124
-2.544358 -3.3208675 -0.59664714
-2.5695403 -3.3114505 -0.59777987
-2.58553 -3.2901728 -0.5967887
-2.5914946 -3.256429 -0.59353209
-2.6077006 -3.235841 -0.59268254
-2.6481562 -3.2450926 -0.59735507
-2.6818881 -3.245573 -0.60047013
-2.6896846 -3.2146292 -0.59777987
-2.6946437 -3.1806905 -0.59452325
-2.6979992 -3.1453102 -0.59098345
-2.7380157 -3.152616 -0.59551442
-2.7775691 -3.1588054 -0.59990376
-2.7857108 -3.1291318 -0.59749669
-2.8094969 -3.1171281 -0.59848785
-2.8192303 -3.089592 -0.59650552
-2.830075 -3.0635083 -0.59480643
-2.8488193 -3.0460858 -0.59480643
-2.8892317 -3.0515544 -0.5993374
-2.8914638 -3.0166149 -0.59593916
-2.9044049 -2.9931324 -0.59480643
-2.9449112 -2.9978561 -0.5993374
-2.9548752 -2.9713058 -0.59763825
-2.9948204 -2.9747486 -0.60202765
-3.0066581 -2.9500761 -0.60075331
-2.9991162 -2.9067659 -0.59565598
-3.0269048 -2.8978946 -0.59763825
-3.0525396 -2.8867505 -0.59919578
-3.0810444 -2.878104 -0.60131967
-3.1051929 -2.8651876 -0.60259402
-3.1183255 -2.8420789 -0.60174447
-3.1379125 -2.8248789 -0.60216922
-3.132257 -2.785177 -0.59777987
-3.1403632 -2.758065 -0.59608078
-3.1706855 -2.7504222 -0.59862942
-3.198777 -2.7405782 -0.60075331
-3.214777 -2.7202597 -0.60061175
-3.2200153 -2.6909592 -0.59848785
-3.2257786 -2.6623278 -0.59650552
-3.2581656 -2.6556211 -0.59947896
-3.2875068 -2.6461332 -0.60188603
-3.2998071 -2.6228313 -0.60117811
-3.3103878 -2.5982554 -0.60018694
-3.3270504 -2.5785007 -0.60032851
-3.3404512 -2.5562329 -0.59990376
-3.3442268 -2.5267351 -0.59777987
-3.360461 -2.5067596 -0.59792149
-3.3821549 -2.4907901 -0.59905422
-3.3869669 -2.4624219 -0.59721351
-3.412466 -2.4490983 -0.59905422
-3.4379292 -2.4355547 -0.60089493
-3.4560533 -2.4166837 -0.60146129
-3.4626703 -2.3898082 -0.60004532
-3.4739964 -2.366287 -0.59947896
-3.4909148 -2.3465834 -0.59990376
-3.518445 -2.3338766 -0.60216922
-3.5351839 -2.3138707 -0.60259402
-3.5293586 -2.2792437 -0.59919578
-3.5416081 -2.2564809 -0.5989126
-3.5486825 -2.2304924 -0.59777987
-3.5530477 -2.2029364 -0.59622234
-3.5707202 -2.183677 -0.59693033
-3.5882897 -2.1642833 -0.59763825
-3.6142626 -2.1498182 -0.59976214
-3.6401927 -2.1351154 -0.60188603
-3.6343741 -2.1018336 -0.59877104
-3.6497819 -2.0809655 -0.59919578
-3.6719735 -2.0638685 -0.60075331
-3.6715803 -2.0341008 -0.59862942
-3.6787798 -2.008687 -0.59777987
-3.6770887 -1.9785694 -0.59551442
-3.6952815 -1.9592168 -0.59650552
-3.7124977 -1.9392569 -0.59735507
-3.7199261 -1.9141756 -0.59664714
-3.7192404 -1.8850472 -0.59466481
-3.750221 -1.8719201 -0.59777987
-3.7669663 -1.8514948 -0.59862942
-3.7639999 -1.8214449 -0.59636396
-3.7822545 -1.8017219 -0.59749669
-3.758285 -1.7620862 -0.59197456
-3.7735202 -1.7410669 -0.59268254
-3.7976522 -1.7240204 -0.59480643
-3.8343699 -1.7123963 -0.5989126
-3.8375547 -1.6856507 -0.59777987
-3.8178377 -1.6491138 -0.59310734
-3.8552177 -1.6372699 -0.59735507
-3.8542297 -1.6090058 -0.59565598
-3.8640299 -1.5853264 -0.59565598
-3.8902099 -1.5682521 -0.59820467
-3.8923965 -1.5414356 -0.59707189
-3.8980913 -1.5160874 -0.59650552
-3.9073205 -1.4921408 -0.59650552
-3.9136217 -1.4670949 -0.59608078
-3.9364851 -1.4481826 -0.59820467
-3.9527454 -1.4266913 -0.5993374
-3.9539602 -1.3997668 -0.59820467
-3.9652798 -1.3764538 -0.59862942
-3.981148 -1.3546495 -0.59976214
-4.0128613 -1.3380278 -0.603302
-4.0059404 -1.3084602 -0.60103649
-4.0054078 -1.2811401 -0.59976214
-4.0216956 -1.2592026 -0.60103649
-4.0340786 -1.235953 -0.60174447
-4.0567575 -1.2157261 -0.60400993
-4.059391 -1.189419 -0.603302
-4.0704193 -1.1655792 -0.60386837
-4.0660553 -1.1373799 -0.60216922
-4.0758219 -1.1131926 -0.60259402
-4.0902276 -1.0902035 -0.60372674
-4.0882177 -1.0628428 -0.6024524
-4.0965815 -1.0382247 -0.60273558
-4.1115241 -1.015206 -0.60400993
-4.1542492 -0.99875778 -0.60939044
-4.1506605 -0.97099262 -0.60797453
-4.1594362 -0.9461655 -0.60839927
-4.1525979 -0.91784662 -0.60655862
-4.1794448 -0.89692235 -0.60967362
-4.208128 -0.87610674 -0.61307186
-4.2308903 -0.85379696 -0.61562049
-4.2302208 -0.8266806 -0.61477095
-4.2099242 -0.79592383 -0.61108953
-4.2166758 -0.77043343 -0.61137271
-4.2408209 -0.74798763 -0.61420459
-4.2570415 -0.72394568 -0.61590368
-4.269218 -0.69909221 -0.61703646
-4.232358 -0.66641074 -0.61108953
-4.2402825 -0.64102137 -0.61165595
-4.2500138 -0.61584407 -0.6125055
-4.2135105 -0.58417511 -0.60670018
-4.2366428 -0.56091195 -0.60953206
-4.2743793 -0.53924757 -0.61448777
-4.2638469 -0.51135802 -0.6125055
-4.2206769 -0.4799225 -0.60585064
-4.2097626 -0.45253259 -0.60386837
-4.1829138 -0.42369619 -0.59962058
-4.1903625 -0.39849162 -0.60032851
-4.2538619 -0.37821713 -0.60910726
-4.2590623 -0.35235408 -0.60953206
-4.2275853 -0.32364023 -0.60471791
-4.2136917 -0.29657975 -0.6024524
-4.2233353 -0.27122813 -0.60358518
-4.2348022 -0.24588445 -0.60500109
-4.2421632 -0.22020432 -0.60585064
-4.2454119 -0.19426155 -0.60613382
-4.2217956 -0.16722533 -0.60259402
-4.2425294 -0.14198291 -0.60542583
-4.2076969 -0.11496983 -0.60032851
-4.2568188 -0.090184338 -0.60726655
-4.2681799 -0.064228751 -0.60882407
-4.2595844 -0.037957773 -0.60754973
-4.2676563 -0.011843891 -0.60868245
-4.2429013 0.014262678 -0.60514265
-4.2605515 0.040462933 -0.60769135
-4.2542839 0.066512458 -0.6068418
-4.2508268 0.092550799 -0.606417
-4.2481999 0.1185767 -0.60613382
-4.2404666 0.14440611 -0.60514265
-4.2602725 0.17125431 -0.60811609
-4.2621083 0.19752869 -0.60854089
-4.217319 0.2213998 -0.60231084
-4.2227988 0.24767731 -0.603302
-4.2211995 0.27358323 -0.603302
-4.2164793 0.29926908 -0.6028772
-4.2175245 0.32536328 -0.603302
-4.2736535 0.3560763 -0.61165595
-4.2477241 0.3801778 -0.60825771
-4.2167339 0.40350387 -0.60415155
-4.2141781 0.42936966 -0.60415155
-4.2006383 0.45405069 -0.60259402
-4.1899047 0.47891861 -0.60146129
-4.1937671 0.50544649 -0.6024524
-4.1935334 0.53154242 -0.6028772
-4.197062 0.55817598 -0.60386837
-4.1808114 0.58214527 -0.60202765
-4.1703038 0.6067906 -0.60103649
-4.1762891 0.63385165 -0.6024524
-4.1928554 0.66270733 -0.60542583
-4.1721039 0.68569493 -0.60301876
-4.1190257 0.70296222 -0.59593916
-4.1185341 0.72891235 -0.59650552
-4.1305375 0.75720143 -0.5989126
-4.1209507 0.78161013 -0.59820467
-4.1189914 0.8074519 -0.59862942
-4.1061974 0.8311404 -0.59749669
-4.1174941 0.85975724 -0.59990376
-4.0976243 0.88188344 -0.59777987
-4.1182318 0.91278929 -0.60160285
-4.1424737 0.94486099 -0.60599226
-4.1240687 0.96732408 -0.60415155
-4.1180553 0.99261063 -0.60415155
-4.0917072 1.0128677 -0.60117811
-4.0422387 1.0269922 -0.59480643
-4.0617266 1.058512 -0.59862942
-4.0608935 1.0849465 -0.59947896
-4.036973 1.105141 -0.59693033
-4.0253501 1.1285552 -0.59622234
-4.0354776 1.1581459 -0.59877104
-4.0643902 1.1934783 -0.60415155
-4.0048428 1.2027421 -0.59636396
-3.9756212 1.2206135 -0.59310734
-3.9793918 1.2485389 -0.59480643
-4.0367045 1.29377 -0.60457629
-4.0032868 1.3102046 -0.60075331
-3.9735763 1.3275323 -0.59749669
-3.9634817 1.3512501 -0.59721351
-3.9560511 1.3758692 -0.59735507
-3.96153 1.4050786 -0.59947896
-3.9751775 1.4374354 -0.6028772
-3.9579227 1.4587198 -0.60160285
-3.955385 1.485413 -0.60259402
-3.9582164 1.5142511 -0.60443473
-3.9331691 1.5324029 -0.60202765
-3.9080486 1.5503044 -0.59962058
-3.8947906 1.5727724 -0.59905422
-3.9125376 1.6079254 -0.603302
-3.8916376 1.6273209 -0.60160285
-3.8852232 1.6527183 -0.60216922
-3.8786435 1.6780982 -0.60273558
-3.8718984 1.7034596 -0.603302
-3.8902922 1.740115 -0.60783291
-3.8461967 1.7487974 -0.60259402
-3.8425834 1.7756853 -0.60372674
-3.8172779 1.7924994 -0.60146129
-3.8008463 1.8133314 -0.60061175
-3.7762852 1.8301449 -0.59848785
-3.7658727 1.8537183 -0.59862942
-3.75 1.8745779 -0.59792149
-3.7534347 1.9051669 -0.60032851
-3.7249537 1.9195483 -0.59763825
-3.7385449 1.9556711 -0.60174447
-3.7282236 1.9795017 -0.60202765
-3.7160075 2.0023403 -0.60202765
-3.7114689 2.0293767 -0.603302
-3.7223213 2.0650744 -0.60712498
-3.6975017 2.0810797 -0.60514265
-3.687242 2.1052001 -0.60556746
-3.6742554 2.1277847 -0.60556746
-3.6594231 2.1492872 -0.60528427
-3.6538215 2.1762586 -0.60655862
-3.6319249 2.1935205 -0.60514265
-3.619242 2.2162812 -0.60528427
-3.6022105 2.2363586 -0.60471791
-3.5733387 2.2489305 -0.60216922
-3.5511258 2.2654908 -0.60075331
-3.5645928 2.3049717 -0.60542583
-3.5603192 2.3333101 -0.60712498
-3.5508835 2.3583972 -0.60797453
-3.5388095 2.3817985 -0.60839927
-3.5159495 2.397891 -0.60698336
-3.4995413 2.418294 -0.60670018
-3.4870698 2.4414241 -0.60712498
-3.4704089 2.4616292 -0.6068418
-3.471319 2.4944279 -0.60967362
-3.4623516 2.5203404 -0.61080635
-3.4547904 2.5474114 -0.61222231
-3.4390945 2.5685616 -0.61222231
-3.4137945 2.5824497 -0.61052316
-3.4002423 2.6051538 -0.61094797
-3.3818469 2.6241477 -0.61052316
-3.3680172 2.6466837 -0.61094797
-3.3517141 2.6672997 -0.61094797
-3.3198669 2.6753943 -0.60811609
-3.3225651 2.7113581 -0.61165595
-3.3051028 2.7310636 -0.61151433
-3.2693 2.7354138 -0.60797453
-3.2720947 2.7720563 -0.61165595
-3.2730596 2.8075469 -0.61505413
-3.2288611 2.8042135 -0.6099568
-3.2019286 2.8154762 -0.60811609
-3.1971638 2.8462579 -0.61052316
-3.190671 2.8757613 -0.61264706
-3.1707714 2.8932834 -0.61222231
-3.1616857 2.9207439 -0.6139214
-3.1357508 2.932652 -0.61236387
-3.1248868 2.9586422 -0.61377978
-3.1045296 2.9757056 -0.61335504
-3.0883443 2.9967666 -0.61377978
-3.0684857 3.0142725 -0.6134966
-3.0415084 3.0246685 -0.61179751
-3.0291717 3.0495942 -0.61307186
-2.9833598 3.04057 -0.60754973
-2.9736049 3.0680578 -0.60939044
-2.980057 3.112699 -0.61462939
-2.9670243 3.137398 -0.61590368
-2.947042 3.1548209 -0.61576211
-2.9101722 3.1539309 -0.61208069
-2.8934329 3.174654 -0.61264706
-2.8831732 3.202647 -0.61462939
-2.8654416 3.2224965 -0.61505413
-2.8534551 3.2489421 -0.61675322
-2.8185441 3.2491925 -0.6134966
-2.8198125 3.2912304 -0.61816919
-2.8097978 3.3205597 -0.62043464
-2.7696879 3.3141935 -0.6160453
-2.7587538 3.3425763 -0.61816919
-2.7431965 3.3655787 -0.61930192
-2.7138028 3.3715522 -0.61731964
-2.6979928 3.3943393 -0.61845237
-2.697288 3.4365244 -0.6231249
-2.6743314 3.4506629 -0.62270015
-2.6458879 3.4575746 -0.62100101
-2.6347697 3.4871697 -0.62340808
-2.612139 3.5016842 -0.6231249
-2.5800354 3.5032997 -0.62057626
-2.5515044 3.5094576 -0.61887711
-2.539737 3.5387177 -0.62128419
-2.5030944 3.5332351 -0.61760283
-2.4756937 3.5404155 -0.61618686
-2.4854188 3.6011593 -0.62411606
-2.4604888 3.6122515 -0.62340808
-2.4520874 3.6478179 -0.62694788
-2.4198067 3.6479473 -0.62439924
-2.4011736 3.6685238 -0.62539041
-2.3834531 3.6906714 -0.6266647
-2.3586347 3.7018876 -0.62609833
-2.3443067 3.7296989 -0.62836385
-2.3192904 3.7406478 -0.62779742
-2.2838964 3.7345419 -0.62439924
-2.2721894 3.7671325 -0.62751424
-2.2667487 3.8107784 -0.63247001
-2.2403176 3.8194923 -0.63162047
-2.2178309 3.8348806 -0.63190365
-2.1962209 3.8518562 -0.63247001
-2.1696339 3.8600821 -0.63162047
-2.1468678 3.8750539 -0.63190365
-2.1292193 3.8994479 -0.63374436
-2.0925844 3.8889041 -0.62992132
-2.0761046 3.9156632 -0.63218683
-2.0589163 3.9414887 -0.63431072
-2.03424 3.9531677 -0.6341691
-2.0086026 3.9629264 -0.63374436
-1.9882288 3.9831469 -0.63501865
-1.9650618 3.9979367 -0.63544345
-1.9353179 3.9992268 -0.63374436
-1.9120202 4.0137072 -0.6341691
-1.8835733 4.0172973 -0.63289475
-1.8700894 4.0530467 -0.6367178
-1.8566468 4.0896826 -0.64068234
-1.8278837 4.0928631 -0.63940805
-1.8071167 4.1139712 -0.64096552
-1.7739862 4.1068072 -0.6381337
-1.7479798 4.1157928 -0.63785052
-1.7196407 4.119133 -0.6367178
-1.7101212 4.1680703 -0.64266467
-1.6889573 4.1895018 -0.64436376
-1.659573 4.1905828 -0.64294785
-1.6280854 4.185926 -0.64068234
-1.6013105 4.1930628 -0.6402576
-1.5825045 4.2213469 -0.64308941
-1.5647793 4.2532735 -0.64648765
-1.5376437 4.2600017 -0.64606285
-1.5151112 4.2796206 -0.64762038
-1.4923959 4.2991228 -0.64917791
-1.4714123 4.3241301 -0.65158498
-1.4464185 4.3377724 -0.65229291
-1.4179302 4.34092 -0.65144336
-1.390363 4.3467102 -0.65101862
-1.3547881 4.3268199 -0.64677083
-1.3319854 4.3473549 -0.64861155
-1.3146678 4.3867373 -0.65328407
-1.2891191 4.3994708 -0.65399206
-1.2642814 4.4149113 -0.65512478
-1.2342333 4.4120994 -0.65356725
-1.2029625 4.4043107 -0.6513018
-1.1641811 4.3676105 -0.64478856
-1.1533102 4.435986 -0.65385044
-1.13264 4.4688873 -0.65767342
-1.1006867 4.4574933 -0.65498316
-1.0733153 4.4641628 -0.65498316
-1.0443239 4.4639177 -0.65399206
-1.0213085 4.4895463 -0.65682387
-1.000797 4.5276246 -0.66149646
-0.97653085 4.5501342 -0.66390347
-0.94596845 4.5434418 -0.66206282
-0.91630894 4.5404272 -0.66078848
-0.89033222 4.5556798 -0.66220438
-0.86383462 4.5688381 -0.66333711
-0.83738714 4.5828166 -0.66461146
-0.80890751 4.5859184 -0.66432828
-0.78091979 4.5917716 -0.6644699
-0.75321084 4.5994072 -0.66489464
-0.72651643 4.6137214 -0.66631055
-0.70056325 4.6337528 -0.66857606
-0.67552847 4.6614761 -0.67197424
-0.64677733 4.6645522 -0.67183268
-0.6208756 4.6890416 -0.67480612
-0.58589 4.6436567 -0.66772652
-0.55703199 4.6442156 -0.66730171
-0.53177279 4.6760697 -0.67140788
-0.50413042 4.6890869 -0.67282385
-0.47514942 4.6901221 -0.67254066
-0.44861516 4.7166004 -0.67593884
-0.42159817 4.7409568 -0.6790539
-0.39585257 4.7839026 -0.68485916
-0.36709732 4.794138 -0.68599188
-0.33781344 4.798275 -0.68627512
-0.30855617 4.8032212 -0.68669987
-0.28011391 4.8228126 -0.68924856
-0.25036201 4.821475 -0.68882376
-0.21981993 4.8021536 -0.68585032
-0.19101892 4.8202276 -0.6882574
-0.16173831 4.8302131 -0.68953174
-0.13234231 4.8400207 -0.69080603
-0.1030643 4.8605356 -0.69363791
-0.073449254 4.8749337 -0.69562018
-0.043499969 4.8713326 -0.69505382
-0.013617894 4.8744779 -0.69547862
0.016441064 4.9209962 -0.70213342
0.046968568 4.9564385 -0.70723075
0.076981299 4.9303217 -0.70354939
0.10693213 4.9159007 -0.70156705
0.13668141 4.9003091 -0.69944316
0.16688074 4.9033356 -0.70000958
0.19839001 4.9378281 -0.70510685
0.22914107 4.9464064 -0.70652282
0.26010832 4.9567709 -0.70822191
0.2897082 4.9412456 -0.70623964
0.32110757 4.9561687 -0.70864671
0.35312054 4.9768167 -0.71190333
0.38501897 4.9923224 -0.71445197
0.41646454 4.9997311 -0.71586788
0.44669396 4.9921517 -0.71515995
0.47891736 5.0060692 -0.71756703
0.51012594 5.0079603 -0.71827495
0.53914487 4.9889889 -0.7160095
0.56952202 4.9836197 -0.71572632
0.60292953 5.0036192 -0.7191245
0.63598216 5.0184855 -0.72181475
0.67080414 5.0449095 -0.72620416
0.70351934 5.0534444 -0.72804487
0.73565251 5.0568695 -0.72917759
0.76844782 5.0640049 -0.73087668
0.80182153 5.0738621 -0.73300058
0.83358061 5.0727544 -0.73356694
0.86835128 5.0890121 -0.736682
0.89921582 5.0816388 -0.73639882
0.93091428 5.0789466 -0.73682356
0.9644568 5.085783 -0.73866427
0.99735689 5.0885129 -0.73993862
1.0311118 5.0949111 -0.74177933
1.0645784 5.0991478 -0.7433368
1.0989681 5.1070366 -0.74546069
1.1294273 5.0963316 -0.74489433
1.1617765 5.0941315 -0.74560231
1.2049851 5.1379886 -0.75310671
1.2364885 5.1304979 -0.75310671
1.2750771 5.1516433 -0.75735444
1.3108045 5.1600337 -0.75976151
1.3416927 5.1490197 -0.75933677
1.371729 5.1349521 -0.75848722
1.408174 5.1445804 -0.76117748
1.4487951 5.1682525 -0.76599157
1.4812986 5.1621199 -0.76641637
1.5162899 5.1643319 -0.76811546
1.5556331 5.1805305 -0.7719385
1.5882621 5.173727 -0.77236325
1.6184965 5.1591616 -0.77165526
1.6483102 5.143477 -0.77080572
1.6853789 5.1502018 -0.77335441
1.7235326 5.159482 -0.77632785
1.7599474 5.1628647 -0.77845174
1.7915932 5.1519685 -0.77845174
1.8287944 5.1567402 -0.78085881
1.8573726 5.137043 -0.77958447
1.89228 5.1348386 -0.78100038
1.9300131 5.1398129 -0.78354907
1.9604534 5.1251001 -0.78312427
1.9764165 5.0733094 -0.77703577
2.0115223 5.0712094 -0.7785933
2.0566807 5.0936542 -0.78397381
2.0867677 5.0781918 -0.78354907
2.1217053 5.0744257 -0.78496498
2.1473782 5.0485573 -0.78298271
2.1818516 5.0434637 -0.78425699
2.2147493 5.034512 -0.78496498
2.2451947 5.0199242 -0.78482336
2.2796407 5.014164 -0.78609771
2.3141 5.0081701 -0.78737205
2.3410003 4.9858122 -0.78609771
2.3796451 4.9883308 -0.78878796
2.4270403 5.0083804 -0.79431009
2.4555402 4.9889526 -0.79360211
2.4865479 4.9746776 -0.79374367
2.5259838 4.9769826 -0.79657555
2.5610075 4.97019 -0.79799145
2.5942082 4.9596457 -0.798841
2.6250553 4.944509 -0.79898262
2.6553447 4.928309 -0.79898262
2.6940804 4.9275584 -0.80153126
2.734827 4.9299808 -0.80464631
2.7679379 4.9182839 -0.80549586
2.8010082 4.9063663 -0.8063454
2.8256044 4.8796635 -0.80478787
2.8504803 4.8536973 -0.80337197
2.8837535 4.8420696 -0.80436313
2.9297824 4.8514023 -0.8088941
2.9724157 4.8544416 -0.8124339
3.0073662 4.844523 -0.81384981
3.037035 4.8259788 -0.81384981
3.0729768 4.8172688 -0.8155489
3.118062 4.8224316 -0.81965512
3.1600704 4.8222542 -0.82291174
3.1912427 4.8052473 -0.82333648
3.2317193 4.8020024 -0.82616836
3.2683723 4.7927151 -0.82800907
3.2926545 4.7652407 -0.82673472
3.3223989 4.7457585 -0.82687628
3.3526011 4.7268982 -0.82715952
3.3971355 4.7279453 -0.83098251
3.4423909 4.729424 -0.83494705
3.4842677 4.7257433 -0.83806211
3.5203054 4.7137938 -0.8397612
3.5503566 4.6936841 -0.84004438
3.5760803 4.6678815 -0.83933645
3.6010137 4.6411581 -0.83848691
3.6385968 4.6306524 -0.84061074
3.6860468 4.6322541 -0.84500015
3.7249582 4.6226544 -0.84740722
3.7463686 4.5912743 -0.84584969
3.7921226 4.58957 -0.8498143
3.8291039 4.5768461 -0.85179657
3.8699102 4.5683732 -0.85462844
3.9017348 4.5490508 -0.85547799
3.917243 4.5108218 -0.85278773
3.9383116 4.4792662 -0.85137177
3.9749353 4.4653697 -0.8533541
4.0254521 4.4666357 -0.85830981
4.0581203 4.4477024 -0.85944253
4.0886927 4.4263549 -0.86015052
4.1245642 4.4105844 -0.86199123
4.1712837 4.4060426 -0.86609739
4.2044039 4.3867979 -0.86737174
4.22366 4.3531017 -0.86581421
4.2523713 4.3292227 -0.86623901
4.2837405 4.3079634 -0.86723012
4.3269467 4.2983432 -0.87062836
4.3631301 4.2814202 -0.87261063
4.3751035 4.240787 -0.86977881
4.419631 4.2316637 -0.87346017
4.4483891 4.2071872 -0.8740266
4.4770136 4.1825166 -0.87459296
4.5236883 4.1744385 -0.87869912
4.5558004 4.1526051 -0.87997347
4.5892868 4.1318598 -0.88153094
4.6234293 4.1115179 -0.88323009
4.6344395 4.0706577 -0.88053983
4.6526003 4.0363054 -0.87926549
4.6787825 4.0089703 -0.87954867
4.710093 3.9859424 -0.88082302
4.7458544 3.96649 -0.88294691
4.7800269 3.9454887 -0.88478756
4.8072147 3.9185867 -0.88535398
4.8373365 3.8939831 -0.88648671
4.8626885 3.8654606 -0.88676989
4.8933225 3.8410528 -0.88804424
4.928534 3.8200533 -0.89016807
4.9526668 3.7903423 -0.89030969
4.9750409 3.7592852 -0.89016807
5.0194354 3.7446725 -0.89399111
5.0447087 3.715565 -0.89441586
5.061007 3.6798835 -0.89328313
5.087512 3.6516469 -0.89399111
5.1259761 3.6318092 -0.89682293
5.1635756 3.611069 -0.89951319
5.2092605 3.595628 -0.90361935
5.2099547 3.5491045 -0.89993799
5.2480631 3.5281174 -0.9027698
5.2861094 3.5067961 -0.90560168
5.2942762 3.4656191 -0.90333617
5.3004742 3.4233997 -0.90078753
5.3263888 3.3940046 -0.90163708
5.3630362 3.3712702 -0.90432733
5.3979225 3.3471694 -0.90673441
5.4360919 3.3248341 -0.90970784
5.4784279 3.3047125 -0.91338927
5.5113626 3.2786281 -0.91551316
5.5160079 3.2357321 -0.91296446
5.5297599 3.1983554 -0.9119733
5.5561595 3.1682892 -0.91310608
5.5849872 3.1394744 -0.91466355
5.6110725 3.1089852 -0.91579634
5.6309118 3.0749722 -0.9159379
5.6566467 3.0441175 -0.91707063
5.6769676 3.0102792 -0.91735381
5.703228 2.9795156 -0.91862816
5.739006 2.9535265 -0.92146003
5.7632003 2.9213908 -0.92245114
5.7615328 2.8762441 -0.91933614
5.7826262 2.8425851 -0.9199025
5.8008504 2.8074815 -0.92004406
5.8269038 2.7760937 -0.92146003
5.849205 2.7428105 -0.92230958
5.8910909 2.7184851 -0.92627412
5.8851275 2.6720533 -0.92273432
5.8987007 2.6346812 -0.92230958
5.9410381 2.609987 -0.92641574
5.9442186 2.5679867 -0.92443347
5.9543967 2.5291429 -0.92358392
5.9871593 2.4998081 -0.92627412
5.9987216 2.4615211 -0.92570776
6.0017776 2.4198539 -0.92386711
6.0459628 2.39465 -0.92839801
6.0586972 2.3567896 -0.92811483
6.0758185 2.3206298 -0.92853963
6.0936508 2.2846959 -0.929106
6.0964065 2.24316 -0.92740691
6.0877099 2.1976416 -0.92400867
6.1122775 2.1642127 -0.92570776
6.1506901 2.1354365 -0.9295308
6.1693001 2.0995705 -0.93038034
6.1905179 2.0644963 -0.93165463
6.1720176 2.0163257 -0.9269821
6.1748447 1.9753996 -0.9255662
6.1896834 1.9383621 -0.92599094
6.2005143 1.9000564 -0.92584938
6.2186933 1.8639653 -0.92684054
6.2499623 1.8316213 -0.92981398
6.2915354 1.8019627 -0.93434489
6.2815013 1.7574548 -0.93122989
6.2921662 1.7188792 -0.93122989
6.3112035 1.6825346 -0.93250424
6.3386531 1.6482641 -0.93505287
6.3515263 1.6100699 -0.93547767
6.3247666 1.5620444 -0.93009716
6.3332696 1.5229754 -0.92995554
6.337676 1.4829583 -0.92924762
6.3485866 1.4444826 -0.9295308
6.3737617 1.4091356 -0.93193787
6.383256 1.3702084 -0.93207943
6.3692536 1.3263717 -0.92882282
6.3704796 1.2858939 -0.92783165
6.4005947 1.2511513 -0.93108827
6.4227414 1.214615 -0.93321216
6.4222827 1.1737584 -0.93207943
6.434238 1.1351904 -0.93278742
6.4401069 1.0955232 -0.9326458
6.4340076 1.0539052 -0.93080509
6.4305749 1.012866 -0.92938918
6.423945 0.97146416 -0.92754847
6.4288049 0.93188721 -0.92740691
6.4461675 0.89405632 -0.929106
6.4348497 0.85227531 -0.92669892
2.4004905 0.30256191 -0.34432954
2.3354669 0.2798017 -0.33470127
2.3332055 0.26501831 -0.33413491
2.3357718 0.25080299 -0.3342765
2.3382516 0.23656616 -0.33441809
2.3426156 0.22249605 -0.33484286
2.3468947 0.2083813 -0.33526763
2.3579946 0.19479473 -0.33668354
2.3571715 0.18017127 -0.33640036
2.3473704 0.16493838 -0.33484286
6.1931686 0.398029 -0.88592035
6.2083416 0.36076882 -0.88776106
6.2341652 0.32390347 -0.89115924
6.2083459 0.28437415 -0.88719463
6.1981044 0.24580316 -0.88549554
6.2074108 0.20803377 -0.88662827
2.4561906 0.066848889 -0.34971005
2.458534 0.051818959 -0.34999323
2.4459381 0.036537163 -0.34815255
2.4441364 0.021510543 -0.34786937
2.4636731 -0.0055657402 -0.39310858
2.4665546 -0.02070762 -0.39358357
2.4663811 -0.035841722 -0.39358357
2.4898067 -0.051466621 -0.39738348
5.1702147 -0.13888727 -0.82740885
5.1307778 -0.16933636 -0.82123399
5.1710811 -0.20243932 -0.82788384
5.162837 -0.23385158 -0.82677555
5.1327085 -0.2640532 -0.82218397
5.1152196 -0.2946327 -0.81965065
5.1083879 -0.32569918 -0.81885898
5.0668945 -0.35428074 -0.81252581
5.0311508 -0.38281524 -0.80714256
5.0306754 -0.41384062 -0.80745924
5.0221405 -0.44417822 -0.80650926
4.9908137 -0.47228605 -0.80191767
4.9838924 -0.50250381 -0.80128431
4.9512625 -0.52992117 -0.79653442
4.9459553 -0.56006926 -0.79621774
4.9287 -0.58876616 -0.7940011
4.9240146 -0.61887383 -0.79384279
4.8927155 -0.64545804 -0.78940958
4.87497 -0.67357433 -0.78719294
4.8570638 -0.7014972 -0.7849763
4.828259 -0.72760677 -0.78101802
4.7983422 -0.75323617 -0.77690142
4.8014259 -0.78393734 -0.77816808
4.7965255 -0.81338358 -0.77816808
4.6815577 -0.82346463 -0.76027673
2.5665796 -0.46758711 -0.41638315
2.5656028 -0.48369259 -0.4166998
2.5558026 -0.4981029 -0.41559148
2.5468905 -0.51260614 -0.4146415
2.5417638 -0.5278222 -0.41432485
2.5433047 -0.54444218 -0.41511649
2.5437729 -0.56088811 -0.41574982
2.5518382 -0.57910919 -0.41764978
2.5482368 -0.59475607 -0.41764978
4.5444818 -1.0903282 -0.74745202
4.5434585 -1.1196098 -0.748402
4.5116153 -1.1411704 -0.7442854
2.6121984 -0.67770159 -0.4307912
2.5860445 -0.68787718 -0.42714959
2.5741541 -0.70165384 -0.42588297
2.5612416 -0.71504503 -0.424458
2.5501606 -0.72884709 -0.42334968
2.5399544 -0.74281728 -0.4223997
2.5353489 -0.75838828 -0.4223997
2.5457547 -0.77855223 -0.42493299
2.551296 -0.7973991 -0.4266746
2.5030887 -0.79921925 -0.41939142
4.200964 -1.3699812 -0.70660275
4.1737423 -1.3894932 -0.70343614
4.1604638 -1.4134883 -0.70264447
4.1386514 -1.434462 -0.70042789
4.0878806 -1.4450184 -0.69330299
4.0547862 -1.4613683 -0.68918639
4.0272069 -1.4794099 -0.68601978
4.0041833 -1.4988995 -0.68364483
3.9801497 -1.5178103 -0.68111157
3.9799654 -1.5457789 -0.68269485
3.9511242 -1.5625439 -0.67936993
3.9222279 -1.5790133 -0.676045
3.8439422 -1.5749691 -0.66417021
2.5392046 -1.0585318 -0.4391827
2.5362976 -1.0756345 -0.43981603
2.5169575 -1.0857003 -0.43759942
2.5292363 -1.1094548 -0.44092435
3.7893126 -1.6901288 -0.66337854
2.4857559 -1.1269519 -0.43569943
2.4850714 -1.145076 -0.43680775
2.4449141 -1.1448073 -0.43094954
2.4244699 -1.1534235 -0.42857456
3.2707553 -1.5808203 -0.58057177
3.6554036 -1.7945138 -0.65102881
3.6257675 -1.8076564 -0.64770383
3.5987515 -1.8218411 -0.64485389
3.5787237 -1.8393743 -0.64327061
3.5139725 -1.8334336 -0.63361245
3.4965489 -1.8517252 -0.63250411
3.4946878 -1.8782873 -0.63424575
3.4709616 -1.8930753 -0.63202912
3.4670558 -1.9186404 -0.63345408
3.4655492 -1.9456789 -0.6353541
3.3952043 -1.9336745 -0.6245876
3.3388183 -1.9287846 -0.61635441
3.3448105 -1.959718 -0.61967939
3.3471527 -1.9887795 -0.62237096
3.31459 -1.9970491 -0.61857104
3.2795246 -2.0034499 -0.61429614
3.2705276 -2.0256147 -0.61492944
3.2663989 -2.0508952 -0.61651278
3.2554193 -2.0719595 -0.6168294
3.2210732 -2.0779769 -0.6127128
3.1909084 -2.0863535 -0.60938787
3.16817 -2.0993478 -0.60748792
3.132278 -2.1033337 -0.60305464
3.1176803 -2.1214025 -0.60273802
3.1200495 -2.1511419 -0.60574627
3.1003165 -2.1657217 -0.60447967
3.0805218 -2.1801407 -0.60321301
3.0518413 -2.1880691 -0.60020471
3.0247772 -2.1968887 -0.59751308
2.9730666 -2.1873178 -0.58991325
2.9643395 -2.2090595 -0.59086323
2.9767349 -2.2468386 -0.59608811
2.9472046 -2.2530665 -0.59292156
2.9270792 -2.2662716 -0.5916549
2.903018 -2.2762682 -0.58959657
2.8688927 -2.2780724 -0.58547997
2.8725576 -2.3098648 -0.58912158
2.8575649 -2.3268237 -0.58896327
2.8264749 -2.3304932 -0.58547997
2.8098483 -2.3458939 -0.58500499
2.7984173 -2.3656404 -0.58563834
2.7590966 -2.3615773 -0.5804134
2.7191856 -2.3564746 -0.57503021
2.7232292 -2.3893962 -0.57898843
2.7173746 -2.4139304 -0.58088839
2.702512 -2.4305584 -0.58088839
2.659076 -2.4211671 -0.57471353
2.604243 -2.4006271 -0.56600535
2.5909076 -2.4179087 -0.56632203
2.5731521 -2.4310479 -0.56568867
2.5646086 -2.4529335 -0.5671137
2.5488 -2.4679368 -0.56695533
2.5300837 -2.4800732 -0.56616372
2.516921 -2.4976375 -0.56663871
2.5036383 -2.5151334 -0.5671137
2.4909272 -2.5332646 -0.567747
2.4829035 -2.5562925 -0.56948864
2.4658046 -2.5700543 -0.56917197
2.4452345 -2.5801187 -0.56806368
2.4259834 -2.5914695 -0.56727201
2.4153993 -2.6121063 -0.56853867
2.4106457 -2.6392725 -0.57123029
2.3970516 -2.6569467 -0.57186359
2.37939 -2.6701303 -0.57154691
2.3688323 -2.6913507 -0.57297188
2.3606946 -2.7155228 -0.57503021
2.3484902 -2.7352009 -0.5761385
2.3316631 -2.7495594 -0.5761385
2.316016 -2.7653284 -0.57645518
2.2983754 -2.7787263 -0.57629681
2.2844052 -2.7966003 -0.57708848
2.2672026 -2.8105645 -0.57708848
2.2523751 -2.8275123 -0.57772183
2.241698 -2.8498163 -0.57946342
2.2265921 -2.866637 -0.58009678
2.2113643 -2.8833792 -0.58073008
2.1942265 -2.897681 -0.58088839
2.1852729 -2.9229527 -0.5832634
2.171401 -2.9418676 -0.58437169
2.1573794 -2.960722 -0.58547997
2.1414783 -2.9771099 -0.58611333
2.1248853 -2.992609 -0.58658832
2.1081829 -3.0080166 -0.58706331
2.1009197 -3.037137 -0.59022993
2.0805748 -3.0475245 -0.58975494
2.0634911 -3.06269 -0.59022993
2.053406 -3.08845 -0.59276319
2.0376663 -3.1059451 -0.59371316
2.0201797 -3.1208761 -0.59418815
2.007369 -3.1431992 -0.59608811
1.9796245 -3.1420901 -0.59355485
1.9738575 -3.1759827 -0.59767145
1.9589769 -3.1956108 -0.59909642
1.9383104 -3.2058809 -0.59877974
1.921131 -3.2219541 -0.59957141
1.9093318 -3.2473006 -0.60210466
1.8873901 -3.2555377 -0.60147136
1.8654193 -3.2636282 -0.60083807
1.8526287 -3.2879169 -0.60321301
1.8338577 -3.3018119 -0.603688
1.7993418 -3.2870178 -0.59893811
1.7721082 -3.284961 -0.5965631
1.7630401 -3.3166981 -0.60036308
1.7463202 -3.3344512 -0.60162967
1.7262803 -3.3459811 -0.60178804
1.707059 -3.3591514 -0.60226303
1.687741 -3.3722115 -0.60273802
1.6635263 -3.3754182 -0.60147136
1.637181 -3.3740132 -0.5994131
1.6198518 -3.3911231 -0.6006797
1.6040546 -3.4117215 -0.60257965
1.587236 -3.4304609 -0.60416299
1.5767926 -3.463501 -0.60827959
1.5534937 -3.4686048 -0.60748792
1.5293955 -3.4717464 -0.60637963
1.5037476 -3.4710987 -0.60463798
1.4696541 -3.4502819 -0.5994131
1.4530313 -3.4701638 -0.60131305
1.4309602 -3.4771879 -0.60099638
1.4366143 -3.5527272 -0.61255449
1.4049474 -3.5366986 -0.60827959
1.3875262 -3.5562911 -0.61017954
1.3808657 -3.6043863 -0.61698776
1.3587236 -3.6127915 -0.61698776
1.3358467 -3.6192076 -0.61667109
1.3079 -3.6115532 -0.61397946
1.2893502 -3.6297452 -0.61572111
1.2709509 -3.648778 -0.61762106
1.2418395 -3.6368845 -0.61429614
1.2301515 -3.6762724 -0.61967939
1.1946558 -3.6443436 -0.61302948
1.1731774 -3.6544259 -0.61350447
1.1471803 -3.6502516 -0.61160451
1.1238906 -3.6543906 -0.61112952
1.1000247 -3.6564901 -0.61033785
1.0739466 -3.6508563 -0.60827959
1.0487975 -3.6478875 -0.60669625
1.0314665 -3.6723161 -0.60970455
1.0190971 -3.715713 -0.61587942
0.99270529 -3.7085428 -0.61366278
0.96668923 -3.7021441 -0.61160451
0.93616217 -3.6773858 -0.60653794
0.91191691 -3.6763523 -0.60542965
0.89003742 -3.6847579 -0.60590464
0.86086106 -3.6622746 -0.60131305
0.86059076 -3.7647076 -0.61730438
0.80622172 -3.6291873 -0.59418815
0.79101515 -3.6668825 -0.59957141
0.7812404 -3.732554 -0.60954624
0.75694919 -3.7305036 -0.6084379
0.73670977 -3.748642 -0.61065453
0.70502818 -3.7075009 -0.60321301
0.6842289 -3.7224395 -0.60495466
0.65792602 -3.7071238 -0.60178804
0.64249349 -3.7539139 -0.60875458
0.61800301 -3.7490172 -0.60732961
0.60086083 -3.7897968 -0.61334616
0.57343596 -3.7660801 -0.60891289
0.5504595 -3.770505 -0.60907125
0.52458221 -3.7542536 -0.60590464
0.50049216 -3.749572 -0.60463798
0.47784942 -3.755511 -0.60511297
0.45657533 -3.7730758 -0.60748792
0.43566629 -3.7954254 -0.61065453
0.41173071 -3.7921376 -0.60970455
0.38574165 -3.7680714 -0.60542965
0.36733693 -3.81951 -0.61334616
0.34681204 -3.8541448 -0.61857104
0.3192845 -3.8099551 -0.61112952
0.29582471 -3.8108578 -0.61097121
0.27032685 -3.7830553 -0.60622126
0.24608108 -3.7688777 -0.603688
0.2233586 -3.7772164 -0.60479629
0.20195162 -3.8120401 -0.61017954
0.17846535 -3.8112352 -0.60986286
0.15659924 -3.8497481 -0.61587942
0.13290666 -3.8486626 -0.6155628
0.1079193 -3.8010433 -0.6078046
0.085251518 -3.831248 -0.61255449
0.061520014 -3.8178775 -0.61033785
0.03810259 -3.8191705 -0.61049622
0.014619433 -3.8064964 -0.6084379
-0.0086671095 -3.7768929 -0.603688
-0.031925429 -3.7866426 -0.60527128
-0.05521702 -3.7903244 -0.60590464
-0.079067647 -3.8185418 -0.61049622
-0.10138065 -3.7765298 -0.60384631
-0.12484466 -3.784718 -0.60527128
-0.14876103 -3.8016405 -0.60812122
-0.1714585 -3.7868469 -0.60590464
-0.19514792 -3.7945981 -0.60732961
-0.21797283 -3.7854433 -0.60606295
-0.23880655 -3.7465899 -0.6000464
-0.26537451 -3.796273 -0.60827959
-0.28738865 -3.7778361 -0.60558796
-0.31388468 -3.8163481 -0.6120795
-0.33538061 -3.7927125 -0.60859627
-0.35827363 -3.7866511 -0.60796291
-0.3848708 -3.8177834 -0.61334616
-0.4100762 -3.8320401 -0.61603779
-0.43302569 -3.8245461 -0.61524612
-0.45296949 -3.7924049 -0.61049622
-0.48128113 -3.8297207 -0.61698776
-0.50192863 -3.8051596 -0.61350447
-0.52499682 -3.8000522 -0.61318779
-0.55493963 -3.8426895 -0.62062937
-0.57865465 -3.8401885 -0.62078768
-0.60174721 -3.8336394 -0.62031269
-0.62923759 -3.8542368 -0.62427092
-0.65122354 -3.8405683 -0.62268764
-0.67255223 -3.8238585 -0.62062937
-0.6940546 -3.8089745 -0.61888772
-0.71722996 -3.803674 -0.61872935
-0.74773633 -3.8360286 -0.62474597
-0.76716644 -3.8110414 -0.62142098
-0.78973269 -3.8023953 -0.62078768
-0.82173365 -3.8380287 -0.62743753
-0.84058845 -3.8117018 -0.6239543
-0.85609078 -3.7718086 -0.61825436
-0.87989157 -3.7693694 -0.61872935
-0.90092975 -3.7552583 -0.61730438
-0.92631757 -3.7592466 -0.61888772
-0.94839776 -3.7496631 -0.61825436
-0.96469021 -3.7179689 -0.61397946
-0.99561006 -3.7425134 -0.61904603
-1.0237499 -3.7553861 -0.62221265
-1.0486325 -3.7556908 -0.62332094
-1.0711144 -3.7472873 -0.62300432
-1.0832745 -3.7036855 -0.6168294
-1.097771 -3.6695366 -0.61223781
-1.1165111 -3.6504571 -0.61017954
-1.145371 -3.6642704 -0.61366278
-1.180751 -3.6976182 -0.620471
-1.1899449 -3.6490004 -0.61350447
-1.2104406 -3.6360092 -0.61255449
-1.2305042 -3.6219697 -0.6114462
-1.256586 -3.6255462 -0.61334616
-1.2870364 -3.6410406 -0.61730438
-1.2929462 -3.5875599 -0.60954624
-1.316978 -3.58512 -0.61049622
-1.3299496 -3.5529292 -0.60637963
-1.3496137 -3.5391667 -0.60542965
-1.3655837 -3.5160928 -0.60289633
-1.3867692 -3.5067294 -0.60273802
-1.4112104 -3.5054817 -0.60400468
-1.4341906 -3.5004115 -0.60463798
-1.4678022 -3.5207081 -0.60970455
-1.4785805 -3.4861839 -0.60527128
-1.4932936 -3.4616337 -0.60257965
-1.5156959 -3.4551184 -0.60305464
-1.5312359 -3.4331291 -0.60083807
-1.5571659 -3.4344597 -0.60273802
-1.5819297 -3.4329112 -0.60416299
-1.6017075 -3.4204574 -0.603688
-1.6209677 -3.4069989 -0.60305464
-1.6280907 -3.3685417 -0.59798813
-1.6552567 -3.3717833 -0.60036308
-1.682083 -3.373934 -0.60257965
-1.7058755 -3.3697159 -0.603688
-1.7287767 -3.3635762 -0.60447967
-1.7457284 -3.3459022 -0.60321301
-1.7717714 -3.3455982 -0.60511297
-1.8016164 -3.3520577 -0.60827959
-1.8207319 -3.3383398 -0.6078046
-1.8249243 -3.2977328 -0.60242134
-1.837873 -3.2735591 -0.6000464
-1.8574359 -3.2613626 -0.59988809
-1.882352 -3.2584534 -0.60147136
-1.8893309 -3.2246928 -0.59735477
-1.8929402 -3.1858771 -0.5922882
-1.9277412 -3.1995735 -0.59703809
-1.9658699 -3.2180173 -0.60273802
-1.9803786 -3.1975005 -0.60115469
-2.0046866 -3.1928146 -0.60257965
