# .PCD v0.7 - Point Cloud Data file format
VERSION 0.7
FIELDS x y z
SIZE 4 4 4
TYPE F F F
COUNT 1 1 1
WIDTH 1505
HEIGHT 1
VIEWPOINT 0 0 0 1 0 0 0
POINTS 1505
DATA ascii
-49.25098 11.001068 2.9355786
-49.126122 11.290091 2.9322097
-48.956821 11.567893 2.9262848
-48.85194 11.860062 2.9243097
-48.710438 12.142684 2.9202437
-48.59343 12.430698 2.9177461
-51.459324 14.177966 3.1050177
-17.142181 5.7581449 1.0514768
-17.276514 5.921484 1.0619324
-60.891197 22.131523 3.7690074
-65.493797 28.942747 4.1655655
-64.181244 28.834707 4.0932474
-41.426693 25.461647 2.8285828
-34.048279 21.506769 2.3425128
-30.081888 19.260586 2.0776374
-28.510212 18.5019 1.9768568
-28.393648 18.674841 1.9766825
-28.283512 18.852032 1.9770311
-28.183851 19.036396 1.9781928
-28.084641 19.221376 1.9794707
-27.976835 19.400734 1.9802259
-17.310064 12.161653 1.2302098
-16.246124 11.563675 1.1595763
-15.3222 11.0483 1.098411
-15.258957 11.14564 1.0987595
-15.199109 11.245589 1.0993984
-15.152189 11.355402 1.1010249
-15.09018 11.454195 1.1016058
-14.996663 11.528926 1.0999212
-14.972902 11.657525 1.1034064
-14.912067 11.757832 1.1042197
-14.860704 11.865928 1.105788
-14.775972 11.947473 1.1049167
-14.677669 12.017673 1.1030579
-14.65745 12.152109 1.107124
-14.600195 12.25658 1.1084599
-14.560467 12.376324 1.1111901
-14.50544 12.483666 1.1128165
-14.436848 12.579649 1.1134554
-14.380349 12.686487 1.1150819
-14.308192 12.779805 1.1155466
-14.242836 12.879411 1.116592
-14.185631 12.986785 1.1183348
-14.114465 13.081724 1.1190318
-25.558996 23.982325 2.0386031
-25.441763 24.167578 2.0410428
-25.3153 24.344683 2.0428433
-25.20336 24.536465 2.045922
-25.089304 24.727089 2.0489426
-24.983046 24.926401 2.0527182
-24.873177 25.123209 2.0563195
-24.747173 25.304619 2.058701
-24.623348 25.489016 2.061373
-24.170134 25.329056 2.0363958
-23.649292 25.08968 2.0054355
-23.481974 25.220434 2.0043318
-23.374086 25.415478 2.0083981
-23.273415 25.619753 2.0132191
-23.159113 25.810371 2.0169947
-23.047981 26.005781 2.0211771
-22.940584 26.206806 2.0258241
-22.822443 26.396915 2.0296576
-22.684031 26.564545 2.0318069
-3.7897277 4.4933014 0.34130827
-3.7806141 4.5387154 0.34299278
-22.406214 27.238949 2.0514984
-22.265722 27.409237 2.0539961
-22.142101 27.601408 2.0581784
-22.041752 27.824394 2.0646839
-21.924122 28.027525 2.0697377
-21.800554 28.22473 2.0743845
-21.642097 28.377808 2.0758367
-22.241013 29.537258 2.1506524
-22.213022 29.879877 2.1656387
-21.83139 29.745996 2.1461797
-21.618589 29.83816 2.1432173
-21.569832 30.158634 2.1566935
-21.785105 30.858042 2.1971219
-21.63131 31.042734 2.2007813
-13.823767 20.099943 1.4187013
-13.648035 20.107569 1.4132992
-13.384397 19.981913 1.3986614
-12.963183 19.612268 1.3671783
-12.828967 19.670534 1.3657262
-12.621597 19.614557 1.3564323
-12.360826 19.470812 1.3412136
-11.824523 19.141163 1.3083946
-11.612832 19.05905 1.2978809
-11.464304 19.077749 1.2943375
-4.6646342 7.871172 0.53165853
-4.5351601 7.7608719 0.52230656
-4.4779859 7.7721171 0.52120292
-4.4316921 7.802052 0.52137721
-4.3939781 7.8473897 0.52259701
-4.3471918 7.8768253 0.5227713
-4.2911472 7.8893189 0.52184188
-4.2388854 7.9084611 0.52137721
-4.1986718 7.9502115 0.52242273
-4.1511936 7.9784813 0.52259701
-4.090322 7.9807029 0.52108675
-3.8824761 7.6910543 0.50058216
-3.8205471 7.6852312 0.49866527
-3.7417195 7.6439691 0.49448302
-3.6791449 7.634408 0.49239191
-3.6211078 7.6333876 0.49088165
-3.5623772 7.6301341 0.48925522
-3.5271616 7.6772494 0.49088165
-3.5017807 7.7469616 0.49396023
-3.4704039 7.8047905 0.49628371
-3.4364486 7.8579516 0.49831676
-3.3917179 7.8871427 0.49883953
-3.3658056 7.9611378 0.50220859
-3.3222568 7.9945469 0.50302178
-3.28635 8.0471287 0.50505483
-3.2376554 8.0689955 0.505171
-3.1928427 8.1007833 0.50592613
-3.157851 8.1583929 0.5083077
-3.1215625 8.2140112 0.51057303
-3.0885482 8.2797775 0.51347739
-3.0455782 8.3201351 0.51481336
-3.0086396 8.3781281 0.51725304
-2.9697769 8.4322128 0.51946032
-2.9192853 8.454051 0.51969266
-2.8756781 8.4963903 0.52120292
-2.8329179 8.5423021 0.52294552
-2.7860012 8.5766144 0.52399111
-2.7351391 8.5992556 0.52433962
-2.6823235 8.6158762 0.52433962
-2.6302795 8.6350374 0.5245139
-2.5815215 8.6653652 0.5253852
-2.5305364 8.6887102 0.52584988
-2.4722571 8.6867905 0.52480429
-2.4140975 8.6844835 0.52375877
-2.347693 8.650959 0.52085441
-2.2731032 8.584136 0.51597512
-2.2106547 8.5602245 0.51370972
-2.1602817 8.5823412 0.51423252
-2.1163764 8.6313095 0.51638174
-2.06917 8.6684093 0.51783389
-2.0163941 8.6828871 0.51795006
-1.9567039 8.6668558 0.51626557
-1.9007082 8.6660213 0.51551044
-1.847083 8.6755686 0.51539427
-1.7954309 8.6945591 0.51585895
-1.7375433 8.6828976 0.51452297
-1.6667666 8.6032267 0.509179
-1.6075125 8.578949 0.50714594
-1.5395507 8.5041685 0.50215048
-1.4770341 8.4544506 0.49866527
-1.4218159 8.4436655 0.49750355
-1.3552871 8.3615685 0.49215955
-1.3022658 8.3588762 0.49152061
-1.2522805 8.375596 0.49204338
-1.1983176 8.3653326 0.49099782
-1.1388382 8.3131847 0.48751262
-1.0871609 8.3150663 0.48722219
-1.0364901 8.3245516 0.48739645
-0.98574388 8.3337297 0.4875707
-0.93559092 8.3485498 0.4880935
-0.87940943 8.3074732 0.48536339
-0.83326888 8.3613892 0.48820966
-0.77758354 8.3196268 0.48547959
-0.72599995 8.3182745 0.48513106
-0.67462361 8.318593 0.48489872
-0.62073553 8.2847462 0.48269141
-0.56804132 8.261508 0.48112306
-0.51715195 8.2618484 0.48094881
-0.46582997 8.2539015 0.48030987
-0.41542676 8.26159 0.4806003
-0.36551863 8.2819357 0.48164585
-0.31299055 8.239131 0.47903195
-0.25741386 8.0832424 0.46985424
-0.20604293 8.0158091 0.46584627
-0.15662093 8.0049448 0.46514922
-0.1064571 7.9278946 0.46061847
-0.057781443 7.9244056 0.4603861
-0.009101891 7.8756928 0.45753986
0.038707785 7.7727757 0.45155692
0.086110696 7.7464371 0.45004666
0.13357133 7.7417712 0.44981432
0.18121167 7.7467937 0.45016283
0.22912514 7.7585087 0.45091796
0.27608499 7.7389984 0.4498724
0.32339844 7.7331686 0.44964007
0.35289505 7.3571024 0.42785752
0.3842667 7.1006017 0.41304541
0.42680636 7.0811696 0.41205794
0.46594423 7.0136704 0.40828228
0.50282365 6.9260454 0.40334493
0.52413702 6.654119 0.38766149
0.56030691 6.5960674 0.38446674
0.59886587 6.5716276 0.3832469
0.6345343 6.5201354 0.38045874
0.6651721 6.425756 0.37517285
0.7000128 6.3798752 0.37273321
0.73454565 6.335793 0.37040973
0.76844305 6.2905378 0.36802816
0.79926968 6.2253036 0.36448488
0.83651966 6.213357 0.36407828
0.87142438 6.1853704 0.36274227
0.90718013 6.165092 0.36187097
0.94317424 6.1475682 0.36117393
0.97993249 6.1357508 0.36082542
1.0156 6.1178045 0.36012837
1.0553234 6.1242471 0.3608835
1.1020122 6.1687593 0.36390403
1.1472887 6.2021294 0.36628556
1.1896385 6.2175245 0.36762157
1.2266041 6.2042322 0.36727303
1.2658474 6.2024574 0.36762157
1.3071717 6.2102046 0.36855096
1.343559 6.1942616 0.36808625
1.3954694 6.2482567 0.37180382
10.860768 47.258064 2.820683
11.150763 47.191505 2.8207412
11.436346 47.106674 2.8198118
11.722515 47.02496 2.8191729
12.009597 46.947311 2.8188825
12.289835 46.843769 2.8171399
3.9564528 14.712558 0.88575536
4.0474486 14.690892 0.88592964
4.1315503 14.644643 0.88465172
4.2163448 14.601752 0.88360614
4.2999206 14.555501 0.88238633
4.3747144 14.481061 0.87948197
4.4502306 14.411021 0.87686807
4.5304594 14.357738 0.87529975
4.6086717 14.299265 0.87344098
4.6894579 14.249855 0.87216306
4.7694931 14.199047 0.87082708
4.8507009 14.152515 0.86978149
4.9364591 14.119659 0.86960727
5.0176387 14.074059 0.86867785
5.0987854 14.028932 0.86780655
5.1847696 13.997382 0.86780655
5.2709112 13.96624 0.86786467
5.3640299 13.953203 0.86908448
5.4520917 13.926535 0.8694911
50.138027 101.43592 6.582962
45.623596 90.894371 5.9168229
44.983112 86.940613 5.6949315
45.207497 86.076103 5.6563621
45.72118 85.771545 5.6546774
46.26133 85.516609 5.6564779
46.494621 83.483337 5.559299
46.788345 81.637589 5.4742022
46.287464 79.627121 5.3583188
45.794506 76.599915 5.1920166
45.271553 73.657562 5.0298381
45.063244 72.320129 4.9572878
44.824257 70.962753 4.8829951
44.663998 69.757362 4.818809
44.386314 68.395859 4.7434707
44.025059 66.936165 4.6608715
43.835842 65.765968 4.5980215
43.580303 64.521225 4.5295954
43.388981 63.395821 4.4691849
43.161613 62.240768 4.4063354
43.123169 61.377644 4.363874
42.854053 60.205853 4.2991652
42.648693 59.14579 4.2420659
42.407818 58.057491 4.1825848
42.768002 57.802605 4.1830497
43.188324 57.627773 4.1894975
43.718563 57.595474 4.2065749
44.154499 57.434566 4.2145329
44.694363 57.404385 4.2323651
45.163811 57.278797 4.2434597
45.728081 57.268177 4.2633839
46.197247 57.133236 4.2743621
46.616508 56.933666 4.2807517
46.897427 56.565094 4.2745943
47.069031 56.068302 4.2587948
47.47683 55.854504 4.2646036
47.860332 55.610565 4.268321
48.398716 55.543156 4.2858634
48.846924 55.367912 4.2953897
50.420036 56.449039 4.4031982
50.88464 56.270409 4.413538
51.406921 56.151516 4.4288726
51.903858 56.000507 4.4420004
52.566189 56.021687 4.4691849
53.038204 55.834164 4.4801054
53.580471 55.716351 4.4969506
27.509731 23.491135 2.104125
27.74493 23.39913 2.1110954
27.897186 23.236115 2.1117923
15.263182 12.091211 1.1322756
15.181393 11.875545 1.1207744
15.064355 11.635711 1.1068336
15.11589 11.382115 1.1002697
15.198264 11.298682 1.1011992
15.384809 11.291452 1.1096798
15.45461 11.197426 1.1097379
15.566062 11.133167 1.1128165
15.656916 11.053568 1.1144429
15.757207 10.98012 1.1167663
15.872814 10.916606 1.1201935
16.075792 10.911513 1.1297778
16.122534 10.799335 1.1283838
16.237631 10.732682 1.1318108
16.34499 10.660116 1.1347152
16.410091 10.559625 1.1347152
16.514187 10.483883 1.1374452
76.623306 34.633209 4.8918824
78.518059 17.219538 4.6764383
73.783272 14.292955 4.37218
1.6590132 0.29000923 0.097285837
1.6824193 0.28347066 0.098563746
1.6673744 0.27042726 0.097576268
1.6571653 0.25834751 0.096879229
1.6547699 0.24758407 0.096646883
1.6503284 0.23657674 0.096298359
1.6438365 0.22536229 0.095833667
1.6432085 0.21501286 0.095717497
1.6435062 0.20480295 0.095659405
1.6407663 0.19424576 0.095427059
1.6458956 0.18461917 0.095659405
1.6460047 0.17441161 0.09560132
1.6460505 0.16420966 0.095543236
1.6510029 0.1544781 0.095775582
1.655898 0.14469193 0.096007928
1.6587447 0.13469014 0.096124105
1.6585444 0.12443518 0.096066013
1.6572847 0.11411929 0.095949844
1.6499829 0.1034495 0.095485151
1.659557 0.09382949 0.096007928
1.6531222 0.083294101 0.09560132
1.6476182 0.072885215 0.095252797
1.6470367 0.062736377 0.095194712
1.6483885 0.052660923 0.095252797
1.6506765 0.042596858 0.095368974
1.6489105 0.032428693 0.095252797
1.6490785 0.022310555 0.095252797
1.6591673 0.012264107 0.095833667
1.6327528 -0.0019176456 0.063107327
1.6476985 -0.012039487 0.06369099
1.6415986 -0.022071164 0.063457526
1.6594154 -0.032488309 0.064157926
1.6641796 -0.042796135 0.064352483
1.6638855 -0.053006541 0.064352483
1.6685215 -0.06340269 0.064547032
1.6581184 -0.073202617 0.064157926
15.169575 -0.75759077 0.59097421
15.210534 -0.85322762 0.59276408
15.154149 -0.94337749 0.59077966
15.107202 -1.0335493 0.58918428
15.074667 -1.1242948 0.58817261
14.996768 -1.2110624 0.58540994
14.972132 -1.3015876 0.58474845
14.902177 -1.3876889 0.58233595
14.870511 -1.4768306 0.58144099
14.798565 -1.5614437 0.57898962
14.776789 -1.6508857 0.57852268
14.747525 -1.7393005 0.57778335
14.902178 -1.8503113 0.5842815
15.032238 -1.9601848 0.58984578
15.099132 -2.0632031 0.59295863
15.137627 -2.1631591 0.59498203
17.991938 -3.0231922 0.7099641
17.96419 -3.1319876 0.70961386
17.954468 -3.2439311 0.71000302
17.769213 -3.3231821 0.70346594
17.692566 -3.4213376 0.70124799
16.155346 -3.2270908 0.64105266
17.586613 -3.6252859 0.69875771
17.549376 -3.7300115 0.69817406
17.518351 -3.8359127 0.69786274
17.450619 -3.9334452 0.69611174
17.496241 -4.056694 0.69891334
17.972586 -4.2834935 0.71899146
18.312845 -4.4835 0.7336998
18.380934 -4.6198921 0.73755199
19.592243 -5.1807227 0.78868109
20.300793 -5.5015488 0.81856471
20.386045 -5.6591473 0.82338971
26.250679 -7.4607472 1.0622255
26.170824 -7.6119113 1.0608636
26.098724 -7.7649412 1.059852
23.161579 -7.0461359 0.94226283
25.93277 -8.0632687 1.0570503
25.840902 -8.2089272 1.0553383
25.727316 -8.3469782 1.0527701
1.6607256 -0.55074388 0.067659914
1.6421691 -0.55580378 0.067037344
1.6358939 -0.56489205 0.066920608
1.6342822 -0.57558227 0.06699843
1.6260169 -0.58391243 0.066803873
1.6270959 -0.59559405 0.06699843
1.6271563 -0.60696203 0.067154072
1.6327435 -0.62048078 0.067543186
1.6317015 -0.63156843 0.067659914
1.6119893 -0.63534564 0.06699843
1.6219733 -0.65080088 0.067582093
1.6235008 -0.66300547 0.067815557
1.6212479 -0.67372084 0.067893386
1.6152425 -0.68287843 0.067815557
1.6128582 -0.69356525 0.067893386
1.6287171 -0.7122491 0.068749428
1.6206634 -0.7206068 0.068593778
1.6426216 -0.74246317 0.069722198
1.6353105 -0.75127769 0.06960547
1.6324811 -0.76214236 0.069683291
1.625968 -0.77128887 0.06960547
1.6320089 -0.78645259 0.070072398
1.6253573 -0.79557371 0.069994576
1.6195502 -0.80508721 0.069955669
1.6101187 -0.8127597 0.069761112
1.6033226 -0.82171303 0.069683291
1.5964773 -0.83061361 0.06960547
1.586048 -0.83759594 0.069371998
1.5685464 -0.84070802 0.068827249
1.5633583 -0.85031652 0.068827249
1.5589864 -0.86037564 0.068866156
1.5641427 -0.87577939 0.069333091
52.812607 -31.271395 2.3895581
52.625732 -31.598457 2.3898306
57.585812 -37.026131 2.6654761
30.414965 -21.178162 1.4427364
28.208029 -19.899616 1.3437856
26.113123 -18.662817 1.2493875
23.820139 -17.469666 1.1498142
22.571854 -16.768175 1.0944828
21.73794 -16.356647 1.0588791
32.520733 -24.783682 1.5917267
19.551661 -15.090966 0.96129036
19.431929 -15.189725 0.95996737
17.368189 -13.923325 0.86634743
15.960149 -13.119566 0.80405092
15.466148 -12.873342 0.78311682
15.057543 -12.690463 0.76634616
14.419939 -12.305241 0.73770761
30.569271 -26.411139 1.5726602
30.390093 -26.583738 1.5718042
12.925281 -11.447648 0.67187017
12.509588 -11.21722 0.65381551
11.99882 -10.89281 0.63058561
11.696321 -10.749862 0.61813408
7.7003756 -7.2538881 0.41147766
10.622882 -10.130325 0.57112956
10.492945 -10.130079 0.56747192
7.6413035 -7.4684281 0.41560224
7.4582367 -7.379539 0.40809241
7.6683936 -7.8720016 0.42747009
26.416733 -27.450802 1.4830482
8.0680323 -8.5931129 0.4585211
8.3080282 -8.9582157 0.47529173
25.772902 -28.132095 1.4852272
25.605164 -28.295631 1.4855385
25.43173 -28.452953 1.4855773
7.1902289 -8.145155 0.42260623
7.0173073 -8.0482864 0.41532984
18.339045 -21.294149 1.0938601
6.9296675 -8.1474934 0.41603026
18.09499 -21.539782 1.0949886
5.8491201 -7.0507159 0.35626292
6.0894742 -7.4327374 0.37369508
6.201159 -7.7613893 0.38638005
6.1144233 -7.7498732 0.38392866
5.2781749 -6.7751675 0.33396691
5.1030645 -6.6339836 0.32544541
3.8627789 -5.2178464 0.25233161
3.378396 -4.6227188 0.22248685
4.5615311 -6.322289 0.30311048
4.5377259 -6.3713193 0.30412218
5.1301899 -7.2973733 0.34688538
28.343458 -40.841915 1.9353888
4.5840011 -6.6936646 0.31544527
4.596005 -6.8003116 0.31914183
4.7349629 -7.0993772 0.33182681
4.7292218 -7.1858878 0.33451167
4.6425877 -7.1494055 0.33147663
4.4988961 -7.0221105 0.32427809
4.4989738 -7.1179976 0.32742986
4.4441099 -7.1276636 0.32661274
4.1270056 -6.7105165 0.30630118
3.9888294 -6.5759573 0.29902482
3.9473791 -6.5985932 0.29894701
3.982476 -6.7509203 0.30474475
3.9444959 -6.7812753 0.30501711
6.4563494 -11.257092 0.5048641
8.8734875 -15.693368 0.70155931
4.3055162 -7.7255397 0.34392813
4.2022195 -7.6502223 0.33941445
3.9758368 -7.3445883 0.324745
3.9255223 -7.3591471 0.32431698
3.8505371 -7.326488 0.3218267
3.3717351 -6.5123453 0.28509468
3.3144584 -6.4990869 0.28361607
3.2700326 -6.5103726 0.28322697
3.2278087 -6.5258369 0.28303239
3.018795 -6.1987634 0.26801273
2.9781108 -6.2117639 0.26777929
2.8793719 -6.1016045 0.26225391
2.9458621 -6.3429966 0.27186492
2.786001 -6.0964923 0.26054183
2.7637048 -6.1471915 0.26198155
2.7784846 -6.2828312 0.26703995
2.6944389 -6.1953039 0.26260412
2.7070701 -6.330235 0.26762363
7.3445654 -17.467339 0.73739636
2.5482676 -6.167202 0.2593745
12.462611 -30.68675 1.2892714
12.276309 -30.768209 1.2895048
12.096403 -30.866215 1.2904775
11.909655 -30.947317 1.2907889
11.725899 -31.036636 1.2914892
11.547749 -31.141727 1.2928901
11.373533 -31.258949 1.2948356
11.189243 -31.349792 1.2957306
11.01087 -31.458412 1.2974037
10.80726 -31.495136 1.2961586
10.612849 -31.558014 1.2960418
1.7499439 -5.3129797 0.2173506
1.7421688 -5.4006443 0.22050239
1.7463278 -5.5293818 0.22532736
9.9148817 -32.066715 1.3065478
9.7225676 -32.142254 1.3071704
9.5475569 -32.277 1.3102443
1.5601412 -5.397788 0.21832338
2.162169 -7.6554847 0.30929732
2.162462 -7.8400664 0.3162235
8.801156 -32.682018 1.3175207
8.6103601 -32.773098 1.3190383
1.8042624 -7.0451112 0.2827211
1.3872741 -5.5591674 0.2226425
1.6034009 -6.5967822 0.26388818
1.5389596 -6.5053687 0.25984144
1.6539122 -7.1875672 0.28672895
1.4389397 -6.434052 0.25626162
7.2762594 -33.485588 1.3339022
1.4289535 -6.7787676 0.2692968
0.99774462 -4.882308 0.19357596
1.8703307 -9.7578306 0.38641897
1.7971259 -9.6974001 0.38357848
1.7259665 -9.6433277 0.38101035
1.6677842 -9.6596441 0.3812438
1.5989685 -9.612525 0.37898695
1.1262099 -7.0380521 0.27707902
1.0533792 -6.8522429 0.26949137
1.3338094 -9.044239 0.35552362
1.2355139 -8.7494917 0.34361684
1.1101323 -8.2261314 0.32276055
0.88911152 -6.9087353 0.27077544
0.84974247 -6.9388561 0.27174821
0.89121062 -7.6665154 0.30007541
0.86548108 -7.8655205 0.30766308
0.81286514 -7.8289394 0.30602881
0.76500672 -7.8357687 0.30610663
0.71399862 -7.8084726 0.30486149
0.68187708 -7.9978933 0.31209892
0.63791573 -8.0666742 0.31462815
0.58862573 -8.0734262 0.31474489
0.53681177 -8.0429878 0.31342191
0.48478851 -8.002244 0.31170982
0.43453646 -7.9841146 0.31089267
0.3862626 -8.0016022 0.31147635
0.33677918 -7.9948363 0.31112614
0.28577283 -7.9428277 0.30902496
0.23667257 -7.9324465 0.30855802
0.18939704 -7.9926887 0.31085378
0.14285393 -8.1355705 0.31637913
0.099368885 -8.6958323 0.33816931
0.047485158 -8.9710665 0.34886983
-0.0076334006 -9.0651178 0.35252747
-0.067029893 -9.6114731 0.37381181
-0.12703294 -9.6898136 0.37688577
-0.18593046 -9.6598797 0.37575737
-0.24598289 -9.6895237 0.37696359
-0.30672026 -9.7287807 0.37855893
-0.36445671 -9.6747904 0.37653556
-0.4258222 -9.7182941 0.37832549
-0.49973658 -10.001925 0.38949293
-0.57127541 -10.180247 0.39657474
-0.64601362 -10.374019 0.40427911
-0.71633488 -10.467558 0.40809241
-0.78441143 -10.514782 0.41011578
-0.86458981 -10.703992 0.41770342
-0.93206847 -10.71939 0.41852057
-0.99847209 -10.720434 0.41879293
-1.0628507 -10.700185 0.41824818
-1.1420059 -10.821653 0.42326769
-1.211601 -10.843241 0.42439613
-1.2815039 -10.864381 0.42552453
-1.3522041 -10.889037 0.4268086
-1.4175717 -10.869637 0.42638057
-1.4928951 -10.924097 0.42887089
-1.5782666 -11.043327 0.43392932
-1.6785684 -11.251853 0.44252867
-1.7520267 -11.269976 0.44365707
-1.8421985 -11.389222 0.44879332
-0.67955601 -4.0411472 0.1591008
-0.70811421 -4.058558 0.15995684
-0.72430003 -4.0059538 0.15805021
-2.3123357 -12.363073 0.48929971
-3.1863241 -16.477015 0.65303725
-3.3670137 -16.85597 0.66887403
-3.4451632 -16.712658 0.66401017
-3.5470223 -16.688271 0.66389346
-2.0523753 -9.3716173 0.3731114
-3.7385845 -16.585976 0.66159767
-2.1200616 -9.1422796 0.364979
-2.1932583 -9.2010288 0.36785841
-2.2698686 -9.2698984 0.37116584
-2.3196423 -9.2276926 0.37003744
-12.108562 -46.959248 1.8879563
-12.459558 -47.122681 1.8975673
-12.75578 -47.072346 1.8986567
-3.9498081 -14.227715 0.57451481
-6.4823303 -22.286814 0.90335184
-4.2680101 -14.344153 0.58229703
-4.6104369 -14.826953 0.60416502
-4.684689 -14.746005 0.60202491
-4.7778554 -14.725537 0.60237509
-4.755331 -14.355408 0.58840609
-4.9585209 -14.666743 0.60241401
-4.9500322 -14.350761 0.5906629
-5.0668406 -14.402126 0.59404814
-5.0596433 -14.104584 0.58303636
-5.1248183 -14.015087 0.58062387
-5.225718 -14.023642 0.58229703
-5.3815265 -14.175351 0.58996248
-5.4975905 -14.217556 0.59311432
-5.5634937 -14.129628 0.59085745
-5.6705332 -14.146239 0.59299755
-5.6111588 -13.753119 0.57793897
-5.6590462 -13.630756 0.57424247
-5.7114758 -13.522136 0.57112956
-7.5513897 -17.577038 0.74447817
-12.632219 -28.914074 1.2282199
-12.98747 -29.236917 1.2453018
-8.0089417 -17.734684 0.75727987
-13.106857 -28.555874 1.2230448
-13.382352 -28.690441 1.2323055
-13.648434 -28.798317 1.2405158
-8.3901787 -17.425653 0.75264949
-8.5311832 -17.443861 0.75568455
-8.7202835 -17.556751 0.76288307
-9.4775839 -18.791254 0.81907058
-9.5845089 -18.716738 0.81837016
-9.7401896 -18.736485 0.82183325
-14.787994 -28.025755 1.2334729
-16.425777 -30.6723 1.3544084
-18.052166 -33.218044 1.4717251
-14.501381 -26.297998 1.1689584
-14.662469 -26.208527 1.1689584
-14.03233 -22.732603 1.0398128
-12.876628 -20.576681 0.94475317
-13.001571 -20.495598 0.94467533
-10.472056 -16.286049 0.75350553
-10.571788 -16.221485 0.75350553
-9.7421207 -14.749681 0.68786263
-9.7796402 -14.610737 0.68416607
-9.7917051 -14.436331 0.67879635
-8.1873827 -11.912801 0.56241351
-9.9207325 -14.247021 0.67556673
-9.9855003 -14.154037 0.6740492
-6.903388 -9.6585436 0.46182853
-6.995923 -9.662138 0.46404645
-10.29693 -14.039553 0.67751229
-10.388841 -13.984129 0.67790139
-5.752924 -7.4527431 0.36614633
-5.8237743 -7.4495816 0.36774167
-6.5174737 -8.2324505 0.40840369
-6.5128651 -8.1236944 0.40497953
-6.5273228 -8.0401335 0.4028005
-6.5187931 -7.9296846 0.3992596
-6.4848647 -7.7904615 0.39424008
-6.5293245 -7.7467031 0.39404553
-6.5864639 -7.7178965 0.39462918
-4.5543694 -5.2705655 0.27077544
-6.6175213 -7.5642867 0.39089373
-6.7353592 -7.6043305 0.39509612
-6.7178531 -7.4914379 0.39136067
-5.4009771 -5.948873 0.31241021
-5.3866663 -5.8604407 0.3094919
-5.3653493 -5.7658262 0.30622336
-5.3896646 -5.7211585 0.30560079
-5.4026012 -5.6648388 0.30435562
-5.4171324 -5.610734 0.30322722
-5.4235215 -5.5488029 0.30167079
-5.4462218 -5.504055 0.30104819
-5.4494858 -5.4401746 0.29937503
-5.4706688 -5.3947062 0.29871354
-5.4764695 -5.3345404 0.29723492
-5.4982986 -5.2904434 0.29665124
-5.5038605 -5.2311339 0.29521155
-5.5888863 -5.1829052 0.29633996
-5.6331077 -5.1599903 0.29700145
-5.7131395 -5.1057911 0.29789641
-5.7570949 -5.0818825 0.29855791
-5.8009715 -5.0576262 0.29921937
-5.8500662 -5.0375872 0.30015326
-4.4811592 -3.8109581 0.22859588
-4.4677348 -3.7525384 0.22672816
-4.4468422 -3.6886854 0.22451022
-4.3905544 -3.5967321 0.2205413
-4.3169966 -3.4924111 0.21575525
-4.2735524 -3.4140825 0.21252564
-4.2261744 -3.3339448 0.20914038
-4.2118697 -3.2809277 0.20742829
-4.1812353 -3.2160263 0.20493798
-4.1762233 -3.1715724 0.20373175
-4.1588326 -3.1183088 0.20194183
-4.1409473 -3.0653791 0.20015194
-4.1475782 -3.0310674 0.19956827
-4.1118088 -2.9663842 0.19696122
-4.1323743 -2.9428382 0.19707796
-4.1536226 -2.9197259 0.1972336
-4.1484742 -2.8782327 0.19614409
-4.1668806 -2.8532887 0.19618301
-4.1735482 -2.8203926 0.19567716
-4.1832938 -2.7897408 0.19532697
-4.193655 -2.7596247 0.19501568
-4.2297831 -2.7463591 0.19591063
-4.2372999 -2.7144237 0.19548261
-4.2640114 -2.6947803 0.19594954
-4.2694435 -2.6616921 0.1954437
-4.2729282 -2.6275926 0.19486003
-4.2753015 -2.5930316 0.19423746
-4.3082809 -2.5770113 0.19501568
-4.3188486 -2.5474808 0.19478221
-4.3205791 -2.5128934 0.19415963
-4.3385167 -2.4878271 0.19427636
-4.3641376 -2.4670615 0.19474331
-4.3914123 -2.4470484 0.19528805
-4.4133511 -2.4239066 0.19559935
-4.5810366 -2.4795637 0.20236985
-4.6605225 -2.4857447 0.20521036
-4.6341162 -2.4352491 0.20338154
-4.6516333 -2.4081473 0.20349827
-4.6583109 -2.3754737 0.20314808
-4.6924424 -2.356715 0.20400412
-4.7417445 -2.3451593 0.20552166
-4.7623329 -2.3190835 0.20579402
-4.7809777 -2.2919788 0.20598859
-4.9079051 -2.3159173 0.21085246
-5.1204882 -2.3779547 0.21937397
-5.1049924 -2.3327827 0.21808991
-5.0964265 -2.2911692 0.21711713
-5.0985093 -2.2546 0.2166113
-5.0316133 -2.1881955 0.21318713
-4.9971719 -2.1368456 0.21116374
-5.0194001 -2.1100166 0.21155286
-5.0775032 -2.0978811 0.21345949
-5.1263857 -2.0813508 0.21497703
-5.1724715 -2.0631886 0.21637782
-5.2036405 -2.0387044 0.21715605
-5.236568 -2.0146329 0.21801209
-5.2787428 -1.9937656 0.21925724
-5.3133626 -1.9696767 0.22019111
-5.3610311 -1.9500213 0.22166972
-5.4030099 -1.9278392 0.22291487
-5.4392586 -1.9032339 0.22392656
-5.4820237 -1.8805267 0.22521062
-5.5379734 -1.8618251 0.22703944
-5.5815611 -1.8384421 0.22836241
-5.643137 -1.8204246 0.2304247
-5.6856432 -1.7956991 0.23170877
-5.7433319 -1.7752432 0.2336154
-5.7799406 -1.7477813 0.234666
-5.82026 -1.7210705 0.23587224
-5.8767867 -1.6986489 0.23773998
-5.9053693 -1.6677196 0.23847929
-5.9752126 -1.6479312 0.24089177
-6.0373144 -1.6252693 0.24299297
-6.100327 -1.6021605 0.24513307
-6.1390824 -1.5721393 0.2463004
-6.2058129 -1.5487219 0.24859615
-6.2414145 -1.5169892 0.24964674
-6.2914453 -1.4883298 0.25128099
-6.3666754 -1.4649414 0.25392696
-6.3872457 -1.4284668 0.25439388
-6.4808416 -1.4077098 0.25777915
-6.5294447 -1.3763719 0.2593745
-6.5837793 -1.3456914 0.26120332
-6.6428819 -1.3153666 0.26322669
-6.6949897 -1.2830496 0.26497769
-6.7440009 -1.2495959 0.26661193
-6.8095741 -1.2185826 0.2689077
-6.8750181 -1.1868114 0.27120346
-7.4164133 -1.2335092 0.29229322
-7.4583759 -1.193509 0.2936551
-7.4764228 -1.1493939 0.29408312
-7.4289651 -1.0954754 0.29194301
-7.2762513 -1.0273653 0.28567836
-7.3636189 -0.9936645 0.28886905
-7.4161563 -0.95446253 0.29069787
-27.931753 -3.4225812 1.0953388
-28.323442 -3.2943156 1.1098915
-28.552694 -3.1435421 1.1181017
-28.884521 -3.0008197 1.1303587
-29.139084 -2.8466594 1.1396196
-29.417707 -2.6917641 1.1498531
-29.747293 -2.5379744 1.1621101
-29.940613 -2.3695159 1.1690751
-30.349237 -2.214565 1.1844839
-30.56465 -2.0418291 1.1923829
-30.939659 -1.8762742 1.2065464
-31.290825 -1.7049425 1.2198151
-31.567186 -1.5257996 1.2302043
-31.855494 -1.343877 1.2410995
-32.194672 -1.1603459 1.2540179
-32.649643 -0.97619879 1.271489
-32.855812 -0.78062063 1.2793101
-33.29958 -0.58676124 1.2964309
-33.566334 -0.38546219 1.3067034
-34.008732 -0.18186077 1.3238631
-34.362938 0.027088331 1.3376377
-35.932133 0.6898101 1.3990004
-36.039104 0.91310513 1.4033585
-36.292496 1.1423888 1.4134753
-37.867016 1.6572831 1.4754994
-38.647549 1.9290894 1.5063559
-38.864452 2.1790519 1.5153054
-39.220352 2.4404957 1.5297414
-39.279408 2.6862133 1.5326598
-39.612946 2.9533217 1.5463564
-19.187952 1.5493355 0.74914747
-19.172112 1.6665224 0.748914
-19.141626 1.7822767 0.74813581
-20.221355 2.1333756 0.791327
-20.239662 2.2609603 0.79257214
-20.201591 2.382298 0.79163831
-10.294057 1.2783557 0.40346199
-10.268185 1.3391699 0.40276161
-10.220173 1.3967394 0.40120515
-18.725454 2.6756995 0.7361123
-18.714615 2.7914305 0.73634577
-18.642441 3.2502127 0.73642355
-18.495298 3.3416257 0.73140407
-18.578562 3.4745152 0.73552859
-19.229269 3.8409898 0.76311654
-21.318401 4.6678452 0.84934336
-22.809383 5.4360881 0.91261268
-22.836746 5.59091 0.91506404
-22.559565 6.1136031 0.90969431
-22.713232 6.3050938 0.91743761
-23.148941 6.5792789 0.93665969
-19.077301 6.060503 0.77899224
-19.064466 6.185462 0.78000391
-16.89757 5.5973167 0.69268757
-17.126068 5.7898498 0.70350486
-17.311266 5.9710593 0.71261001
-60.598625 22.156416 2.5120499
-28.880779 11.576144 1.211138
-37.532261 16.123671 1.5902091
-64.787567 28.304033 2.7526369
-64.813583 28.79027 2.7611973
-64.21315 28.996605 2.7431426
-63.783367 29.275023 2.732403
-63.753769 29.736376 2.7389011
-41.363682 25.532242 1.892392
-33.015091 20.942949 1.521998
-32.86916 21.134325 1.5212198
-28.480175 18.560364 1.3232795
-28.39327 18.752937 1.3245636
-28.325832 18.95904 1.3268205
-28.17589 19.110052 1.325264
-28.064692 19.287102 1.3255752
-27.974522 19.478928 1.3269372
-17.132711 12.086749 0.81599659
-16.188345 11.569976 0.77436179
-15.226715 11.024514 0.73155969
-15.236945 11.175056 0.73533404
-15.165683 11.26655 0.73521733
-15.118625 11.376215 0.73630685
-15.068406 11.483908 0.73727959
-15.02218 11.595077 0.73848587
-14.970433 11.702416 0.73945862
-14.911666 11.804597 0.74012011
-14.836615 11.893995 0.74000341
-14.767234 11.987956 0.74019796
-14.697259 12.081513 0.74039251
-14.661254 12.203427 0.74233806
-14.602144 12.30668 0.74315518
-14.550681 12.416801 0.74440032
-14.472707 12.504542 0.74432248
-14.41752 12.612189 0.74545091
-14.363051 12.720953 0.74665719
-14.308534 12.830189 0.74790233
-14.242118 12.92916 0.74856383
-14.172082 13.025096 0.74906963
-14.058242 13.080499 0.74727976
-22.874376 21.546268 1.2232004
-22.760542 21.704147 1.2242121
-22.688768 21.903078 1.2275584
-22.593966 22.080992 1.2297374
-22.4886 22.24943 1.2314106
-22.389074 22.424475 1.2334729
-22.305088 22.616209 1.236469
-22.226564 22.814913 1.2398543
-22.11595 22.981823 1.2415274
-21.99655 23.140266 1.2427727
-21.87809 23.300295 1.2441345
-21.812176 23.517616 1.2485703
-23.535904 25.690413 1.356276
-23.414032 25.874352 1.3583772
-23.264154 26.02796 1.358922
-23.079542 26.1425 1.3574823
-22.907536 26.270819 1.3568208
-22.783079 26.454039 1.3590387
-3.7850606 4.4507141 0.22703944
-3.7557521 4.47156 0.22692271
-3.7422817 4.5114393 0.22777875
-22.387295 27.322863 1.3750312
-22.248768 27.496223 1.37686
-22.256166 27.853138 1.3878719
-22.155409 28.078602 1.3923076
-22.023853 28.266827 1.3949147
-21.912146 28.482212 1.3988837
-21.88929 28.816641 1.4086893
-21.96627 29.289352 1.4251875
-21.823601 29.474176 1.4276389
-21.661798 29.63415 1.4289229
-21.494762 29.787575 1.4299346
-21.626389 30.36083 1.4510633
-21.686256 30.843624 1.4677562
-21.561543 31.069695 1.472192
-13.791503 20.13632 0.94992834
-13.521073 20.003668 0.93973362
-13.2162 19.813601 0.92697084
-13.100421 19.903502 0.92739886
-4.9560862 7.6320987 0.35388935
-4.7549758 7.4217434 0.3427608
-4.6265864 7.3198628 0.33672962
-4.5371704 7.2768912 0.33346108
-4.4474106 7.2313976 0.33011472
-4.3993273 7.2525706 0.32984236
-4.3644919 7.2957196 0.33058167
-4.3252296 7.3318291 0.33100969
-4.2982512 7.3893237 0.33241048
-4.2632709 7.4337602 0.3332276
-4.2165937 7.4580398 0.33314979
-4.161509 7.4671884 0.33241048
-4.0997353 7.4636822 0.33112642
-4.0381618 7.4596996 0.32984236
-3.9749103 7.4517164 0.32840264
-3.9119098 7.4432402 0.32696295
-3.8528395 7.4413705 0.32583451
-3.7875834 7.4265962 0.32416135
-3.7253456 7.4166589 0.32272163
-3.6797678 7.4393783 0.32272163
-3.6252995 7.4438496 0.3219434
-3.5730755 7.4524393 0.32135975
-3.5375178 7.4959102 0.32229361
-3.4990349 7.5337873 0.32299402
-3.4506655 7.550571 0.32279944
-3.4190249 7.6044097 0.32420024
-3.4070649 7.7038345 0.3275466
-3.3696961 7.7475019 0.32851937
-3.3295617 7.7854877 0.32925868
-3.2898624 7.8251143 0.33007583
-3.2540004 7.8747048 0.33132097
-3.2071249 7.8982258 0.33147663
-3.1645272 7.9326053 0.3320992
-3.1285558 7.9844351 0.33346108
-3.0967326 8.0482445 0.33532882
-3.0766048 8.1446781 0.33855841
-3.0265722 8.1634016 0.33855841
-2.9897511 8.218441 0.34007594
-2.952368 8.2733335 0.34159347
-2.9150834 8.3299608 0.34318882
-2.8729985 8.374155 0.34427834
-2.8346212 8.4304571 0.34587368
-2.7872176 8.4609785 0.34641844
-2.7306464 8.4636564 0.34583479
-2.6747494 8.4678659 0.34532893
-2.6174273 8.4669342 0.34462854
-2.5573249 8.4560556 0.34353903
-2.4824317 8.3939734 0.34038723
-2.4267168 8.3946486 0.33980358
-2.3656538 8.3757248 0.3384417
-2.309433 8.3727446 0.33774129
-2.258795 8.3896513 0.33785802
-2.2039733 8.390789 0.33735219
-2.153935 8.4099627 0.33758566
-2.1076169 8.4443493 0.3384417
-2.0463197 8.4182844 0.33688524
-1.9960085 8.4365158 0.33711872
-1.9430845 8.4437361 0.33692417
-1.88622 8.4330711 0.3360292
-1.8274375 8.4122629 0.33474514
-1.7669197 8.3812761 0.33307198
-1.7084529 8.3576946 0.33171007
-1.6482062 8.3229313 0.32992017
-1.5959777 8.3269997 0.3296867
-1.5421219 8.3218985 0.32910305
-1.4797593 8.2682543 0.32661274
-1.4264474 8.2624073 0.32602906
-1.3749032 8.2660761 0.32583451
-1.3239996 8.2733698 0.32579559
-1.2681968 8.2487469 0.32451153
-1.2115794 8.2158432 0.32291618
-1.1523383 8.1607895 0.32046479
-1.1003709 8.1538429 0.31992003
-1.0485322 8.1465654 0.31937528
-0.9980399 8.1488781 0.31921965
-0.94905972 8.1637821 0.31956986
-0.89413732 8.1257486 0.31785777
-0.83940774 8.0843697 0.31602895
-0.78978717 8.0893679 0.31602895
-0.73986363 8.0910759 0.31591222
-0.68994892 8.0924778 0.31579548
-0.63972944 8.0895853 0.31552309
-0.59379047 8.1441841 0.31750757
-0.54740536 8.2015133 0.31960875
-0.4947117 8.1658192 0.31809121
-0.44448912 8.1667051 0.3180134
-0.39248854 8.1303549 0.31649587
-0.34419546 8.1705465 0.31797448
-0.2944876 8.1844873 0.31844142
-0.24324693 8.1521816 0.31711844
-0.19220006 8.1105661 0.31544527
-0.13878268 7.9047809 0.30739069
-0.089943931 7.8765073 0.30626228
-0.039950427 7.5671511 0.29419985
0.0064115599 7.4763227 0.29065895
0.052368086 7.488133 0.29112589
0.098339476 7.4896684 0.29120371
0.14414008 7.4809318 0.29089242
0.18981189 7.4709167 0.29054222
0.23546048 7.4636188 0.29030874
0.27959988 7.418097 0.28859666
0.32489282 7.4112511 0.28840211
0.35004371 7.0019336 0.27252641
0.39081928 6.9607449 0.27100888
0.42589113 6.835546 0.26622283
0.45501125 6.6453838 0.25890756
0.48939034 6.5567698 0.25556123
0.52511096 6.4978671 0.25338221
0.55614847 6.3929825 0.24941328
0.58953053 6.3267684 0.24696189
0.62764877 6.3160715 0.24668951
0.66345704 6.284277 0.2456
0.69590455 6.2254691 0.2434599
0.73198432 6.2032189 0.2427595
0.76523262 6.1599369 0.24124196
0.80146492 6.1432357 0.24077503
0.83386964 6.0995908 0.2392575
0.87212819 6.1002946 0.23949097
0.90747917 6.0809922 0.23894621
0.94109178 6.0516119 0.23801234
0.98075801 6.0615063 0.23863493
1.0195876 6.0652289 0.23902404
1.0612454 6.0844531 0.24003573
1.0976708 6.0729103 0.23984116
1.1308724 6.0444517 0.23898512
1.1645248 6.0197396 0.23828472
1.2118113 6.0644155 0.24034701
1.2532349 6.0774179 0.24116415
1.2917478 6.0754776 0.2413976
1.3375499 6.1064825 0.24295405
1.3741146 6.0942616 0.2427984
1.4119338 6.0876622 0.24287623
1.4501868 6.0827723 0.24303187
1.5019759 6.1329651 0.24540545
1.605335 6.3852935 0.25591141
1.6861478 6.536912 0.26240957
1.7476808 6.6075907 0.26567808
1.7989062 6.6362858 0.26727343
3.2683172 11.77247 0.47529173
3.3213694 11.684912 0.47256798
3.7208838 12.791712 0.51828843
3.8095598 12.80312 0.5196892
3.880486 12.754647 0.51867753
3.9723203 12.77449 0.5204674
3.721765 11.470151 0.46910489
3.9118395 11.570342 0.4751361
4.2482796 12.316005 0.50684857
4.3542743 12.376427 0.51042837
4.6249557 12.411227 0.51529229
4.6673341 12.293866 0.51159573
4.7477245 12.278045 0.51214045
4.3745589 11.1097 0.46447447
4.494318 11.211575 0.46988311
4.5558548 11.166207 0.46914381
4.6208358 11.129737 0.4687936
4.6999249 11.126949 0.46988311
4.7629828 11.085966 0.46937725
4.8233151 11.039134 0.46863794
5.0008864 11.25681 0.47918284
7.3628955 16.303974 0.69615066
7.4682145 16.270296 0.69665653
44.296722 82.718857 3.6534269
44.888367 82.601776 3.6603529
45.578186 82.65818 3.6751781
46.140125 82.476379 3.6796141
46.66209 82.221268 3.6809371
23.968245 41.635521 1.8702906
24.236364 41.510109 1.8713022
46.017147 77.716545 3.5165768
45.781246 76.24707 3.462724
45.417625 73.580116 3.3666527
34.720684 55.48531 2.548315
35.105438 55.342102 2.5515835
44.482151 69.18222 3.2023315
44.370071 68.085876 3.1641209
44.366833 67.176155 3.1344318
43.953365 64.80645 3.0487885
43.268112 62.960945 2.9743907
43.293331 62.176823 2.9498379
43.070953 61.055111 2.9090981
42.864933 59.97834 2.8702648
42.682499 58.954983 2.8337662
42.584873 58.066692 2.8035715
42.908783 57.761791 2.8015091
43.366928 57.636353 2.8082795
44.721775 57.943077 2.8497589
45.565899 57.562279 2.8583193
45.935108 57.302658 2.8593698
46.31041 57.049984 2.8608873
46.788395 56.921459 2.8687863
21.664553 25.075207 1.2899328
21.872608 25.004229 1.2931625
22.13044 24.681112 1.2903997
22.360043 24.631426 1.2949523
22.51211 24.495232 1.2950301
22.727327 24.42687 1.2987655
22.840469 24.248407 1.2967033
23.019165 24.139624 1.2984154
27.664236 23.531275 1.4137865
27.821873 23.372658 1.414487
27.986294 23.219372 1.4155765
15.21751 12.468259 0.76560682
15.149246 12.257739 0.75836939
14.925193 11.925644 0.74346644
14.918074 11.770704 0.73949754
14.821338 11.547517 0.73117059
14.843602 11.419189 0.72879702
14.930099 11.34059 0.72961414
14.98901 11.240973 0.72910827
15.443662 11.288526 0.74443924
15.673884 11.309915 0.75218254
15.762518 11.227442 0.75311637
16.158411 10.635265 0.75280511
16.319735 10.59851 0.75727987
17.173376 9.9904919 0.77319449
19.131132 9.3183889 0.82817572
19.140196 9.177927 0.82611346
19.236813 9.0795059 0.82786447
13.585235 6.0087004 0.5779779
13.570536 5.9029074 0.57579887
13.532084 5.7876968 0.57264709
13.417199 5.6414199 0.56630462
13.337976 5.5120401 0.56151855
13.323403 5.4105434 0.55949515
13.339645 5.3220253 0.5587948
13.402751 5.2521071 0.56007886
13.415141 5.1622334 0.55926174
13.506388 5.1024256 0.56175202
14.548352 5.3943377 0.603737
14.405474 5.1411648 0.59513766
13.942546 4.8796892 0.57474828
14.034604 4.815454 0.5773164
14.146285 4.7569604 0.58070171
14.238793 4.6910229 0.5833087
14.28823 4.6103187 0.58416474
14.349598 4.5330973 0.58552665
69.438568 21.004967 2.8245056
17.04648 5.0420337 0.69175375
17.061739 4.9329019 0.69113117
17.171497 4.8506694 0.69436073
72.430534 19.50613 2.9204991
75.23127 17.804468 3.0099943
74.736145 16.721523 2.981745
18.956167 3.6340559 0.75113195
18.975161 3.5171282 0.75101519
19.039663 3.4083817 0.75272727
1.6572911 0.28558278 0.065013967
1.6580265 0.27524441 0.064975053
1.6498173 0.263486 0.064585947
1.6464649 0.25259832 0.064391389
1.6539152 0.2433662 0.064624861
1.6524091 0.23279402 0.064508125
1.6478648 0.22184834 0.064274661
1.6541501 0.21237125 0.064469211
1.6554221 0.20221758 0.064469211
1.6556393 0.19194083 0.064430304
1.6538061 0.18145028 0.064313568
1.6489248 0.17067961 0.064080104
1.6409906 0.1596842 0.063729905
1.6459198 0.14997655 0.063885547
1.6408355 0.13936475 0.063652083
1.6426557 0.12937301 0.06369099
1.6513914 0.11987337 0.064002283
1.6530929 0.10980499 0.06404119
1.6507431 0.099478215 0.063924462
1.6642934 0.090054594 0.064430304
1.6608225 0.079647936 0.064274661
1.6463046 0.068823747 0.06369099
1.6437 0.058612887 0.063574262
1.638036 0.048346926 0.063340791
1.6323081 0.038152691 0.063107327
1.6305132 0.028101068 0.063029505
1.6296557 0.018084405 0.062990591
1.6297362 0.0080846846 0.062990591
1.6436032 0.00092683395 0.035883076
1.6445777 -0.0091638472 0.035905067
1.6434909 -0.019242777 0.035883076
1.6693313 -0.029793946 0.036454801
1.6691171 -0.040036205 0.036454801
1.6728373 -0.05039791 0.036542758
1.6734957 -0.060697667 0.036564749
1.6041707 -0.06803257 0.035047479
15.224286 -0.74112684 0.33498257
15.201484 -0.83354181 0.33458674
15.139201 -0.92333072 0.33333337
15.109311 -1.0145978 0.3328056
15.045968 -1.10312 0.33155221
15.017987 -1.1937556 0.33109045
14.984482 -1.2836628 0.33051872
14.917584 -1.3701857 0.32922134
14.860143 -1.4569118 0.32814386
14.811147 -1.5439178 0.32726428
14.778541 -1.6322435 0.32675853
14.763281 -1.7223129 0.32664859
14.795104 -1.8181103 0.32759413
14.962145 -1.9319043 0.33155221
15.016387 -2.03266 0.33302552
9.6770926 -1.3703566 0.21470068
9.5597115 -1.4136187 0.21228185
9.5735836 -1.4757532 0.2127876
9.7035332 -1.5568013 0.2158881
9.7302856 -1.6223965 0.21670172
9.7575827 -1.6885487 0.21753731
9.8326492 -1.763747 0.21945038
9.845233 -1.8284274 0.21997812
9.9811001 -1.9170923 0.22327654
10.00249 -1.9849162 0.22402418
9.7883625 -2.0049224 0.21949436
9.7944622 -2.068871 0.21991216
10.048272 -2.18698 0.22591525
10.095149 -2.2621486 0.22727861
10.159015 -2.3420177 0.22903775
10.234923 -2.4257522 0.23108277
10.361668 -2.5230429 0.23429321
10.413884 -2.6035485 0.23583247
10.428701 -2.6753483 0.23653613
10.594825 -2.7873666 0.24069212
10.666327 -2.8762717 0.24271514
11.07827 -3.060405 0.25252241
11.095839 -3.1386638 0.25335801
11.13111 -3.2225354 0.2546114
26.135172 -7.7407427 0.59925085
23.200415 -7.0266256 0.53290892
13.234023 -4.0968599 0.30443931
25.835751 -8.1722507 0.59573257
25.68523 -8.2983484 0.59342366
1.6482862 -0.54350233 0.037906099
1.6534477 -0.55647695 0.038104005
1.6490567 -0.56628704 0.038082015
1.6370593 -0.57341927 0.037884109
1.6288028 -0.58177119 0.037774164
1.6280205 -0.59278095 0.037840132
1.6252899 -0.60310704 0.037862122
1.6178184 -0.61165363 0.037774164
1.6084373 -0.61941242 0.037642226
1.6073984 -0.63036531 0.037708193
1.5970012 -0.63762045 0.037554268
1.5967635 -0.6489135 0.037642226
1.6056852 -0.66404957 0.037950076
1.6080307 -0.67660433 0.038104005
1.6121204 -0.68999982 0.038301907
1.6298554 -0.70945781 0.038829654
1.6583815 -0.734016 0.039621271
1.6584047 -0.74622959 0.039731216
1.6556129 -0.75722319 0.039775196
1.6473093 -0.76568156 0.039687239
1.6470999 -0.77791011 0.039797187
1.6395918 -0.78670412 0.039731216
1.6329365 -0.7958734 0.039687239
1.6307101 -0.80720884 0.039753206
1.6212605 -0.81495392 0.039643258
1.6091062 -0.82124972 0.039467346
1.5916101 -0.82466692 0.039159492
1.5812113 -0.83162445 0.039027557
1.5743151 -0.84036911 0.03898358
1.571766 -0.85144204 0.039049547
1.5638838 -0.8596251 0.03898358
1.5568336 -0.86823058 0.038939599
1.4940511 -0.84526813 0.0374883
52.692959 -31.551836 1.3505839
41.456951 -26.945026 1.0872391
39.246174 -25.852032 1.0333871
36.910751 -24.639717 0.97584093
34.681206 -23.46027 0.92066956
32.569027 -22.323965 0.86820292
30.436863 -21.138153 0.81479073
28.219166 -19.855728 0.75865185
26.070534 -18.58408 0.7039203
23.835352 -17.435787 0.64927673
21.734131 -16.311872 0.59742576
32.58688 -24.771233 0.90004355
19.9242 -15.33927 0.5527873
19.425247 -15.14587 0.54150677
17.342094 -13.867133 0.48811656
17.091963 -13.839901 0.48345482
16.068954 -13.175586 0.45678172
15.773974 -13.096394 0.45066866
15.085703 -12.682117 0.43320909
30.873808 -26.280027 0.89148968
30.717274 -26.473539 0.89164358
12.957511 -11.447304 0.3800168
12.596414 -11.266652 0.37144095
12.438859 -11.263872 0.36882421
11.77481 -10.794765 0.35107878
32.808258 -30.827566 0.98991412
29.257412 -27.831047 0.88788342
10.519773 -10.130396 0.32095334
29.050409 -28.321285 0.89208341
28.873949 -28.496893 0.89201742
28.718357 -28.693308 0.89263314
24.49943 -24.780268 0.76617223
27.670456 -28.333317 0.87079769
28.205471 -29.237926 0.89327079
26.317877 -27.618374 0.83882511
8.3956194 -8.9192219 0.26914638
8.3407345 -8.9705687 0.26914638
25.802351 -28.095177 0.83873719
25.628803 -28.252226 0.8387152
25.458305 -28.412674 0.83882511
18.660357 -21.084644 0.61901933
18.489178 -21.151325 0.617634
18.261047 -21.150862 0.6143356
6.025806 -7.0663629 0.20399185
18.025236 -21.403183 0.61519319
17.894848 -21.514919 0.61523718
17.783438 -21.649809 0.6159628
17.650263 -21.758518 0.6159628
6.1856136 -7.7215071 0.2173394
6.131916 -7.7514753 0.21711951
17.279387 -22.121473 0.61712825
17.149431 -22.234997 0.61734813
17.0151 -22.342989 0.61743611
16.886099 -22.458157 0.61774397
16.766453 -22.586231 0.61842561
4.9258652 -6.7211976 0.18301399
5.1406159 -7.1052699 0.19262335
10.226204 -14.319043 0.38674554
10.062692 -14.274476 0.38386494
4.7828455 -6.8737073 0.18391556
4.7298265 -6.8872662 0.18349776
4.5938106 -6.7779484 0.17982553
4.5304594 -6.7735977 0.17896794
9.572731 -14.504669 0.38197386
4.6706729 -7.1721764 0.18798359
4.5909109 -7.1451864 0.18653229
4.5159388 -7.1242452 0.1852569
4.4668398 -7.143343 0.18503702
4.2402844 -6.8744955 0.1773847
4.0540948 -6.6637907 0.17129365
3.9447217 -6.5745196 0.16836907
3.9933958 -6.749177 0.17221721
3.9619842 -6.7908239 0.172657
3.8833542 -6.7508764 0.17102978
6.4205594 -11.322051 0.28601223
4.3168073 -7.7221842 0.19431652
4.0990405 -7.4394221 0.18655428
3.9974999 -7.3616376 0.18398152
3.9531977 -7.3877897 0.1840255
3.4294255 -6.5045309 0.16146439
8.349144 -16.074671 0.39813605
8.2731228 -16.170099 0.39923552
3.2641284 -6.477272 0.15926546
8.1167307 -16.356379 0.4013465
8.0421114 -16.458872 0.40264386
2.9575644 -6.1479497 0.14978804
2.9090896 -6.1433916 0.1492383
7.8653259 -16.877783 0.40928465
7.7791204 -16.963894 0.41020823
7.7032537 -17.074186 0.41172549
7.6579576 -17.255463 0.41495791
7.5399384 -17.274637 0.41429824
2.575721 -6.0010052 0.14336714
7.3619738 -17.447844 0.4162553
2.6941459 -6.4957542 0.15440582
12.491223 -30.649315 0.72769082
12.314447 -30.754156 0.72837251
12.122951 -30.822622 0.72821856
2.3635414 -6.1187901 0.14400484
11.772154 -31.043854 0.72997773
2.5184438 -6.7657285 0.15851782
11.419809 -31.266741 0.7318688
2.5488691 -7.1132989 0.16592824
11.040562 -31.419617 0.73222065
10.845938 -31.482042 0.73211068
10.648726 -31.536633 0.73184681
1.7655997 -5.3361287 0.12335681
1.7470011 -5.3906112 0.12436832
1.6890999 -5.3230872 0.12256519
9.9513264 -32.045303 0.73776197
9.756547 -32.112457 0.73791587
9.5684376 -32.202381 0.73861957
9.376523 -32.280651 0.73908132
9.201479 -32.419327 0.74095041
9.0197439 -32.5378 0.74237972
8.8254099 -32.612793 0.74284148
2.7445984 -10.394148 0.2361843
2.6837609 -10.422411 0.23644817
2.5710917 -10.244743 0.2320503
2.2821925 -9.3357754 0.2111164
2.248934 -9.4507542 0.2134033
2.2296803 -9.6319036 0.21718548
2.1393735 -9.5069017 0.21406299
2.0938087 -9.5784512 0.21538235
1.9997249 -9.42486 0.21164416
1.8820184 -9.1461163 0.20511331
1.5924777 -7.9868183 0.178858
1.5400314 -7.9787688 0.17846219
1.4899451 -7.982172 0.17833026
1.4132673 -7.8376756 0.17489991
1.3636074 -7.8373356 0.174702
1.3042525 -7.7785063 0.17320673
1.2560223 -7.783402 0.17314076
1.1939943 -7.6990829 0.17109574
1.1158357 -7.4986005 0.16647798
1.0840503 -7.6052718 0.16869891
1.003486 -7.3631382 0.16317958
0.96112341 -7.3909683 0.16366334
0.90777266 -7.3322339 0.16223402
0.88937759 -7.5640526 0.16724761
0.84449744 -7.5832777 0.16755545
0.79596543 -7.5694256 0.16713765
0.74980062 -7.5771513 0.16720362
0.70560187 -7.6064968 0.16775335
0.65564018 -7.572834 0.16691777
0.61004287 -7.587676 0.16715965
0.56524968 -7.6152043 0.16768739
0.51830947 -7.6155372 0.16762142
0.47286808 -7.6395297 0.16808321
0.42742983 -7.6682401 0.16865492
0.38111264 -7.6856966 0.16898477
0.33490077 -7.7098646 0.16946854
0.28580067 -7.6638188 0.16841304
0.24209847 -7.7723508 0.17076591
0.1943038 -7.7696915 0.17067795
0.14713468 -7.7977271 0.17127167
0.099273264 -7.7974834 0.17124967
0.051610764 -7.8259377 0.17186537
0.0036101248 -7.8710966 0.1728549
-0.045233633 -7.9669456 0.17496587
-0.094294608 -7.981514 0.17529571
-0.14617787 -8.1427193 0.178858
-0.19727083 -8.1886444 0.1798915
-0.25032371 -8.2802143 0.1819365
-0.30487132 -8.3814297 0.18420142
-0.3607128 -8.4832821 0.18648832
-0.4240396 -8.7125788 0.19158985
-0.50004876 -9.1210957 0.20064947
-0.58114707 -9.5299883 0.20973107
-0.65167063 -9.7057953 0.21368916
-0.72115594 -9.8372173 0.21667972
-0.78348327 -9.857523 0.21722946
-0.84685493 -9.8863974 0.21797709
-0.90777516 -9.8840017 0.21804306
-0.97562498 -9.9518747 0.21967028
-1.0449636 -10.025249 0.22142942
-1.0988837 -9.9500837 0.21991216
-1.163044 -9.969965 0.22050588
-1.2461482 -10.141253 0.22446395
-1.3667365 -10.585552 0.23449111
-1.4338084 -10.592818 0.23484294
-1.5111151 -10.670931 0.23677801
-1.574807 -10.64959 0.23651414
-1.6353997 -10.609096 0.23583247
-1.7294512 -10.779507 0.23985653
-0.67007601 -4.019546 0.089361235
-0.70154667 -4.0547633 0.090240814
-0.72482419 -4.0415258 0.090042911
-2.066684 -11.127978 0.24867426
-2.1658556 -11.276105 0.25228053
-2.2620559 -11.398911 0.25533703
-2.3457997 -11.452396 0.2568543
-2.4319372 -11.513106 0.25854748
-2.0349438 -9.3498001 0.21019286
-3.7236764 -16.616772 0.37427756
-2.0960698 -9.0922651 0.20495938
-2.1949387 -9.2611465 0.2090714
-2.2469916 -9.2280769 0.2086316
-2.2958117 -9.1830788 0.20792796
-2.3411829 -9.1262102 0.20696042
-12.358187 -46.970711 1.0679984
-12.710718 -47.133385 1.0734518
-13.031366 -47.169186 1.0760685
-4.2048459 -14.523914 0.33229986
-4.2030277 -14.19109 0.32526326
-4.4656434 -14.744875 0.33858883
-4.4155898 -14.263554 0.32814386
-4.5404153 -14.354389 0.33087054
-4.5973625 -14.230175 0.32864961
-4.7876325 -14.514062 0.33588412
-4.8663907 -14.454092 0.33518046
-4.8997679 -14.263222 0.33144227
-4.9974422 -14.262137 0.33212394
-5.0851951 -14.232147 0.33214593
-5.0796971 -13.946105 0.32618681
-5.2507644 -14.145241 0.3315962
-5.2727365 -13.941631 0.32757214
-5.4397669 -14.12079 0.33256373
-5.5347056 -14.108551 0.33306947
-19.569099 -48.995792 1.1601559
-10.903359 -26.820421 0.63652289
-12.17417 -29.427475 0.70018208
-11.193657 -26.594297 0.63436788
