# .PCD v0.7 - Point Cloud Data file format
VERSION 0.7
FIELDS x y z
SIZE 4 4 4
TYPE F F F
COUNT 1 1 1
WIDTH 1453
HEIGHT 1
VIEWPOINT 0 0 0 1 0 0 0
POINTS 1453
DATA ascii
-1.4797964 4.5064158 -0.58340853
-1.4499911 4.5087967 -0.58255184
-1.4231924 4.5204487 -0.582919
-1.4003956 4.5452209 -0.58499962
-1.3928117 4.6211972 -0.5936892
-1.3725654 4.6572652 -0.59723848
-1.3445123 4.6675067 -0.59748328
-1.3222995 4.6985979 -0.60042065
-1.2973887 4.7209783 -0.60225648
-1.2642838 4.7135119 -0.60029823
-1.2491536 4.7739902 -0.60702962
-1.2259697 4.8056073 -0.61008936
-1.1895179 4.7851071 -0.60654008
-1.1711076 4.8376536 -0.61229235
-1.1582407 4.9162354 -0.62134916
-1.139799 4.9745231 -0.62783575
-1.1114111 4.9911108 -0.62905967
-1.1143215 5.1530476 -0.64864188
-1.3952641 6.6498218 -0.83638668
-1.3447429 6.6106019 -0.83038962
-1.112897 5.6478839 -0.70836776
-1.0776637 5.6516809 -0.7080006
-1.0620315 5.7616482 -0.72097379
-1.0247462 5.7573075 -0.71962756
-0.9789921 5.7028399 -0.71203941
-0.93426931 5.6499882 -0.70469606
-0.872464 5.4850645 -0.68340039
-0.84373671 5.5226917 -0.6874392
-0.80911511 5.5228543 -0.6868273
-0.77631468 5.5355783 -0.68780637
-0.74589193 5.5667977 -0.69111091
-0.71322936 5.5830827 -0.69257957
-0.79648423 6.5548596 -0.8127656
-0.81136096 7.0378118 -0.87212425
-0.76870036 7.0475912 -0.87273622
-0.72635639 7.0610609 -0.87383771
-0.68454432 7.0811906 -0.87579596
-0.64206547 7.0961308 -0.87714219
-0.59809566 7.0949917 -0.87653029
-0.55447304 7.097538 -0.87640786
-0.51141131 7.1077366 -0.87726462
-0.46811503 7.1156926 -0.87787658
-0.42485839 7.1253657 -0.87873328
-0.38208327 7.145678 -0.88093626
-0.3372466 7.1270695 -0.87836611
-0.29314223 7.120079 -0.87726462
-0.2497611 7.130671 -0.87836611
-0.20634688 7.1439743 -0.87983477
-0.16235065 7.1381602 -0.87897807
-0.11817046 7.1161981 -0.87616313
-0.074617974 7.1277056 -0.87750936
-0.030877525 7.1270366 -0.87738699
0.01283549 7.1171675 -0.87616313
0.056449968 7.1100073 -0.87530637
0.10001907 7.1055579 -0.87481683
0.14365625 7.1067948 -0.87506163
0.18723385 7.1047878 -0.8749392
0.23111489 7.112432 -0.8760407
0.27532691 7.1257563 -0.87787658
0.3192223 7.1278987 -0.87836611
0.36239654 7.114903 -0.87701982
0.40519688 7.0976825 -0.875184
0.44986805 7.1128912 -0.87738699
0.49549744 7.13871 -0.88093626
0.5399639 7.1444421 -0.88203776
0.5820114 7.1192327 -0.87934524
0.62316108 7.0868564 -0.87579596
0.66747081 7.0917921 -0.87689745
0.71265727 7.104351 -0.87897807
0.75676113 7.1047788 -0.87958997
0.79867285 7.0852079 -0.87775415
0.84154558 7.0752473 -0.87714219
0.88642222 7.0817676 -0.87861091
0.93218654 7.0939074 -0.8808139
0.9767794 7.0959201 -0.88179302
1.0167657 7.0652342 -0.87873328
1.0606877 7.0627885 -0.87922281
1.1084542 7.0845828 -0.88277209
1.152063 7.0786281 -0.88289452
1.1946477 7.0665321 -0.88228256
1.2374701 7.0561366 -0.88191539
1.2798551 7.0435286 -0.88130343
1.3175457 7.0062814 -0.87763178
1.3540697 6.964941 -0.87347054
1.393849 6.9419055 -0.87163472
1.4392369 6.9468284 -0.87334818
1.4766512 6.9136019 -0.87028843
1.513499 6.8792095 -0.86710632
1.5550228 6.86689 -0.86673915
1.5987041 6.8639851 -0.86759585
1.6405597 6.8530812 -0.86747348
1.6870817 6.8611975 -0.8697989
1.7272061 6.8430185 -0.86881977
1.7641851 6.8130755 -0.86637199
1.8013713 6.7848563 -0.864169
1.8500044 6.7995324 -0.86747348
0.34219468 1.2286663 -0.15578128
0.35435677 1.2427682 -0.1578619
0.36587003 1.2539083 -0.15957534
0.37469307 1.2554436 -0.16006491
0.38847607 1.2730544 -0.16263507
0.39716709 1.273489 -0.16300224
0.40497357 1.2710282 -0.16300224
0.41307211 1.2694631 -0.16312462
0.42054054 1.2659628 -0.16300224
0.42989457 1.2680579 -0.16361418
0.43701798 1.2635205 -0.1633694
0.44575357 1.2636229 -0.16373657
0.45484293 1.2645994 -0.16422613
0.46430278 1.2664436 -0.16483808
0.47310731 1.2663598 -0.16520524
0.48228148 1.2671431 -0.16569479
0.48968855 1.2632347 -0.1655724
0.50071144 1.2685142 -0.16667391
0.45665482 1.1364994 -0.14953944
2.6447477 6.4640675 -0.85976297
2.6855052 6.4504666 -0.86013013
2.7273564 6.4393501 -0.86086446
2.7668164 6.4224944 -0.86086446
2.8073668 6.408124 -0.86123163
2.8522875 6.40347 -0.86294508
2.8894775 6.3813276 -0.86233312
2.9306531 6.3679857 -0.86294508
2.9642048 6.3381968 -0.86135405
0.57319725 1.2067564 -0.16324702
0.57196134 1.1853409 -0.16079924
0.55824971 1.1390356 -0.15492456
0.56744027 1.1400307 -0.1555365
0.57039398 1.1285564 -0.15443501
0.57549477 1.1215036 -0.15394545
0.58603489 1.1249924 -0.15492456
0.59107035 1.117866 -0.15443501
0.60073507 1.119465 -0.15516934
0.61471492 1.1288308 -0.15700518
0.62210989 1.1259063 -0.15712756
0.62755024 1.119471 -0.15676039
0.64127827 1.1276764 -0.15847385
0.65016973 1.1271588 -0.1589634
0.65256166 1.1154393 -0.1578619
0.62697279 1.0567924 -0.150029
3.6520517 6.0682373 -0.87187952
3.7005911 6.0643525 -0.87457204
3.7413869 6.0474401 -0.8754288
3.7768407 6.0218468 -0.87506163
3.8131864 5.9977221 -0.8749392
3.849916 5.9742117 -0.8749392
3.8908427 5.9571238 -0.87591833
3.9201994 5.9223795 -0.87432724
3.9597826 5.9031591 -0.87506163
3.9925811 5.873827 -0.87432724
4.0319252 5.8541222 -0.87506163
4.0734491 5.8374119 -0.87628549
4.1034608 5.8042035 -0.87506163
4.1528673 5.7982807 -0.87799895
4.1778755 5.7582307 -0.87579596
4.2084265 5.72609 -0.87481683
4.2482228 5.7065282 -0.87579596
4.2855477 5.6835237 -0.87628549
4.3209434 5.6579099 -0.87640786
4.365901 5.6446362 -0.87848848
4.3980055 5.6146159 -0.87799895
4.4249716 5.5781941 -0.87653029
4.4634666 5.5563545 -0.87738699
4.4930911 5.5234733 -0.87653029
4.516171 5.4827771 -0.87444967
4.5497274 5.4549637 -0.87444967
4.5811915 5.4246697 -0.87408251
4.6047149 5.3851433 -0.87224668
4.6519632 5.3732953 -0.8749392
4.6743774 5.3327088 -0.87298101
4.7109632 5.3083806 -0.87371534
4.7394662 5.2749453 -0.87298101
4.7657328 5.2391577 -0.87187952
4.7735853 5.1835356 -0.86747348
4.8073316 5.1563258 -0.86784065
4.8368354 5.1245661 -0.86747348
4.8695598 5.0962267 -0.86771828
4.891767 5.0569782 -0.86612719
4.9268708 5.0311222 -0.86686152
4.9702263 5.013483 -0.86906457
5.0093317 4.9912982 -0.87053323
5.0250087 4.945848 -0.86796302
5.04601 4.9059281 -0.86637199
5.0760174 4.8748741 -0.86637199
5.1007934 4.8388553 -0.86551523
5.1224213 4.8000016 -0.864169
5.1430364 4.7603908 -0.86270028
5.1692185 4.7260656 -0.86221075
5.2032762 4.698915 -0.86306751
5.2357135 4.6702032 -0.86367941
5.2694836 4.6425819 -0.86453617
5.2888861 4.6023436 -0.86306751
5.2936921 4.5497518 -0.85927343
5.3109159 4.508193 -0.85755998
5.3346748 4.4723334 -0.85694802
5.3543711 4.4331865 -0.85572416
5.3845453 4.4027624 -0.85621369
5.4029651 4.3627825 -0.8548674
5.4249768 4.3258357 -0.85413307
5.4475188 4.2893977 -0.85352111
5.4517961 4.2388349 -0.85009426
0.97297871 0.74722373 -0.14978422
0.96884477 0.73464501 -0.14843795
0.95187944 0.71263111 -0.14513344
0.96581316 0.71385413 -0.14660211
0.95253426 0.69504791 -0.14390954
0.94469959 0.68049151 -0.14207371
0.9496662 0.67525709 -0.1421961
0.95216662 0.66827732 -0.14195132
0.96032906 0.66524738 -0.14256327
0.96930939 0.66270226 -0.1432976
0.97582591 0.65840697 -0.14366478
0.98067373 0.6529569 -0.14378716
0.98880965 0.64965129 -0.14439911
0.99777466 0.64681 -0.14513344
1.0075781 0.64441764 -0.14599016
1.0224265 0.64510572 -0.14758122
1.0322645 0.64249003 -0.14843795
1.0539514 0.64704496 -0.15100811
1.0562036 0.63953811 -0.15076333
1.049029 0.6264326 -0.14917228
1.1460831 0.67485833 -0.16251267
1.1785294 0.68425322 -0.16655152
1.1964886 0.6848954 -0.16850974
1.1842442 0.66827649 -0.16618435
1.1883223 0.66099751 -0.16618435
1.1775596 0.64558536 -0.16410373
1.1745125 0.63457495 -0.16312462
1.1801364 0.62828881 -0.1633694
1.1830903 0.62057495 -0.16324702
1.1807032 0.61011577 -0.16239029
1.1888474 0.60510981 -0.16300224
1.187214 0.59513623 -0.16226791
1.1908433 0.58784038 -0.16226791
1.2015696 0.58399183 -0.16324702
1.2105024 0.57917732 -0.16398135
1.2095436 0.5696255 -0.1633694
1.2103143 0.56094158 -0.16300224
1.1062654 0.50451958 -0.14843795
6.0511994 2.7137592 -0.81631488
6.1358423 2.7066181 -0.82549405
6.1350346 2.6614141 -0.82316864
6.1457715 2.6213841 -0.82243431
6.1644864 2.5847762 -0.82280147
6.1829829 2.5480373 -0.82316864
6.1819425 2.5033467 -0.82096565
6.1916528 2.463167 -0.82023132
6.2029524 2.4236846 -0.81974179
6.2241936 2.3880668 -0.82059848
6.2535901 2.3554275 -0.82255673
6.2763033 2.3201087 -0.82365823
6.2829571 2.2788475 -0.8226791
6.2809248 2.2345982 -0.82059848
6.2748389 2.1891522 -0.81802833
6.2477722 2.1368003 -0.8127656
6.2560606 2.0968478 -0.81215364
6.2603221 2.0556355 -0.81105214
6.2454166 2.008374 -0.80750287
6.2547822 1.969121 -0.8071357
6.272438 1.9324584 -0.80787003
6.2822766 1.8933623 -0.80762523
6.2813997 1.8511325 -0.80603421
6.2792878 1.8087103 -0.80432075
6.280714 1.7674592 -0.80309683
6.3239794 1.7378284 -0.80725807
6.3364401 1.6995066 -0.80750287
6.3294659 1.6560736 -0.80529988
6.330853 1.6149981 -0.80419838
6.3281221 1.5730102 -0.8026073
6.3376546 1.534152 -0.8026073
6.3566093 1.4975115 -0.80383122
6.3579388 1.456707 -0.80285209
6.3338194 1.4103351 -0.79869086
6.3442941 1.3718643 -0.79893565
6.3545346 1.3333182 -0.79918039
6.3353643 1.2887639 -0.79575354
6.3149133 1.2443033 -0.79220426
6.31463 1.2040455 -0.79122514
6.3492284 1.1703134 -0.79465199
6.359221 1.1318549 -0.79501921
6.3367014 1.0877777 -0.7913475
6.3226933 1.0454766 -0.78877735
6.3221273 1.0055707 -0.78792059
6.3291602 0.96690965 -0.78804302
6.3320274 0.92762494 -0.78767586
6.3179431 0.88599908 -0.78522807
6.3065376 0.84497631 -0.78314745
6.3116031 0.80626422 -0.78314745
6.3203721 0.76800042 -0.78363699
6.3220081 0.72886401 -0.78326982
6.303669 0.68758482 -0.78045487
6.278151 0.64584756 -0.77678323
6.2553229 0.60473585 -0.77347869
6.2272854 0.56348169 -0.76956224
5.0537424 0.42609292 -0.62391931
5.0384512 0.39368495 -0.62171632
5.0051346 0.36019927 -0.61731029
5.0112119 0.32974204 -0.61779988
5.1320276 0.30607226 -0.63248652
5.1595774 0.27595392 -0.63566864
5.1849666 0.24541518 -0.63860601
5.2121572 0.21465681 -0.64178813
5.2470999 0.18385164 -0.64594936
5.270947 0.15231086 -0.64876431
5.2985725 0.12057446 -0.65206879
5.3369217 0.088685654 -0.65671957
5.3572135 0.056144353 -0.65916735
5.3971558 0.023442673 -0.66406292
5.0991902 0.014274824 -0.72762007
5.0952225 -0.017000766 -0.7270537
5.1019511 -0.048328921 -0.72804487
5.1094766 -0.079755619 -0.72917759
5.1019635 -0.11095547 -0.72818643
5.0724897 -0.14146172 -0.72408026
5.0477815 -0.1717782 -0.72068202
5.0268502 -0.20195529 -0.71785021
5.0235386 -0.23270431 -0.71756703
5.0289364 -0.26388603 -0.71855813
5.0291986 -0.29485366 -0.71884131
5.0006227 -0.323982 -0.71501833
4.9689174 -0.35256103 -0.71077055
4.9439592 -0.38129526 -0.70751393
4.9464593 -0.41203389 -0.70822191
4.97539 -0.44519624 -0.71275288
4.9410305 -0.47270352 -0.70822191
4.9311428 -0.50231081 -0.70723075
4.9348574 -0.53330195 -0.70822191
4.9196897 -0.56222439 -0.70652282
4.884697 -0.5886147 -0.70199186
4.8564415 -0.61546719 -0.69845206
4.8329473 -0.64264709 -0.69562018
4.2768993 -0.59551007 -0.61590368
4.0272775 -0.58600181 -0.58036399
3.9893498 -0.60550779 -0.57540828
3.9796929 -0.62904817 -0.57455873
4.8070526 -0.7899527 -0.69505382
4.8118734 -0.82109725 -0.69646972
4.2608552 -0.75407869 -0.61717802
4.0876932 -0.74935406 -0.59268254
4.0859365 -0.77497452 -0.59310734
4.0558462 -0.79508328 -0.58942592
4.0266347 -0.81504852 -0.58588612
4.026403 -0.84075111 -0.58659405
4.0134258 -0.86377573 -0.58546132
4.0254474 -0.89223862 -0.58801001
4.0314789 -0.91956151 -0.5897091
4.0527472 -0.95060647 -0.59367371
4.0978451 -0.98774236 -0.60117811
4.1320677 -1.0228521 -0.60712498
4.1938367 -1.0654835 -0.61717802
4.218833 -1.0994297 -0.62185055
4.2378311 -1.1321903 -0.62567359
4.461874 -1.2213908 -0.65993893
4.6268272 -1.2970885 -0.68556714
4.6035566 -1.3210869 -0.68330169
4.6010628 -1.3509814 -0.68415123
4.5708799 -1.372642 -0.68089461
4.5557466 -1.3986298 -0.67990345
4.5442457 -1.4256684 -0.67947865
4.5391831 -1.4547324 -0.68004501
4.5329943 -1.4834803 -0.68046981
4.5275626 -1.5125206 -0.68103617
4.5219445 -1.5415498 -0.68160254
4.5067902 -1.5673168 -0.68075299
4.4868255 -1.5913019 -0.67919546
4.4732528 -1.6174566 -0.6786291
4.4706755 -1.6476111 -0.67976183
4.4521403 -1.6718806 -0.67848754
4.4214563 -1.6913885 -0.67537248
4.3980808 -1.7134569 -0.67339021
4.3681598 -1.7327482 -0.67041677
4.3473477 -1.7554423 -0.66885924
4.3465676 -1.7862217 -0.67041677
4.3336987 -1.8120946 -0.67013359
4.337985 -1.8452367 -0.67254066
4.3447533 -1.8796781 -0.67537248
4.3548861 -1.915866 -0.67877072
4.3041892 -1.9251763 -0.67268223
4.3013077 -1.955646 -0.67409813
4.2829361 -1.9790956 -0.67310703
4.2545819 -1.9977667 -0.67055833
4.2476048 -2.0263915 -0.67140788
4.2288551 -2.0493948 -0.67041677
4.1877775 -2.0613184 -0.66588581
3.4816868 -1.740502 -0.55501896
3.4365127 -1.7443637 -0.54949689
3.3755834 -1.7395771 -0.54142612
3.3604598 -1.7579631 -0.54071814
3.3382428 -1.7725161 -0.53887743
3.3168457 -1.7873324 -0.53717834
3.2910495 -1.799579 -0.53477126
3.2764826 -1.8178183 -0.5342049
3.2971885 -1.8558484 -0.53944379
3.3270073 -1.8995982 -0.54624027
3.4129553 -1.9765161 -0.5623818
3.5134468 -2.0635803 -0.58107197
3.5372932 -2.1068764 -0.58716047
3.9556499 -2.3889701 -0.65923095
3.960336 -2.4250839 -0.66248757
3.9075317 -2.425848 -0.65611595
3.9076552 -2.4592674 -0.65866458
3.8958304 -2.485327 -0.65923095
3.8672056 -2.5005863 -0.65696549
3.8443375 -2.5193853 -0.65569115
3.8296311 -2.543474 -0.65583277
3.8114884 -2.5652664 -0.65540797
3.809581 -2.5980849 -0.65781504
3.8008983 -2.6264751 -0.65908939
3.7749786 -2.6429358 -0.65739024
3.7441556 -2.6557419 -0.6548416
3.718142 -2.6717353 -0.65314251
3.7176871 -2.7061484 -0.65597433
3.6739202 -2.7089384 -0.65116018
3.6588156 -2.7326145 -0.65144336
3.6451378 -2.7574015 -0.65200973
3.6210773 -2.7742984 -0.65073544
3.6094615 -2.8007116 -0.65172654
3.5875382 -2.8191371 -0.650877
3.5709474 -2.8417132 -0.65101862
3.5588398 -2.8679178 -0.65200973
3.5350394 -2.8846943 -0.650877
3.5149832 -2.9044392 -0.65045226
3.4993734 -2.9278574 -0.650877
3.4798317 -2.9479945 -0.65059382
3.466938 -2.9738016 -0.65158498
3.4590907 -3.0041044 -0.65356725
3.4049048 -2.9939013 -0.64677083
3.3827729 -3.0114462 -0.64606285
3.3524647 -3.0215435 -0.6437974
3.3404438 -3.0480614 -0.64507174
3.3231328 -3.0698438 -0.64535493
3.297003 -3.0834155 -0.64393896
3.2693942 -3.0954216 -0.64223987
3.2546279 -3.1195331 -0.64308941
3.2347152 -3.1387553 -0.64294785
3.2132764 -3.1564631 -0.64252305
3.1819136 -3.1642551 -0.64011598
3.1791837 -3.2005732 -0.64351422
3.1574054 -3.2179005 -0.64308941
3.1389794 -3.2386346 -0.6433726
3.1060393 -3.2442503 -0.64068234
3.0792716 -3.2560561 -0.63926643
3.0599108 -3.2756121 -0.63940805
3.039083 -3.2935982 -0.63926643
3.0168157 -3.309989 -0.63884163
3.0024111 -3.3350582 -0.64011598
2.9621539 -3.3312278 -0.63586819
2.9318578 -3.3381851 -0.63374436
2.8723929 -3.3112504 -0.62524879
2.8217449 -3.2934854 -0.61859393
2.745842 -3.2450006 -0.60627544
2.2112949 -2.8175213 -0.51055896
2.1933589 -2.8302543 -0.5104174
2.1825702 -2.8523059 -0.51197487
2.173981 -2.8774903 -0.51409876
2.183517 -2.9272714 -0.52061206
2.5964756 -3.5256159 -0.62454081
2.6487381 -3.6431568 -0.64252305
2.6269116 -3.6601446 -0.64266467
2.5963907 -3.6648867 -0.64068234
2.5653434 -3.668581 -0.63855845
2.5354738 -3.6736624 -0.6367178
2.5089831 -3.683424 -0.63572663
2.4874396 -3.7003925 -0.63600981
2.4657822 -3.7172351 -0.63629299
2.4396737 -3.7273257 -0.63544345
2.4070883 -3.727258 -0.63289475
2.383641 -3.7411227 -0.63275319
2.3669641 -3.7657344 -0.63445228
2.3427699 -3.7785044 -0.6341691
2.3117924 -3.7801418 -0.63204521
2.2604272 -3.7476377 -0.62425762
2.2505505 -3.7835555 -0.62793905
2.2463293 -3.8297381 -0.63331956
2.228241 -3.8528748 -0.63487709
2.2035775 -3.8647547 -0.6345939
2.1793373 -3.8773398 -0.63445228
2.1430287 -3.8681271 -0.63077086
2.1197286 -3.8820724 -0.63091248
2.0977457 -3.8984923 -0.63147885
2.0728576 -3.9095414 -0.63119566
2.044704 -3.9142907 -0.62992132
2.0174763 -3.9206018 -0.62893021
1.9929343 -3.932024 -0.62878859
1.9705393 -3.947721 -0.62935495
1.9637513 -3.9952717 -0.63501865
1.9340239 -3.9965537 -0.63331956
1.9000961 -3.9886854 -0.6302045
1.8734844 -3.9957876 -0.62949657
1.8476868 -4.0045114 -0.62907177
1.8128473 -3.9932404 -0.62553197
1.7971948 -4.0241728 -0.62864703
1.7700796 -4.0296865 -0.62779742
1.739823 -4.0277495 -0.62581515
1.6147282 -3.8679316 -0.59777987
1.5770569 -3.8438826 -0.59254098
1.5641792 -3.8801112 -0.59664714
1.5432587 -3.8969982 -0.59777987
1.5193181 -3.9063942 -0.59777987
1.4942605 -3.912869 -0.59735507
1.5042901 -4.0127983 -0.61123115
1.5254579 -4.1464386 -0.6302045
1.4872108 -4.1203399 -0.62482399
1.4625617 -4.1312537 -0.62510717
1.4339377 -4.1307988 -0.62369126
1.4159021 -4.1610732 -0.62694788
1.3906568 -4.1706214 -0.6270895
1.3588903 -4.1602569 -0.62425762
1.3282086 -4.1524882 -0.62185055
1.2970817 -4.1426115 -0.61916029
1.276861 -4.1675286 -0.62170899
1.2518342 -4.1771812 -0.62199217
1.221724 -4.1695848 -0.61972666
1.2012974 -4.1950836 -0.62241691
1.1771351 -4.2080951 -0.62326652
1.1468563 -4.1990051 -0.62085944
1.123621 -4.215528 -0.62227535
1.0932479 -4.2050986 -0.61972666
1.0652353 -4.2030916 -0.61845237
1.0372885 -4.2008991 -0.61717802
1.0177444 -4.2331715 -0.62100101
0.98791522 -4.2229509 -0.61859393
0.96374285 -4.2366548 -0.61972666
0.93815666 -4.2444215 -0.6200099
0.90793866 -4.230741 -0.61717802
0.8817603 -4.2352633 -0.61703646
0.85183734 -4.2211871 -0.61420459
0.82231051 -4.2078757 -0.61151433
0.79573977 -4.2089515 -0.61094797
0.77720004 -4.2536793 -0.61675322
0.7534945 -4.272016 -0.61873555
0.72759998 -4.278511 -0.61901873
0.69973266 -4.2731256 -0.61760283
0.6722672 -4.2695165 -0.61647004
0.64368743 -4.2579007 -0.61420459
0.61726516 -4.2598104 -0.6139214
0.59220451 -4.2713618 -0.61505413
0.56780583 -4.2886539 -0.61703646
0.54197663 -4.2959857 -0.61760283
0.51607883 -4.3031616 -0.61816919
0.48742568 -4.2865763 -0.61533731
0.45963126 -4.2757068 -0.61335504
0.43418664 -4.286325 -0.61448777
0.40731487 -4.2829962 -0.61363822
0.38041255 -4.2785125 -0.61264706
0.35398936 -4.2787929 -0.61236387
0.32757711 -4.2789106 -0.61208069
0.30013198 -4.2640529 -0.60967362
0.27472568 -4.2776685 -0.61137271
0.24853076 -4.280262 -0.61151433
0.22231434 -4.2826953 -0.61165595
0.19625901 -4.2889228 -0.61236387
0.16934906 -4.2752094 -0.61023998
0.14347953 -4.2870512 -0.61179751
0.11771571 -4.307642 -0.61462939
0.091071151 -4.2983861 -0.61321342
0.064469419 -4.2840166 -0.61108953
0.038011581 -4.2655234 -0.60839927
0.011786011 -4.247858 -0.60585064
-0.014284939 -4.2498307 -0.60613382
-0.040509205 -4.265501 -0.60839927
-0.067416795 -4.3126826 -0.61519575
-0.093214221 -4.2815075 -0.61080635
-0.11967561 -4.2877817 -0.61179751
-0.14558016 -4.275094 -0.61009842
-0.17188813 -4.2760987 -0.6103816
-0.19844234 -4.2818856 -0.61137271
-0.22678173 -4.3201308 -0.61703646
-0.25380561 -4.3275514 -0.61831075
-0.27926826 -4.3091192 -0.61590368
-0.30486402 -4.2954755 -0.61420459
-0.33022693 -4.2806926 -0.61236387
-0.35533786 -4.2647748 -0.6103816
-0.38273272 -4.2763181 -0.61236387
-0.41103581 -4.2955689 -0.61547893
-0.43708459 -4.2900109 -0.61505413
-0.46095595 -4.2646117 -0.61179751
-0.48846173 -4.2735052 -0.6134966
-0.51313633 -4.2576513 -0.61165595
-0.53701311 -4.2367449 -0.60910726
-0.56156528 -4.2225761 -0.60754973
-0.58800942 -4.2229724 -0.60811609
-0.61519152 -4.2281017 -0.60939044
-0.64468461 -4.2477369 -0.61278868
-0.67397851 -4.2642355 -0.61576211
-0.70077223 -4.2639275 -0.61632848
-0.72309512 -4.2371025 -0.61307186
-0.75132072 -4.2452583 -0.61491257
-0.7816354 -4.263938 -0.61831075
-0.80686212 -4.2541986 -0.61760283
-0.82952499 -4.2316813 -0.61505413
-0.85311961 -4.2148685 -0.61335504
-0.87876332 -4.2085853 -0.61321342
-0.9066515 -4.2127924 -0.61462939
-0.93441027 -4.2158484 -0.61590368
-0.95960069 -4.20714 -0.61547893
-0.9847194 -4.1982813 -0.61505413
-1.0141702 -4.2075586 -0.61731964
-1.0368778 -4.1887641 -0.61547893
-1.0615855 -4.1784854 -0.61491257
-1.0901983 -4.1833882 -0.61661166
-1.1214647 -4.1976614 -0.61972666
-1.1516409 -4.2069335 -0.62213373
-1.1712894 -4.1778641 -0.61887711
-1.1917167 -4.1525187 -0.61618686
-1.2157797 -4.140379 -0.61547893
-1.2394542 -4.1271524 -0.61462939
-1.2647545 -4.1194696 -0.61462939
-1.292377 -4.1191883 -0.61576211
-1.3278953 -4.1432338 -0.62057626
-1.3474451 -4.1171317 -0.61788601
-1.3748767 -4.1153593 -0.61887711
-1.3953127 -4.0927901 -0.61675322
-1.4203994 -4.0841517 -0.61675322
-1.4649479 -4.1304083 -0.62510717
-1.4875722 -4.113894 -0.62397444
-1.4963613 -4.0601015 -0.61717802
-1.5160271 -4.036942 -0.61505413
-1.5471328 -4.0442071 -0.61760283
-1.5805402 -4.0567765 -0.62100101
-1.5944557 -4.0193958 -0.61675322
-1.6224231 -4.0177979 -0.61802757
-1.6515591 -4.0187559 -0.61972666
-1.6784772 -4.0140262 -0.62057626
-1.7038499 -4.0054736 -0.62085944
-1.7236797 -3.9840407 -0.61916029
-1.7476943 -3.9724832 -0.61901873
-1.7728442 -3.9634924 -0.61930192
-1.7971305 -3.9525394 -0.61930192
-1.8279908 -3.955817 -0.62156737
-1.8568558 -3.9543836 -0.6231249
-1.8874763 -3.9563184 -0.62524879
-1.9048108 -3.9304082 -0.62298334
-1.9232098 -3.9070997 -0.62114263
-1.9413946 -3.883714 -0.61930192
-1.9638444 -3.8690803 -0.61887711
-1.9852809 -3.8525574 -0.61816919
-2.0125523 -3.8473213 -0.61930192
-2.0379775 -3.8383975 -0.61986828
-2.0624299 -3.8275638 -0.62015146
-2.0877757 -3.8183112 -0.62071782
-2.1106849 -3.8045633 -0.62057626
-2.123796 -3.7734232 -0.61760283
-2.1478908 -3.7620401 -0.61788601
-2.1620064 -3.7333694 -0.61533731
-2.1863768 -3.7225943 -0.61576211
-2.2162673 -3.7210166 -0.61774439
-2.2600348 -3.7420931 -0.6235497
-2.3031099 -3.7610829 -0.62907177
-2.3240561 -3.7435162 -0.62850541
-2.3385477 -3.7157793 -0.62623996
-2.3490605 -3.6821637 -0.62298334
-2.3656981 -3.6585357 -0.62142581
-2.3756244 -3.6249065 -0.61816919
-2.3961792 -3.6077876 -0.61774439
-2.4160607 -3.5897317 -0.61717802
-2.4430602 -3.5822005 -0.61845237
-2.46837 -3.5720298 -0.61930192
-2.4930792 -3.5608718 -0.6200099
-2.5377855 -3.5778081 -0.62567359
-2.5712419 -3.5782487 -0.62850541
-2.5692677 -3.5295873 -0.62270015
-2.5844157 -3.5049911 -0.62114263
-2.6141646 -3.5001721 -0.6231249
-2.6373832 -3.4864347 -0.6235497
-2.660532 -3.4725442 -0.62397444
-2.6854293 -3.4608471 -0.62482399
-2.7053912 -3.4427478 -0.62454081
-2.7326276 -3.4338298 -0.62595677
-2.7530248 -3.4162269 -0.62581515
-2.795836 -3.4261177 -0.63077086
-2.83635 -3.4325573 -0.63516027
-2.84148 -3.3961062 -0.63162047
-2.8545873 -3.3695424 -0.62992132
-2.8668315 -3.3421946 -0.62808067
-2.8957219 -3.3342583 -0.62992132
-2.9174333 -3.317915 -0.6302045
-2.9403691 -3.3029094 -0.63077086
-2.9691944 -3.2943659 -0.63261157
-2.9760096 -3.2614584 -0.62977976
-2.9778316 -3.223501 -0.62595677
-2.9968786 -3.2044456 -0.62581515
-3.0239697 -3.1939051 -0.62737268
-3.0606325 -3.1931591 -0.63091248
-3.0829248 -3.1771617 -0.63147885
-3.1072166 -3.1631293 -0.63247001
-3.1140039 -3.1313677 -0.62992132
-3.1247325 -3.1038287 -0.62822223
-3.1514897 -3.0922248 -0.62977976
-3.1768005 -3.0790312 -0.6310541
-3.2113624 -3.0745437 -0.6341691
-3.2560561 -3.0792716 -0.63926643
-3.2517431 -3.0376072 -0.63473547
-3.2732301 -3.0202835 -0.63530183
-3.2799957 -2.9894714 -0.63303638
-3.2916567 -2.9633276 -0.63176203
-3.3097775 -2.9430747 -0.63176203
-3.3448784 -2.9377382 -0.63501865
-3.3680747 -2.9217002 -0.63600981
-3.3859386 -2.9009793 -0.63600981
-3.4112308 -2.8865445 -0.63742572
-3.4341948 -2.8700035 -0.63841689
-3.4570837 -2.8532894 -0.63940805
-3.4737589 -2.8313978 -0.63926643
-3.4795005 -2.8007176 -0.63714254
-3.5012691 -2.7830117 -0.63799208
-3.5260656 -2.7675889 -0.63940805
-3.5437632 -2.7465076 -0.63954961
-3.5424695 -2.7108727 -0.63629299
-3.5827284 -2.7069919 -0.64054078
-3.6167254 -2.6979818 -0.64365578
-3.6419787 -2.682198 -0.64521331
-3.6495614 -2.6533961 -0.64365578
-3.6569281 -2.6246023 -0.64209831
-3.6705403 -2.6003973 -0.64167351
-3.6880493 -2.5789611 -0.64195669
-3.7021747 -2.5551584 -0.64167351
-3.7096026 -2.5268202 -0.6402576
-3.7406452 -2.5145061 -0.64294785
-3.7617774 -2.4953377 -0.64393896
-3.7968943 -2.4852231 -0.6473372
-3.8070829 -2.4586561 -0.64648765
-3.819593 -2.4336538 -0.64606285
-3.8168547 -2.3991063 -0.64308941
-3.8424399 -2.3824239 -0.64493012
-3.8612082 -2.3613856 -0.64563811
-3.8756247 -2.3376491 -0.64563811
-3.877985 -2.3067379 -0.64365578
-3.8971889 -2.2859054 -0.64450532
-3.9317062 -2.2738469 -0.64790356
-3.9619222 -2.2589982 -0.65059382
-3.9826117 -2.2385271 -0.65172654
-3.9824185 -2.2063701 -0.64946109
-3.9880629 -2.1776223 -0.64818674
-4.0022206 -2.1535802 -0.64832836
-4.0319757 -2.1377954 -0.65101862
-4.0520363 -2.116683 -0.65215135
-4.0587864 -2.088609 -0.65116018
-4.0759401 -2.0659037 -0.65186816
-4.0965104 -2.0448353 -0.65314251
-4.1134219 -2.0218451 -0.65385044
-4.1364422 -2.0017438 -0.65554953
-4.1540089 -1.9788804 -0.65639913
-4.1454592 -1.9436862 -0.65314251
-4.1564088 -1.9177988 -0.65300089
-4.168098 -1.8922594 -0.65300089
-4.176919 -1.8654374 -0.65257609
-4.200068 -1.8449504 -0.6544168
-4.226757 -1.8258201 -0.65682387
-4.2488136 -1.804496 -0.65852302
-4.2570658 -1.7772472 -0.65809822
-4.2889538 -1.7597383 -0.66135484
-4.2904897 -1.7296861 -0.65993893
-4.289978 -1.6989521 -0.65823978
-4.3307662 -1.6844432 -0.66291237
-4.3548913 -1.663138 -0.66503626
-4.3455491 -1.6290855 -0.66206282
-4.3498893 -1.6003395 -0.66121328
-4.3642826 -1.5753002 -0.6619212
-4.3915958 -1.5547712 -0.66461146
-4.4263015 -1.5365644 -0.66843444
-4.4056587 -1.4991674 -0.66390347
-4.4110184 -1.4708534 -0.66333711
-4.442543 -1.4511403 -0.66673535
-4.4664488 -1.4286816 -0.6690008
-4.4477358 -1.3926671 -0.66489464
-4.4694476 -1.3694119 -0.66687697
-4.493886 -1.3467956 -0.66928399
-4.500165 -1.3186392 -0.6690008
-4.5005584 -1.2888205 -0.66786808
-4.4988489 -1.2585132 -0.66645217
-4.5083957 -1.231407 -0.66673535
-4.5187364 -1.2044861 -0.66716015
-4.5394545 -1.1802262 -0.66914243
-4.5590849 -1.1555138 -0.67098314
-4.5612841 -1.1263309 -0.67027515
-4.5565596 -1.0955436 -0.66857606
-4.5593405 -1.0666618 -0.6680097
-4.5860696 -1.0432802 -0.67098314
-4.5981841 -1.0164037 -0.67183268
-4.6062698 -0.98858643 -0.67211586
-4.6103106 -0.95990044 -0.67183268
-4.6122322 -0.93081015 -0.67126632
-4.6275721 -0.90439254 -0.67268223
-4.647624 -0.87874186 -0.67480612
-4.6470857 -0.84913969 -0.67395657
-4.6697559 -0.82370728 -0.67650521
-4.6825294 -0.79636759 -0.67763793
-4.6697431 -0.76473904 -0.6750893
-4.6635919 -0.73437637 -0.67353177
-4.6934586 -0.70959824 -0.67721319
-4.6928253 -0.68007588 -0.67650521
-4.7057347 -0.65249324 -0.67777956
-4.6900229 -0.62100565 -0.67494768
-4.7212443 -0.59568989 -0.67891228
-4.7385707 -0.56836194 -0.68089461
-4.7645912 -0.54185164 -0.68415123
-4.7501097 -0.51069939 -0.68160254
-4.7442899 -0.48064443 -0.68032819
-4.7589755 -0.45265132 -0.68202734
-4.7774396 -0.42484736 -0.68429279
-4.7937684 -0.39667022 -0.68627512
-4.7892027 -0.36671877 -0.68528396
-4.7864256 -0.33697763 -0.68457597
-4.8051968 -0.30868337 -0.68698305
-4.8109531 -0.27942353 -0.68754941
-4.8372922 -0.25118542 -0.69108921
-4.8684087 -0.22286153 -0.695337
-4.8617716 -0.1926707 -0.69420427
-4.8549471 -0.16256976 -0.69307154
-4.8746548 -0.13329385 -0.6957618
-4.8783503 -0.10344436 -0.69618654
-4.8798828 -0.07352446 -0.69632816
-4.8861809 -0.043634485 -0.69717771
-4.8873467 -0.013655515 -0.69731933
-4.8863492 0.01632976 -0.69717771
-4.8831873 0.046283763 -0.69675291
-4.8966684 0.076460153 -0.69873524
-4.9238186 0.10710333 -0.70269984
-4.9181209 0.13717593 -0.70199186
-4.8825593 0.16617632 -0.69703609
-4.8913388 0.19652815 -0.69845206
-4.9127851 0.22758785 -0.70170867
-4.9488621 0.25969431 -0.70708919
-4.9619985 0.29092228 -0.70921308
-4.9443145 0.32034102 -0.70694757
-4.9333692 0.3500433 -0.70567328
-4.9449463 0.38137123 -0.70765555
-4.9513917 0.41244411 -0.7089299
-4.9882078 0.44634154 -0.71459359
-4.9765062 0.47609288 -0.71331924
-4.9606881 0.50531662 -0.71147853
-4.9584785 0.5358516 -0.71162015
-4.9570642 0.56649071 -0.71190333
-4.9525123 0.59677768 -0.71176171
-4.9536681 0.62777615 -0.7124697
-4.9614983 0.65972382 -0.71416879
-4.9789271 0.69315481 -0.71728384
-4.9726214 0.72340709 -0.71700066
-4.9631948 0.75316292 -0.71629268
-4.9467468 0.78174955 -0.71459359
-4.9506488 0.81353104 -0.71586788
-4.9631286 0.84688735 -0.71841657
-4.9734359 0.88008249 -0.72068202
-4.9552836 0.9082638 -0.71884131
-4.9282198 0.93459672 -0.71572632
-4.9243355 0.96519864 -0.7160095
-4.930934 0.9979468 -0.71785021
-4.9460368 1.032632 -0.72096521
-4.9647708 1.0683722 -0.72464663
-4.9774518 1.1030968 -0.72747844
-4.9638333 1.1320772 -0.72648734
-4.9558301 1.1622875 -0.72634572
-4.9428306 1.191283 -0.72549617
-4.9584908 1.2272946 -0.72889441
-4.9719758 1.2630558 -0.73200941
-4.9804173 1.297781 -0.73441648
-4.9656658 1.3265282 -0.73342538
-4.9488392 1.3546208 -0.73215103
-4.9413877 1.3852279 -0.73229259
-4.9423103 1.418251 -0.73370856
-4.961061 1.4566339 -0.73781472
-4.9444451 1.4847703 -0.736682
-4.9324026 1.5142096 -0.7362572
-4.9258523 1.5453345 -0.736682
-4.9200487 1.5767378 -0.73724836
-4.9149857 1.6084359 -0.73795629
-4.9463382 1.6523591 -0.7441864
-4.9539094 1.6887447 -0.74687666
-4.9621553 1.7256104 -0.74970847
-4.9244161 1.7464328 -0.74560231
-4.8940568 1.7695493 -0.74262887
-4.899827 1.8057048 -0.74517751
-4.9164586 1.8461722 -0.74942529
-4.9124351 1.8791329 -0.75055802
-4.8759065 1.8995403 -0.74673504
-4.86692 1.9305172 -0.74715984
-4.8623266 1.963308 -0.74829257
-4.8703337 2.0013812 -0.75140756
-4.8725753 2.0373354 -0.75367308
-4.8608932 2.0675819 -0.75381464
-4.8562932 2.1009054 -0.75508898
-4.8405919 2.129468 -0.75466418
-4.8238201 2.1575129 -0.75409782
-4.8095899 2.1866612 -0.75395626
-4.8131571 2.2240183 -0.75664651
-4.8137579 2.2602396 -0.75891197
-4.7980118 2.2888815 -0.75862879
-4.7812042 2.3169837 -0.75820404
-4.7775564 2.3515215 -0.75990313
-4.773664 2.3861017 -0.76160222
-4.7686439 2.4202747 -0.76315975
-4.7625041 2.4540222 -0.76457566
-4.7350755 2.4767761 -0.76259339
-4.7136683 2.5025346 -0.76160222
-4.7208843 2.5436158 -0.76528364
-4.7182174 2.5796564 -0.76740754
-4.7074943 2.611439 -0.76825708
-4.692245 2.6407599 -0.76839864
-4.6750937 2.6690106 -0.76825708
-4.6577721 2.6971502 -0.76811546
-4.6291838 2.718662 -0.76613319
-4.6200705 2.7515731 -0.76740754
-4.6234388 2.7921491 -0.77080572
-4.621417 2.8297684 -0.77335441
-4.5997615 2.8554616 -0.77264643
-4.5788021 2.8815227 -0.77208006
-4.5727205 2.9170156 -0.77406234
-4.2679186 2.7596145 -0.72521299
-4.1490564 2.719023 -0.70779711
-4.1232233 2.7384069 -0.70623964
-4.0981297 2.7581289 -0.70482367
-4.0582271 2.7676086 -0.70085913
-4.0932961 2.8284669 -0.709921
-4.0969501 2.8682883 -0.71360242
-4.0784659 2.8928001 -0.7134608
-4.1595292 2.9888091 -0.73087668
-4.4444728 3.2350314 -0.78454018
-4.422946 3.2610667 -0.78425699
-4.3854022 3.2751145 -0.781142
-4.3518009 3.2918103 -0.77873492
-4.3370223 3.3226643 -0.77972603
-4.3290682 3.3589208 -0.78199154
-4.2974787 3.3768589 -0.78000927
-4.2611842 3.3908384 -0.77717739
-4.2495484 3.4243731 -0.77887648
-4.2322927 3.453512 -0.77958447
-4.2041535 3.4737418 -0.77831012
-4.1584616 3.4791486 -0.77377915
-4.1415682 3.5084374 -0.77462876
-4.1229687 3.5363612 -0.77519512
-4.1034346 3.5635397 -0.77561986
-4.0956187 3.6010687 -0.77831012
-4.0830593 3.6346867 -0.78015083
-4.0592093 3.6583462 -0.77986765
-4.0264468 3.6738441 -0.77788538
-4.003829 3.6984808 -0.77788538
-3.9962454 3.7371757 -0.78085881
-3.9725201 3.7609453 -0.78071719
-3.9643786 3.7996321 -0.78369063
-3.9466741 3.8293998 -0.78482336
-3.9202778 3.8507695 -0.78425699
-3.8853438 3.8635845 -0.78199154
-3.8629594 3.8887563 -0.78227472
-3.8501203 3.9236896 -0.78454018
-3.8232164 3.9443967 -0.78397381
-3.805104 3.974216 -0.78524816
-3.7962937 4.014029 -0.78850478
-3.7668617 4.0321841 -0.78751361
-3.73735 4.0501289 -0.78652251
-3.7237663 4.0854206 -0.78892958
-3.7012782 4.111135 -0.78949594
-3.6799307 4.1382065 -0.79034549
-1.1834766 1.3480663 -0.25484318
-1.1706412 1.3500688 -0.25385204
-1.171998 1.3685011 -0.2559759
-1.0611776 1.3189913 -0.24040075
-2.8920732 3.7315288 -0.67353177
-2.8691225 3.7492039 -0.67353177
-2.8478546 3.7691071 -0.67395657
-0.91666704 1.2453831 -0.21944508
-0.87989628 1.2109545 -0.21236546
-0.87302679 1.2171348 -0.21250705
-0.84270495 1.2058549 -0.20868406
-2.9837937 4.682766 -0.79246938
-3.0003197 4.773057 -0.80464631
-2.9647148 4.7812815 -0.80294722
-2.9337721 4.7968497 -0.80252242
-2.9145119 4.8317127 -0.8053543
-2.8822792 4.8452511 -0.80464631
-2.8580055 4.8722372 -0.80620384
-2.8181419 4.8725443 -0.80337197
-2.7783828 4.8725467 -0.80054015
-2.7498887 4.8920913 -0.80096489
-2.7294166 4.9261894 -0.80379677
-2.6991386 4.9428439 -0.80379677
-2.6701667 4.9619274 -0.80422151
-2.6419899 4.9825902 -0.80492949
-2.6154938 5.0066042 -0.80620384
-2.5883491 5.0295997 -0.80733657
-2.5583348 5.047152 -0.80761975
-2.5286446 5.0654116 -0.80804455
-2.5005736 5.0870504 -0.80903566
-2.4580984 5.0791316 -0.8053543
-2.4328492 5.1066298 -0.80733657
-2.2329011 4.7620702 -0.75055802
-2.1044872 4.5608683 -0.71671748
-2.0654104 4.5493598 -0.71289444
-1.9999037 4.4778914 -0.69972634
-1.9449109 4.4275451 -0.68995649
-1.9074978 4.4157686 -0.68627512
-1.8749478 4.4146342 -0.68429279
-1.8462987 4.4224019 -0.68372643
-1.8236393 4.4446368 -0.68542552
-1.8015169 4.468596 -0.68740785
-1.7813566 4.497972 -0.69023967
-1.7939284 4.612143 -0.70609802
-2.0415225 5.3452797 -0.81668168
-2.0125098 5.3679013 -0.81823915
-1.9737225 5.3643556 -0.81583208
-1.938753 5.370779 -0.81498253
-1.9103889 5.3956375 -0.81696486
-1.8791946 5.4128685 -0.81781441
-1.8504128 5.437417 -0.81979668
-1.8167013 5.4477296 -0.81965512
-1.7857006 5.4663014 -0.82078785
-1.7572556 5.4931831 -0.82319492
-1.7229251 5.5019732 -0.82291174
-1.6987073 5.5436745 -0.82758427
-1.6544248 5.5198569 -0.82248694
-1.6235878 5.5403538 -0.82404447
-1.5936521 5.5644865 -0.82616836
-1.5637481 5.5894127 -0.82843381
-1.5359466 5.6227751 -0.83197361
-1.5011619 5.6311374 -0.83183205
-1.4670801 5.642158 -0.83211523
-1.4309728 5.6452966 -0.83126569
-1.3955947 5.6510878 -0.83084089
-1.3650619 5.6768684 -0.83338958
-1.333588 5.6995959 -0.83551347
-1.3012275 5.719254 -0.83721256
-1.2680343 5.7358294 -0.83848691
-1.2351025 5.7541485 -0.84004438
-1.1971476 5.7490201 -0.83820373
-1.1616538 5.7552872 -0.83806211
-1.1331583 5.7972813 -0.84315944
-1.0975655 5.8041253 -0.84315944
-1.0323721 5.6491032 -0.81965512
-0.99338812 5.63096 -0.81611532
-0.95682526 5.6252389 -0.81441617
-0.91412556 5.581182 -0.80719495
-0.87770528 5.5729966 -0.80521268
-0.84586328 5.5939379 -0.80747813
-0.81862897 5.648006 -0.81455779
-0.79920024 5.7627411 -0.83041614
-0.78034502 5.8921671 -0.84839833
-0.74541712 5.9066658 -0.8498143
-0.70821631 5.903265 -0.84868151
-0.67063737 5.8956971 -0.84698242
-0.63391972 5.8947792 -0.8462745
-0.59853733 5.9064369 -0.84740722
-0.56294191 5.9168968 -0.84839833
-0.52680153 5.9222116 -0.84868151
-0.49151653 5.9381576 -0.85052222
-0.45673704 5.9627762 -0.85363728
-0.42125598 5.981266 -0.85590273
-0.38505638 5.991641 -0.85703546
-0.34897548 6.0057502 -0.85873461
-0.31186098 6.0028358 -0.85802662
-0.27456844 5.9947472 -0.85661072
-0.23825213 6.0081887 -0.85830981
-0.20171469 6.0194311 -0.85972571
-0.16518416 6.035399 -0.86184961
-0.12791628 6.0254121 -0.86029214
-0.090942636 6.0260839 -0.86029214
-0.053526141 5.9780235 -0.8533541
-0.016963322 6.0188265 -0.85915935
0.01990422 5.9990191 -0.85632753
0.05670388 5.9977942 -0.85618591
0.093749829 6.0131702 -0.85845143
0.131329 6.0441518 -0.86298239
0.16879737 6.0570855 -0.86496466
0.2049199 6.0252662 -0.86057532
0.24145062 6.0130148 -0.85901779
0.27916354 6.0292196 -0.86156642
0.31610113 6.0264049 -0.86142486
0.35295689 6.0223751 -0.86114168
0.38907242 6.0072541 -0.85930097
0.4259249 6.0047541 -0.85930097
0.4627614 6.0020275 -0.85930097
0.49810353 5.9813175 -0.85675228
0.53417808 5.9712467 -0.85576117
0.57268995 5.9875655 -0.85859299
0.60871679 5.9770446 -0.85760188
0.64718574 5.9899287 -0.8600089
0.68471301 5.9927292 -0.86100006
0.71614712 5.9441881 -0.85462844
0.75260645 5.9396825 -0.85462844
0.78995007 5.9418216 -0.85561955
0.82680261 5.9398041 -0.85604435
0.86195147 5.9258027 -0.85477
0.89740491 5.9145293 -0.85392046
0.93723011 5.9314017 -0.85717708
0.97633356 5.9421458 -0.85958415
1.012942 5.9370184 -0.85972571
1.0426292 5.8926744 -0.85420364
1.0807282 5.8968768 -0.85576117
1.1205769 5.9095869 -0.85859299
1.1621442 5.929801 -0.86255759
1.2006657 5.9332318 -0.86411512
1.2319939 5.9015265 -0.86057532
1.2569424 5.8415947 -0.85292929
1.2946887 5.8424711 -0.85420364
1.3322731 5.8421383 -0.85533637
1.3683207 5.8348174 -0.85547799
1.4047921 5.8291988 -0.85590273
1.4412462 5.8233523 -0.85632753
1.4762197 5.8115211 -0.85590273
1.5118507 5.8023539 -0.85590273
1.5481908 5.7958374 -0.85632753
1.5829406 5.7833643 -0.85590273
0.35533196 1.2657983 -0.18631247
0.36418381 1.2674005 -0.18687885
0.37195355 1.265142 -0.18687885
0.37885556 1.2599915 -0.18645406
0.38861239 1.2642678 -0.18744521
0.39547387 1.2590258 -0.18702044
0.40470162 1.2612892 -0.18772839
0.41243318 1.2587823 -0.18772839
0.4239116 1.2674955 -0.1894275
0.43072292 1.2620595 -0.18900272
0.44073397 1.265938 -0.18999387
0.45147023 1.2716073 -0.19126821
0.46094662 1.273468 -0.19197616
0.46875179 1.2706158 -0.19197616
0.47827876 1.2723496 -0.19268413
0.48643029 1.2703155 -0.19282572
0.49493414 1.2691518 -0.1931089
0.46366921 1.1676273 -0.17795852
2.2037799 5.4580865 -0.840186
2.2327149 5.4334736 -0.83848691
2.261049 5.4077983 -0.8366462
2.2945755 5.3947334 -0.83678776
2.3299913 5.3860049 -0.83763731
2.3606045 5.3661695 -0.83678776
2.3918698 5.3479695 -0.8362214
2.4266875 5.3376985 -0.83692938
2.4602234 5.3245053 -0.83721256
2.5004189 5.3254395 -0.8397612
0.5464763 1.1444193 -0.17965762
0.55780399 1.1499535 -0.18107355
0.56397533 1.1447327 -0.18079036
0.56877619 1.1368232 -0.18008241
0.57305342 1.128015 -0.17923285
0.57996392 1.1244776 -0.17923285
0.58960503 1.1261612 -0.18008241
0.60068077 1.1303918 -0.18135674
0.61136103 1.1336571 -0.18248947
0.62542731 1.1429141 -0.18461336
0.63818961 1.1494435 -0.18631247
0.6510554 1.1558589 -0.18801157
0.65813541 1.1518424 -0.18801157
0.67015016 1.1563497 -0.1894275
0.67121828 1.1419719 -0.18772839
0.6787191 1.1386825 -0.18786998
3.0326238 5.021739 -0.83735412
3.0659635 5.0072584 -0.83806211
3.100806 4.9950809 -0.83919483
3.1366684 4.9843392 -0.84061074
3.1661279 4.9633298 -0.84032756
3.1906114 4.9346647 -0.83877009
3.2116075 4.900918 -0.83636302
3.2498319 4.8934903 -0.83848691
3.2853227 4.8816705 -0.83990282
3.3230214 4.8728709 -0.84188509
3.3545461 4.8548331 -0.84230989
3.3808658 4.8292923 -0.84146035
3.398982 4.7923069 -0.83862847
3.4346762 4.7802043 -0.840186
3.4598649 4.753437 -0.83919483
3.5159857 4.7687726 -0.84570807
3.5582094 4.7645597 -0.84882313
3.5814061 4.7347417 -0.84740722
3.5971482 4.6953878 -0.84429216
3.6416659 4.6935644 -0.84797359
3.6765122 4.678916 -0.84938949
3.7106991 4.6632414 -0.85066384
3.7435894 4.645781 -0.85165495
3.7626383 4.6112175 -0.84953111
3.7807744 4.5758324 -0.8472656
3.7935369 4.5343242 -0.84386742
3.8238466 4.5139837 -0.84443378
3.859849 4.500205 -0.8462745
3.8860912 4.4749417 -0.84599125
3.9219723 4.4606786 -0.84783196
3.9532173 4.4409666 -0.84868151
3.973103 4.4085369 -0.84712404
3.9980772 4.3818812 -0.84669924
4.0154858 4.347086 -0.84471697
4.038703 4.3187499 -0.84400898
4.0712509 4.3003583 -0.84528333
4.1050944 4.2831588 -0.84684086
4.1326766 4.2593107 -0.84712404
4.1552653 4.2303414 -0.84641606
4.1923108 4.2159982 -0.84868151
4.205461 4.1776357 -0.84613287
4.2182984 4.1392717 -0.84358424
4.2372203 4.1071095 -0.84230989
4.2623415 4.0810328 -0.84230989
4.2916169 4.0588846 -0.84315944
4.314271 4.0304475 -0.84273463
4.3323731 3.9978573 -0.84146035
4.3619428 3.9758675 -0.84245145
4.3936124 3.9556527 -0.84386742
4.3956113 3.9088824 -0.83961964
4.4001765 3.8648505 -0.83593822
4.4125929 3.828047 -0.83381432
4.460803 3.8221579 -0.83848691
4.4773707 3.7889588 -0.83721256
4.489902 3.752526 -0.83523029
4.5105524 3.7230153 -0.83480549
4.5402169 3.7008986 -0.83607984
4.553587 3.6655211 -0.83438069
4.5713434 3.6338153 -0.83353114
4.5982256 3.6093655 -0.83438069
4.6343679 3.5920007 -0.83692938
4.6083713 3.5267928 -0.82829225
0.9536826 0.7199896 -0.1691798
0.96125597 0.71649235 -0.16974616
0.95288211 0.70118654 -0.16748068
0.94755942 0.68833971 -0.16578157
0.95819837 0.68713111 -0.16691431
0.94947368 0.67208087 -0.16464883
0.95601308 0.66794455 -0.16507362
0.96335208 0.6643157 -0.16563998
0.96495593 0.65671992 -0.16521521
0.97389621 0.65410095 -0.16606475
0.98284048 0.65139687 -0.16691431
0.98433429 0.6437273 -0.16648954
0.99990672 0.64519566 -0.16847183
1.0113598 0.64383668 -0.16974616
1.0245098 0.64341509 -0.17130367
1.0595648 0.65642196 -0.1765426
1.0880615 0.66488951 -0.18064877
1.0717784 0.64592713 -0.17725056
4.9158607 2.924293 -0.8163985
1.1299988 0.66228294 -0.18560451
1.1571766 0.6687212 -0.1894275
1.1758761 0.66994601 -0.19183457
1.1860049 0.66611445 -0.19282572
1.1796796 0.6530664 -0.19112661
1.1810583 0.64439213 -0.19070183
1.182375 0.63572556 -0.19027705
1.1757591 0.62289262 -0.18857795
1.1778042 0.61474961 -0.18829477
1.1639509 0.59844971 -0.18546291
1.1781961 0.59666854 -0.18716203
1.1889201 0.59296596 -0.18829477
1.1729926 0.57605022 -0.18517973
1.168486 0.56496 -0.18390539
1.1772923 0.5603348 -0.18475495
1.1753309 0.5505783 -0.18390539
1.1526219 0.53132522 -0.17979921
5.1217027 2.3253417 -0.8028056
5.1675081 2.3080049 -0.80776137
5.1924481 2.2810333 -0.80946046
5.209981 2.2507007 -0.81002682
5.2300706 2.2214003 -0.81101799
5.2116313 2.1759148 -0.80606222
5.2102318 2.1378815 -0.80379677
5.2287602 2.1080935 -0.80464631
5.2498794 2.0792522 -0.80592066
5.2597713 2.0459237 -0.80549586
5.2444839 2.0030129 -0.80124807
5.2455525 1.9666241 -0.79954898
5.2593789 1.9350848 -0.79983217
5.2776713 1.9051311 -0.80082333
5.2976594 1.8756865 -0.80209768
5.3128095 1.8444444 -0.80266404
5.2781081 1.7961787 -0.795726
5.2646146 1.755614 -0.79204458
5.2809334 1.7251229 -0.79289412
5.3159328 1.700532 -0.79657555
5.3168201 1.6649228 -0.79515964
5.3013821 1.6244346 -0.79133666
5.3074565 1.5907382 -0.79077023
5.3199668 1.5589777 -0.79119503
5.3246741 1.5249423 -0.79048705
5.3148651 1.4869057 -0.78765523
5.3305726 1.4560931 -0.7886464
5.3336678 1.4218273 -0.7877968
5.3346272 1.38708 -0.78666407
5.3430381 1.3543212 -0.78666407
5.3377929 1.3181872 -0.7846818
5.3207564 1.2793902 -0.78100038
5.3169403 1.2440109 -0.77930129
5.3186817 1.2100451 -0.77845174
5.3347054 1.1793115 -0.77972603
5.3292594 1.1438541 -0.77788538
5.3167953 1.1070946 -0.7750535
5.3069921 1.0711192 -0.77264643
5.3173509 1.0392959 -0.77321279
5.325573 1.0070177 -0.77349597
5.3277564 0.97360951 -0.77292961
5.3268061 0.93969601 -0.7719385
5.3051472 0.90234274 -0.7679739
5.2988605 0.86785257 -0.76627481
5.3138652 0.83686429 -0.76769072
5.2680035 0.79654127 -0.76032788
5.265934 0.76320773 -0.75933677
5.273459 0.7312904 -0.75976151
5.2866793 0.70008999 -0.76103586
5.2879291 0.66726619 -0.76061106
5.2693176 0.63209307 -0.75735444
5.2475243 0.59683758 -0.75367308
5.2353392 0.56293291 -0.75140756
5.2396798 0.53089881 -0.75154918
5.2448096 0.49892643 -0.75183237
5.2428422 0.46629643 -0.75112438
5.2377124 0.43346405 -0.74999166
5.2353382 0.40093935 -0.74928367
5.2051134 0.36650988 -0.74461114
5.1835551 0.33303878 -0.7412129
5.1825361 0.30105427 -0.74078816
5.168469 0.2684257 -0.73852265
5.1838627 0.23734309 -0.74050498
5.189178 0.20568836 -0.74107134
5.1705551 0.17317913 -0.73823947
5.1299591 0.14030808 -0.73229259
5.1386414 0.10899752 -0.73342538
5.1253562 0.07725478 -0.73144305
5.1158342 0.045715053 -0.73002714
4.402894 -0.010145508 -0.7040695
4.3938632 -0.037085455 -0.70264447
4.3955274 -0.064073883 -0.70296115
4.3802433 -0.09073554 -0.7005862
4.3825655 -0.11769019 -0.70106119
4.380774 -0.14454627 -0.70090288
4.3699384 -0.17103675 -0.69931954
4.3668342 -0.19775751 -0.69900292
4.3408866 -0.22327873 -0.69504464
4.3532352 -0.2507053 -0.69726127
4.3752637 -0.2789205 -0.70106119
4.3971095 -0.30741546 -0.7048611
4.3685579 -0.33236584 -0.7005862
4.3349466 -0.35657251 -0.69551963
4.3257923 -0.38255525 -0.69441134
4.3243465 -0.40918368 -0.69456965
4.3237195 -0.43590787 -0.69488633
4.3504167 -0.46558335 -0.69963622
4.3003845 -0.48693305 -0.69203633
4.290453 -0.51249039 -0.69092804
4.2509799 -0.53424877 -0.6850698
4.2613263 -0.56213087 -0.68728644
4.2754025 -0.59070081 -0.69013637
4.2804928 -0.61819375 -0.69156134
4.2473283 -0.64003116 -0.68681145
4.2267389 -0.66347629 -0.68411982
4.2323332 -0.69099015 -0.68570316
4.2396951 -0.71892786 -0.68760312
4.2556252 -0.74852175 -0.69092804
4.2120972 -0.76753706 -0.68459481
4.2043977 -0.79281849 -0.68411982
4.2042994 -0.8195461 -0.68491149
4.1798325 -0.84142947 -0.68174487
4.1890922 -0.87007332 -0.68411982
4.2078118 -0.90093029 -0.68807811
4.1838846 -0.92269063 -0.6850698
4.1627383 -0.94484729 -0.68253654
4.1664777 -0.97261673 -0.68411982
4.1652322 -0.99931556 -0.68491149
4.1484766 -1.0222548 -0.68316984
4.1430831 -1.0479324 -0.68332821
4.1576014 -1.0787911 -0.68681145
4.1489949 -1.1037736 -0.68649477
4.1097555 -1.1203789 -0.68111157
4.1047058 -1.146106 -0.68142819
4.1080389 -1.1742561 -0.68316984
4.0438967 -1.1828057 -0.67367005
4.0838604 -1.2217491 -0.68158656
4.0942264 -1.2522724 -0.68459481
4.0676174 -1.2714777 -0.68142819
4.065383 -1.2982147 -0.68237817
4.0648503 -1.3255844 -0.68364483
4.0369668 -1.3439502 -0.68031991
4.0146213 -1.3639301 -0.67794496
3.9875188 -1.3820695 -0.67477834
3.9864106 -1.4091433 -0.676045
3.9944091 -1.439604 -0.67889494
3.9298923 -1.4436545 -0.66939509
3.9570234 -1.4812428 -0.67557001
3.9801497 -1.5178103 -0.68111157
3.9624782 -1.5389857 -0.67968661
3.9511242 -1.5625439 -0.67936993
3.8993297 -1.5697933 -0.67208672
3.8804879 -1.5899454 -0.67050344
3.8670137 -1.6122059 -0.66987008
3.8625026 -1.6382165 -0.67082006
3.8668835 -1.6681442 -0.67335337
3.8674254 -1.6966002 -0.67525333
3.8343992 -1.7102418 -0.67129505
3.8220346 -1.7329215 -0.67097843
3.8104329 -1.7559271 -0.67082006
3.8156822 -1.7868127 -0.67367005
3.7395608 -1.7792201 -0.66211194
3.6805692 -1.7789265 -0.65356207
3.6509719 -1.7923379 -0.65023714
3.6027932 -1.7962006 -0.64358723
3.5987515 -1.8218411 -0.64485389
3.449635 -1.7730157 -0.61999601
3.4500709 -1.8000873 -0.62205434
3.4031863 -1.802274 -0.6155628
3.3790183 -1.8161091 -0.61318779
3.4024837 -1.8557216 -0.61952102
3.3772109 -1.8689135 -0.61698776
3.3570704 -1.8847662 -0.61540443
3.3840508 -1.9273212 -0.62252933
3.3653216 -1.9440974 -0.62126267
3.5628965 -2.0875132 -0.66021192
3.5483229 -2.1083267 -0.6598953
3.5234799 -2.1229243 -0.65767866
3.5095448 -2.1439893 -0.65752035
3.5131114 -2.1758823 -0.66068691
3.4904964 -2.1916213 -0.65894532
3.4894772 -2.2209506 -0.66132027
3.4442565 -2.2219777 -0.65530372
3.4396479 -2.2490137 -0.65704536
3.4249604 -2.2695312 -0.65688699
3.3880193 -2.2750897 -0.65245378
3.3788934 -2.2991686 -0.65340376
3.3679738 -2.3220997 -0.65403706
3.3617566 -2.3483763 -0.65562034
3.3368068 -2.3615439 -0.65356207
3.3005888 -2.3664382 -0.64928716
3.2772191 -2.3802624 -0.64754552
3.2641428 -2.4014966 -0.6478622
3.2295539 -2.4067285 -0.64390391
3.252552 -2.4550548 -0.6515038
3.2468395 -2.4821622 -0.65340376
3.2182763 -2.491761 -0.65071213
3.2068114 -2.5145075 -0.6515038
3.1874561 -2.5310664 -0.65071213
3.1634021 -2.5437698 -0.64897048
3.1462033 -2.5618854 -0.64865381
3.1273773 -2.578629 -0.64802051
3.1092227 -2.5958712 -0.64754552
3.0985141 -2.6193626 -0.64865381
3.0861342 -2.641536 -0.64944547
3.054199 -2.6468418 -0.64612055
3.0297372 -2.6583681 -0.6443789
3.00894 -2.6729734 -0.64342892
3.0247829 -2.7204397 -0.65039545
3.0248244 -2.7542391 -0.65403706
2.9897192 -2.7560151 -0.65007877
2.9590375 -2.761507 -0.64707053
2.9377315 -2.7755425 -0.64612055
2.9113703 -2.7846432 -0.64406222
2.8828804 -2.7914641 -0.64152896
2.8805046 -2.8236167 -0.64485389
2.8666291 -2.8447158 -0.64564556
2.8539963 -2.8671501 -0.64675385
2.8135061 -2.8613729 -0.64152896
2.7821383 -2.8644156 -0.63836235
2.798687 -2.9170597 -0.64627886
2.7773399 -2.9305935 -0.64548719
2.7505341 -2.9382086 -0.64342892
2.7277617 -2.9499552 -0.64232063
2.7029514 -2.9593461 -0.6407373
2.6926787 -2.9846733 -0.64263725
2.6795692 -3.0070367 -0.64390391
2.6688955 -3.0323162 -0.64580387
2.6502392 -3.0486352 -0.64580387
2.6083295 -3.037869 -0.640104
