# .PCD v0.7 - Point Cloud Data file format
VERSION 0.7
FIELDS x y z
SIZE 4 4 4
TYPE F F F
COUNT 1 1 1
WIDTH 1458
HEIGHT 1
VIEWPOINT 0 0 0 1 0 0 0
POINTS 1458
DATA ascii
-2.1031983 -11.701328 -0.16584051
-2.1883113 -11.759963 -0.16685975
-2.2746007 -11.819956 -0.16790691
-2.3712626 -11.927384 -0.16963822
-2.4514382 -11.946892 -0.1701269
-2.5451908 -12.028472 -0.17150915
-2.6504738 -12.157216 -0.17357555
-2.7456052 -12.232433 -0.174888
-2.8530078 -12.355651 -0.17689855
-2.9624865 -12.47995 -0.17893703
-3.0671997 -12.577138 -0.18059853
-3.1785595 -12.694845 -0.18256719
-3.2805297 -12.769042 -0.18392153
-3.400089 -12.905311 -0.18618341
-3.4945912 -12.941159 -0.18700717
-3.6333842 -13.13438 -0.19012074
-3.7438836 -13.217664 -0.19165657
-3.8569329 -13.304885 -0.19326223
-3.9879658 -13.44777 -0.19569165
-4.0968113 -13.510122 -0.19696221
-4.2255173 -13.632767 -0.19912635
-4.3915048 -13.866817 -0.20293802
-4.5186682 -13.969947 -0.20485084
-4.6221747 -13.996078 -0.20564668
-4.7539592 -14.103896 -0.20765723
-4.8582954 -14.126466 -0.20842516
-4.9538193 -14.121864 -0.20880213
-4.4870462 -12.544352 -0.18586227
-4.5694132 -12.531614 -0.18608567
-4.66677 -12.55864 -0.18690944
-4.8173833 -12.724274 -0.18981357
-4.9047217 -12.718732 -0.19017659
-5.0035038 -12.741448 -0.19097243
-5.1250205 -12.819136 -0.192606
-5.2503161 -12.90229 -0.19433732
-5.4575453 -13.179312 -0.19901465
-5.7689323 -13.461507 -0.20433424
-5.9321232 -13.611014 -0.2071546
-6.0827785 -13.72611 -0.20947231
-6.2132978 -13.791544 -0.21105005
-6.3281951 -13.819526 -0.21206929
-6.4546375 -13.870183 -0.21345155
-6.6687088 -14.103307 -0.21766812
-6.7871594 -14.128818 -0.21870132
-6.9421306 -14.227092 -0.22087942
-7.1593895 -14.446732 -0.22497034
-7.3175697 -14.540973 -0.22713448
-7.756978 -15.181406 -0.23788536
-7.9526572 -15.331457 -0.24099892
-3.7960849 -7.2099228 -0.11360799
-3.8350687 -7.1767941 -0.1134544
-3.8804624 -7.1557641 -0.11349629
-9.026473 -16.403658 -0.26127201
-9.9916573 -17.896755 -0.28604093
-10.404833 -18.371056 -0.29464161
-10.880481 -18.938911 -0.30482006
-11.189796 -19.203543 -0.31018153
-11.332342 -19.176704 -0.31086567
-11.59114 -19.342672 -0.31470528
-11.880435 -19.552322 -0.31929883
-12.046861 -19.554825 -0.32054147
-12.33453 -19.74938 -0.32496747
-12.470453 -19.69698 -0.32535842
-12.705028 -19.797651 -0.32830444
-13.052525 -20.067169 -0.33409876
-13.335556 -20.229637 -0.33816174
-13.63662 -20.412661 -0.34261566
-13.795245 -20.378283 -0.34345341
-14.072738 -20.515882 -0.34722319
-14.361566 -20.663975 -0.35121638
-14.534141 -20.640869 -0.35233337
-15.09139 -21.155293 -0.36269328
-15.251954 -21.105247 -0.3634333
-15.342183 -20.958015 -0.36251178
-15.540769 -20.958258 -0.36415932
-15.62824 -20.80814 -0.3632099
-15.718694 -20.663311 -0.36235821
-15.823826 -20.538752 -0.36186951
-16.561583 -21.225651 -0.3757619
-16.13233 -20.415983 -0.363168
-16.201696 -20.247129 -0.36192536
-16.313663 -20.132576 -0.36166009
-16.18762 -19.728313 -0.35617295
-16.102608 -19.380974 -0.35167712
-15.927051 -18.932135 -0.34529641
-15.837378 -18.592756 -0.34087041
-15.672964 -18.172668 -0.33492252
-15.356682 -17.586599 -0.32584709
-15.471587 -17.500282 -0.32600069
-15.525326 -17.345417 -0.3248837
-15.094316 -16.657082 -0.31371397
-15.052933 -16.407951 -0.31075397
-14.988653 -16.13798 -0.30737513
-14.829847 -15.771811 -0.30212536
-14.817415 -15.566091 -0.29991934
-14.434588 -14.978806 -0.29029939
-14.506674 -14.869916 -0.28990844
-14.559699 -14.742208 -0.2891545
-19.390182 -19.393671 -0.3827709
-19.49032 -19.25606 -0.3824079
-19.765539 -19.289745 -0.38547957
-13.919358 -13.418623 -0.2698029
-19.752394 -18.809229 -0.38069054
-20.048384 -18.627356 -0.38196111
-20.156408 -18.498581 -0.38184941
-65.827248 -59.672451 -1.2404677
-17.200298 -15.401099 -0.32221693
-13.257315 -11.724868 -0.24696077
-13.216048 -11.544631 -0.24486645
-13.019386 -11.232752 -0.2399378
-13.096436 -11.159788 -0.24009138
-13.029252 -10.965262 -0.23762007
-12.896356 -10.718937 -0.23398991
-12.641909 -10.376966 -0.22820957
-12.536008 -10.16194 -0.22516581
-12.568462 -10.061084 -0.22463524
-12.467582 -9.855423 -0.22174507
-12.627135 -9.8562574 -0.22350432
-12.532146 -9.6589575 -0.22076772
-12.521153 -9.528594 -0.21953905
-12.550606 -9.4299641 -0.21903642
-12.684523 -9.4093695 -0.22036283
-12.799296 -9.3733063 -0.22135414
-77.172417 -53.655228 -1.3122891
-78.339172 -53.052341 -1.3209597
-78.63662 -52.552883 -1.3205129
-74.21212 -48.939949 -1.2411379
-65.1231 -41.808548 -1.0804471
-65.727074 -41.066113 -1.0820248
-20.986446 -12.757085 -0.34276927
-20.729862 -12.427567 -0.33732402
-20.654238 -12.210579 -0.33486667
-20.691626 -12.061965 -0.3342663
-20.797323 -11.953211 -0.3347829
-20.794588 -11.782492 -0.33356819
-20.972122 -11.713674 -0.33525762
-21.035717 -11.580431 -0.33513194
-21.101982 -11.448756 -0.33506215
-22.485712 -12.021482 -0.35586578
-20.463341 -10.619477 -0.32175618
-16.129911 -8.2454634 -0.252783
-19.698763 -9.3190403 -0.30412194
-20.011198 -9.317009 -0.30805928
-18.867737 -8.0900097 -0.2864877
-18.945585 -7.9861279 -0.28692055
-19.688614 -7.4583588 -0.29381785
-18.335676 -6.8175073 -0.27298629
-18.473915 -6.7401724 -0.27442437
-18.440552 -6.6000733 -0.27332136
-18.720345 -6.5709124 -0.27686778
-20.741108 -7.1375437 -0.30611855
-19.490274 -6.5736413 -0.28704619
-19.74737 -6.3915472 -0.28965712
-20.063156 -5.9539247 -0.29205862
-18.200771 -5.2799716 -0.26445538
-17.867254 -4.1293154 -0.25589657
-18.013227 -4.046782 -0.25762787
-18.120756 -3.9542983 -0.25881466
-18.289454 -3.8736982 -0.26088107
-18.316795 -3.762208 -0.26093692
-62.549236 -10.85882 -0.88630301
-60.73616 -7.4963603 -0.85435754
-52.111565 6.4227953 -0.73299825
-51.526482 6.9936166 -0.72591943
-99.201195 17.832129 -1.4072319
-98.973907 18.418892 -1.4055845
-98.833504 19.020926 -1.4052213
-98.61293 19.606718 -1.4037694
-98.501549 20.213638 -1.4039229
-97.354118 21.226404 -1.3911754
-96.331261 22.245131 -1.3803548
-96.821419 22.984985 -1.3893744
-47.288662 13.395041 -0.68612719
-47.084293 13.963532 -0.68559664
-45.747055 16.048172 -0.67678648
-68.352455 24.450354 -1.0134984
-9.4840784 3.5905917 -0.14143461
-9.5756865 3.6926107 -0.14313801
-9.5407495 3.7465451 -0.1429565
-9.5147963 3.8039019 -0.14291461
-9.4931288 3.8629658 -0.14294253
-9.4803333 3.9257326 -0.14311008
-9.4551458 3.9834406 -0.14309612
-76.145744 33.187912 -1.1596965
-9.5456839 4.2301326 -0.14562327
-9.5678654 4.3103924 -0.14636326
-9.5603294 4.3777609 -0.14665647
-9.5477915 4.44309 -0.14687987
-9.5293894 4.5058651 -0.14701949
-9.5313053 4.5785394 -0.14748023
-9.5210047 4.6457067 -0.14775948
-9.5191975 4.7173591 -0.14817835
-9.5186548 4.7900624 -0.14862514
-9.5157967 4.8620267 -0.14904401
-9.5141869 4.9350567 -0.14949079
-9.6093616 5.0594935 -0.15147342
-72.755585 38.880764 -1.1517241
-72.51564 39.32645 -1.1517241
-72.249321 39.757641 -1.151347
-16.3209 9.1118441 -0.26083919
-16.287304 9.2246275 -0.26120219
-16.55899 9.5131741 -0.26649386
-16.771582 9.7726727 -0.27087799
-16.882607 9.9766302 -0.27365646
-11.43131 7.2372231 -0.18875244
-11.323574 7.2667246 -0.18770528
-11.277097 7.3349776 -0.18767735
-11.188467 7.3754168 -0.18695132
-11.090622 7.408936 -0.18607171
-11.024252 7.4628339 -0.18572265
-11.021955 7.5603137 -0.18646264
-10.957294 7.6152468 -0.18615548
-10.938976 7.7024851 -0.18664415
-10.953373 7.8135929 -0.18770528
-48.772385 35.246296 -0.84008819
-45.727303 33.474712 -0.79115075
-41.529251 30.794649 -0.72175866
-37.369957 28.067442 -0.65243644
-35.936474 27.337278 -0.63032037
-33.044891 25.459196 -0.58231837
-31.602304 24.658237 -0.55954605
-12.955095 10.236772 -0.23038767
-14.718906 11.777949 -0.26305917
-12.725953 10.311884 -0.22854465
-12.659348 10.387238 -0.22848882
-12.378495 10.28452 -0.22455147
-12.259301 10.31329 -0.22353223
-12.219386 10.408418 -0.22396506
-12.15302 10.481238 -0.22392318
-12.459038 10.87919 -0.23079257
-12.303654 10.877282 -0.22914504
-12.155471 10.879882 -0.22762315
-11.525374 10.443973 -0.2170119
-11.588542 10.631436 -0.21942736
-11.35385 10.545153 -0.2162021
-11.02742 10.368721 -0.21118967
-10.755735 10.238327 -0.20718253
-9.0129776 8.6853895 -0.17460875
-8.9595156 8.7405281 -0.17460875
-10.592493 10.46127 -0.20771308
-9.1817951 9.1799774 -0.1811291
-9.1583242 9.2695742 -0.18178532
-9.3862076 9.6175604 -0.18748188
-9.2957907 9.6425781 -0.18685359
-12.531725 13.160004 -0.25357884
-10.463335 11.123743 -0.21307456
-10.358812 11.148911 -0.21233457
-8.6696281 9.4464169 -0.17886722
-8.6967907 9.5935202 -0.18064041
-8.6024103 9.6072206 -0.17990042
-8.6340504 9.7624378 -0.18181324
-6.7189794 7.6916032 -0.14243989
-8.8186312 10.221212 -0.18833359
-8.5851898 10.074967 -0.18466152
-6.3316078 7.5232592 -0.13713427
-6.2827702 7.5588923 -0.13707842
-6.2597442 7.6258965 -0.13759501
-6.2279458 7.6828041 -0.13793011
-6.3519001 7.934761 -0.14175574
-8.7585354 11.079926 -0.19704598
-5.9587369 7.6337657 -0.1350539
-5.9148369 7.6741438 -0.13512371
-5.8658214 7.7079048 -0.13508183
-13.594085 18.092916 -0.31583622
-5.8684874 7.9110126 -0.13737161
-5.8009315 7.9210567 -0.13692483
-5.7979126 8.0197077 -0.13801388
-5.6632142 7.9354873 -0.13596144
-5.5349531 7.8572774 -0.13403466
-5.8913298 8.4731636 -0.14393385
-5.9410625 8.6575556 -0.14644703
-12.896822 19.043655 -0.32098827
-5.5821381 8.3523798 -0.14010821
-5.0760932 7.6969814 -0.12857544
-7.5046158 11.532949 -0.19196375
-5.7747931 8.9947519 -0.14908589
-7.3031373 11.53041 -0.19041394
-7.224833 11.563132 -0.19021848
-5.2982073 8.596447 -0.14083424
-7.0205855 11.549243 -0.18855697
-2.2273705 3.7150204 -0.060314346
-2.1989365 3.7191496 -0.06016076
-2.1624787 3.7092478 -0.059783783
-2.1287169 3.7033746 -0.059476614
-2.1039817 3.7128866 -0.059420764
-2.0689709 3.7039022 -0.059071712
-2.0462053 3.7165275 -0.059071712
-2.0104883 3.7052829 -0.058694731
-1.9867724 3.7157857 -0.058666807
-1.9667314 3.7332144 -0.058750581
-1.9543808 3.7656245 -0.059071712
-1.9398857 3.7944617 -0.059336994
-1.9619805 3.8964963 -0.060747173
-8.5159283 17.17589 -0.26752707
-8.3173857 17.037327 -0.26456708
-8.1546507 16.967276 -0.26269615
-4.1935506 8.8641195 -0.13675728
-4.4315515 9.5178699 -0.14643307
-7.6389728 16.673615 -0.25592449
-4.605731 10.217848 -0.15633225
-7.2607336 16.375786 -0.24996264
-7.1277447 16.345789 -0.2488317
-4.2797513 9.9810839 -0.15147342
-1.5727662 3.7306306 -0.056363046
-1.5402777 3.7171166 -0.056013994
-1.5132935 3.7163107 -0.055860408
-1.4392148 3.597409 -0.053933628
-1.4076076 3.5819755 -0.053570613
-1.3715649 3.5541627 -0.053026088
-1.342647 3.5438104 -0.052746844
-1.3173927 3.5426099 -0.05260722
-1.2894622 3.5337186 -0.0523559
-1.2613536 3.5236769 -0.052090619
-1.2360663 3.5209718 -0.051937036
-1.2154149 3.5313263 -0.051978923
-1.1870137 3.5188208 -0.051685717
-1.184224 3.5830026 -0.052523449
-1.1357377 3.508388 -0.051322699
-1.1144912 3.5162439 -0.051336661
-1.0940799 3.5268362 -0.051392511
-1.075032 3.5420942 -0.051518172
-1.0606738 3.5735471 -0.051881187
-1.0696483 3.686583 -0.053430989
-1.056824 3.7277088 -0.053933628
-1.0317972 3.7264142 -0.053821933
-0.99456632 3.6795845 -0.053054012
-14.926287 56.61161 -0.81734377
-14.538059 56.544277 -0.81506795
-14.098725 56.26482 -0.80977631
-13.674041 56.025826 -0.8051129
-13.260219 55.81488 -0.80089635
-12.854681 55.623383 -0.79700089
-12.423285 55.30122 -0.7912764
-11.99569 54.972939 -0.78551
-11.606571 54.801937 -0.78203344
-11.209141 54.575348 -0.77780288
-10.796197 54.251804 -0.772232
-10.407317 54.027382 -0.76811314
-10.032769 53.860203 -0.76484597
-9.6420746 53.587139 -0.76011282
-9.2626362 53.354668 -0.75599396
-8.8743715 53.047577 -0.75085586
-8.5215349 52.93222 -0.74846834
-8.1282587 52.541809 -0.74222726
-7.7831082 52.438377 -0.74007708
-1.6650034 11.711078 -0.16500278
-7.0525784 51.893852 -0.73111337
-6.701375 51.684277 -0.72756696
-6.3499484 51.447552 -0.7236715
-6.0080814 51.263092 -0.72054398
-5.6777625 51.157871 -0.71856135
-5.3281226 50.851643 -0.7137863
-4.9983463 50.704266 -0.71127307
-2.4221857 26.216778 -0.36746836
-2.2525182 26.129534 -0.36604422
-0.46019107 24.874317 -0.34722319
0.012603338 0.69981748 -0.0096037043
0.016823728 0.69672817 -0.0095618181
0.021343175 0.70460731 -0.0096735153
0.025519274 0.70046616 -0.0096176667
0.093257293 0.72192979 -0.0099946456
0.10726304 0.72503632 -0.010064457
0.11186247 0.72535276 -0.010078419
0.11631104 0.72465271 -0.010078419
0.1214145 0.72787029 -0.010134268
0.12656181 0.7310524 -0.010190116
0.13192961 0.7351827 -0.010259927
0.13716988 0.73829138 -0.010315776
0.14339809 0.7462728 -0.010441436
0.14992435 0.75518596 -0.010581058
0.14406854 0.68187791 -0.0095618181
8.2770147 34.866524 -0.50022078
8.5260973 34.959824 -0.50230116
0.16275415 0.65089417 -0.0091988016
18.713398 69.29567 -1.0021054
23.70228 81.759323 -1.1884865
24.299025 81.934448 -1.1931778
24.894167 82.090012 -1.1976457
25.55311 82.438087 -1.2049898
19.825766 62.600147 -0.91674054
21.27055 61.846069 -0.91306847
17.022627 48.524803 -0.71789116
17.392792 48.622803 -0.72090697
23.984146 65.773743 -0.97742021
28.587479 74.128937 -1.1092371
2.4190447 6.1604247 -0.092245854
2.4731319 6.1863174 -0.092860185
2.5027523 6.150651 -0.09255302
4.4949975 10.854979 -0.1638858
4.6383877 11.009642 -0.16665031
4.6932502 10.951564 -0.16620353
4.769948 10.94456 -0.16653861
4.8195925 10.875777 -0.16593824
4.887466 10.848735 -0.16598013
9.6308641 20.367584 -0.31442603
9.7876959 20.374802 -0.31545922
12.689478 25.215296 -0.39399651
15.377665 30.095592 -0.4717519
38.676529 65.447754 -1.0613608
39.077377 65.209198 -1.0613608
26.835833 35.730167 -0.62380004
26.212255 34.02232 -0.59954774
26.207693 33.588081 -0.59471679
26.399654 33.409382 -0.59440964
22.845966 27.497082 -0.49902001
22.181944 26.367052 -0.48096693
22.355631 26.244911 -0.4812322
21.682959 25.141073 -0.46341646
21.826948 24.99626 -0.46320704
20.50499 23.193577 -0.43211326
20.798965 23.237192 -0.43529662
20.706152 22.849808 -0.43040988
20.031425 21.834484 -0.41358545
20.0718 21.61079 -0.41167262
19.766335 21.021746 -0.40275079
19.44821 20.430763 -0.39370328
18.898787 19.611216 -0.38013205
18.995022 19.470552 -0.37965733
19.338272 19.580578 -0.38411129
19.314535 19.318012 -0.38127697
19.226427 18.99534 -0.37722793
19.046358 18.587887 -0.37144759
19.031195 18.346453 -0.36894834
17.658962 16.81579 -0.34032589
17.21847 16.196054 -0.3299101
16.322676 14.980225 -0.30919021
16.030012 14.353249 -0.30028233
15.871357 14.036687 -0.29568878
15.391638 13.445027 -0.28520319
15.161927 13.081225 -0.27945077
14.998363 12.780423 -0.27498287
14.973984 12.601882 -0.27311194
14.733439 12.245807 -0.26734555
14.645994 12.021952 -0.26441351
14.484902 11.741707 -0.26019692
14.438804 11.558254 -0.25808865
14.256081 11.269162 -0.25357884
14.074306 10.985831 -0.24913888
14.093137 10.862033 -0.24828719
13.719493 10.440503 -0.24056609
13.759315 10.338106 -0.24014723
13.673919 10.14328 -0.23756422
13.638286 9.9877052 -0.2358748
13.569659 9.8101053 -0.23364085
13.369146 9.5407944 -0.22917296
13.303183 9.3710594 -0.22705071
13.345654 9.2789822 -0.22679938
13.286088 9.1171494 -0.22483072
13.266439 8.9844341 -0.22356015
13.29804 8.8873081 -0.22316922
13.342304 8.7989397 -0.22300167
13.3181 8.6661911 -0.22170319
13.344097 8.5670233 -0.22125641
13.338126 8.4480686 -0.22029302
13.282017 8.2987804 -0.21851981
13.308852 8.2024384 -0.21812887
13.307665 8.0894594 -0.21729115
13.347616 8.0019979 -0.21713756
13.385276 7.9133329 -0.21695605
13.34633 7.7801943 -0.21554586
13.35914 7.6782255 -0.21498738
13.393823 7.5892105 -0.21479191
13.374663 7.4703164 -0.21374474
13.404482 7.3794308 -0.21349342
13.415233 7.2784472 -0.2129489
13.383805 7.1554537 -0.21174815
13.388533 7.0526934 -0.21113382
13.361442 6.9340248 -0.21003081
13.387711 6.8437185 -0.20977949
13.421412 6.7573972 -0.20965382
13.434851 6.661149 -0.20922101
13.446716 6.5645523 -0.20877421
13.46962 6.4736915 -0.20850892
13.489203 6.381515 -0.20820177
13.505444 6.2880759 -0.20785271
13.532864 6.2000918 -0.20768516
13.568829 6.1161175 -0.20765723
13.550342 6.0080237 -0.20680554
13.538374 5.9035854 -0.20606555
13.519203 5.7967625 -0.20522782
13.525954 5.7016616 -0.20479499
13.527428 5.6047826 -0.20429236
13.537486 5.5118709 -0.20392933
13.557125 5.4231324 -0.2037199
13.487775 5.2996235 -0.20218407
13.274693 5.1221008 -0.198512
13.313353 5.043386 -0.1986237
13.318743 4.9521933 -0.19824673
13.346999 4.8696928 -0.19821881
14.148268 4.9661536 -0.20920704
14.177526 4.8789229 -0.20919308
14.228042 4.7988696 -0.20950024
12.462833 4.1185298 -0.18311173
12.458379 4.0324368 -0.18267889
12.270326 3.8885596 -0.17956533
12.198453 3.7835772 -0.17816912
11.988931 3.6381063 -0.1747763
11.878743 3.5252202 -0.17284952
11.765706 3.4132669 -0.17089482
11.681568 3.3112884 -0.16937293
11.472316 3.176059 -0.16604994
11.396025 3.0797827 -0.16466768
11.264844 2.9702873 -0.16250354
11.170522 2.8722296 -0.16088393
11.112282 2.7846777 -0.15979488
11.018421 2.6894145 -0.1582032
10.944242 2.6002624 -0.15690471
10.759301 2.4866817 -0.15402851
10.664115 2.3958521 -0.15245077
10.596554 2.3124669 -0.15127794
10.568481 2.2384958 -0.15067758
10.529126 2.1627438 -0.14992362
10.497087 2.0891206 -0.14928135
10.409558 2.0053809 -0.14785722
10.344995 1.9271894 -0.14676817
10.298563 1.8532304 -0.1459444
10.28314 1.785387 -0.14556742
10.282067 1.7202774 -0.14539987
10.276634 1.6546128 -0.14517649
10.207541 1.5792964 -0.14405951
10.101318 1.499459 -0.14242592
10.049942 1.428866 -0.14157423
9.9653864 1.3545169 -0.14026178
9.9239292 1.2869166 -0.13956368
9.9127836 1.2236732 -0.13929839
9.8793879 1.1580545 -0.13872595
9.8386049 1.0921198 -0.13805577
9.7615871 1.0229785 -0.13688295
9.7278767 0.95913976 -0.13632445
9.7286005 0.89897269 -0.13625464
9.7130127 0.83745891 -0.13596144
9.6442108 0.77194327 -0.13492824
9.5989065 0.70907104 -0.13423012
9.5821266 0.64874196 -0.13393693
9.5499983 0.58772463 -0.13343428
9.5254707 0.52756828 -0.13304335
9.4925756 0.46734196 -0.1325407
9.4413204 0.40676495 -0.13178675
9.4116621 0.34764612 -0.13133995
9.413619 0.28989071 -0.13133995
9.3842325 0.23136115 -0.13090713
9.3624811 0.17335102 -0.130586
9.3343744 0.11554244 -0.1301811
9.3099098 0.058110196 -0.12983204
7.9685454 -0.015122036 -0.26533163
7.9623065 -0.063968144 -0.26513165
7.9397779 -0.11251297 -0.2643984
7.9159555 -0.16076355 -0.26363182
7.8998342 -0.2089368 -0.26313189
7.8774261 -0.2567234 -0.26243195
7.8427458 -0.30377972 -0.26133209
7.8097825 -0.35050964 -0.26029888
7.7705531 -0.39654139 -0.25906566
7.7559996 -0.4435294 -0.25866571
7.7172241 -0.48883942 -0.25746584
7.6881566 -0.53438258 -0.25659928
7.6618104 -0.57981348 -0.2558327
7.6441627 -0.62567425 -0.25536609
7.5983644 -0.66888875 -0.25396624
7.5851626 -0.71465588 -0.25366628
7.5617399 -0.75928849 -0.25303301
7.5400429 -0.80387235 -0.25246641
7.5141129 -0.84777087 -0.25176647
7.5216713 -0.89539534 -0.25219977
7.5239692 -0.94252372 -0.25246641
7.5269623 -0.9898442 -0.25276637
7.5207472 -1.0360103 -0.25276637
7.4756684 -1.0765843 -0.25146651
7.439271 -1.1179807 -0.25046661
7.4223967 -1.1620611 -0.25013334
7.4032893 -1.2056555 -0.24973337
7.362247 -1.2453938 -0.24860017
7.3091836 -1.282602 -0.247067
7.3001919 -1.3272475 -0.24703369
7.2938757 -1.372385 -0.24710034
7.2598095 -1.4121542 -0.24623376
7.2392497 -1.4543118 -0.24583381
7.224318 -1.4974869 -0.24563384
7.2042418 -1.5394899 -0.24526721
7.186851 -1.5819472 -0.24500057
7.1779842 -1.6262358 -0.2450339
7.1727376 -1.6713822 -0.24520054
7.1672068 -1.7165253 -0.2453672
7.1516871 -1.7592767 -0.24520054
7.1262217 -1.7994566 -0.24470061
7.099566 -1.8391397 -0.24416733
7.0707603 -1.8780506 -0.24356739
7.0417447 -1.9166774 -0.24296747
7.0202241 -1.9571654 -0.24263416
7.0042386 -1.999107 -0.24250086
7.0033531 -2.045408 -0.2429008
6.9916286 -2.0886271 -0.24293414
6.9652991 -2.1274016 -0.24246752
6.9416194 -2.1668251 -0.24210089
6.9291458 -2.2096806 -0.24213423
6.9230599 -2.2546306 -0.24240085
6.8967657 -2.2929692 -0.24196757
6.8428144 -2.3217599 -0.24056773
6.7698812 -2.3434386 -0.2385013
6.7280431 -2.3752873 -0.23753473
6.7105207 -2.4155099 -0.23743474
6.7246609 -2.4673088 -0.23846796
6.7103314 -2.5088742 -0.2385013
6.6938767 -2.5496449 -0.23846796
6.5457883 -2.5393529 -0.23373516
6.5412388 -2.5838742 -0.23413512
6.411202 -2.5781083 -0.23003557
6.6771502 -2.9750097 -0.24336742
6.2209258 -3.0037656 -0.22996892
6.1898146 -3.0357199 -0.22950231
6.1844916 -3.0803251 -0.23000224
6.1743932 -3.1227243 -0.23033555
6.1800117 -3.1733315 -0.23126876
6.2534871 -3.2596905 -0.23476838
6.2642889 -3.3143559 -0.23593491
6.2094922 -3.3342938 -0.23463506
6.1924272 -3.3742442 -0.23476838
6.1199989 -3.3836501 -0.23280193
6.0407166 -3.3883841 -0.23056886
6.0241556 -3.4278564 -0.2307355
5.9779053 -3.4502695 -0.22976893
5.9764619 -3.4984949 -0.23053552
5.9213638 -3.5152061 -0.22923566
5.9091029 -3.5571415 -0.22960229
5.8683963 -3.5818787 -0.22886904
5.8420582 -3.6151898 -0.2287024
5.8163791 -3.6488438 -0.22856908
5.782073 -3.6769562 -0.22810246
5.7367201 -3.6977475 -0.22720256
5.7030449 -3.7257729 -0.22676927
5.6742425 -3.7568343 -0.22653596
5.6867747 -3.815521 -0.22796914
5.6508574 -3.8419149 -0.22746919
5.6321158 -3.8799171 -0.22766918
5.617219 -3.9206936 -0.22803579
5.5775504 -3.944124 -0.22740254
5.5296817 -3.9613957 -0.22643597
5.5020351 -3.9929028 -0.22630265
5.4734049 -4.0236282 -0.22613601
5.4381914 -4.0493779 -0.22570272
5.4132428 -4.0826697 -0.22570272
5.3888841 -4.1164145 -0.22573605
5.3690586 -4.1536832 -0.22596936
5.3458314 -4.1883974 -0.22606935
5.3223805 -4.2229834 -0.22616933
5.3041601 -4.2618208 -0.22650264
5.2593026 -4.2791495 -0.22570272
5.2198334 -4.3005371 -0.22513612
5.1918125 -4.3312039 -0.22506946
5.166666 -4.3642683 -0.22513612
5.1458669 -4.4010849 -0.22540276
5.1157432 -4.4299598 -0.22526944
5.0854588 -4.4586306 -0.22513612
5.0565104 -4.4884238 -0.22506946
5.0303617 -4.5207014 -0.22513612
5.0025282 -4.5514817 -0.22513612
4.9840641 -4.5908928 -0.22556941
4.9499531 -4.6159358 -0.22530277
4.9019132 -4.6276984 -0.22440287
4.8770385 -4.6611414 -0.22456951
4.8519382 -4.6944528 -0.22473617
4.830183 -4.7311282 -0.22506946
4.8131285 -4.7726388 -0.22563607
4.7844586 -4.8027897 -0.2256694
4.7331662 -4.8099747 -0.22463618
4.6875401 -4.8224444 -0.22386959
4.6599383 -4.8532786 -0.22396958
4.632823 -4.8846803 -0.2241029
4.6089144 -4.9195786 -0.22440287
4.5806785 -4.949966 -0.22450286
4.5407782 -4.9676528 -0.22403625
4.5015039 -4.9857779 -0.22360297
4.4621782 -5.0036087 -0.22316967
4.425447 -5.0241446 -0.22286971
4.3827267 -5.0376325 -0.22226977
4.350431 -5.0629139 -0.22220312
4.3069949 -5.0750351 -0.22156985
4.2809105 -5.1074939 -0.22183649
4.2539525 -5.1390538 -0.2220698
4.2096872 -5.1495843 -0.22140321
4.179894 -5.1776505 -0.2215032
4.1555233 -5.2125778 -0.22190315
4.1302624 -5.2466149 -0.22226977
4.1029 -5.2781711 -0.22253641
4.0759134 -5.3103814 -0.22283638
4.0221224 -5.3074136 -0.22166984
3.9912777 -5.3343935 -0.22176982
3.9697554 -5.3740563 -0.22240309
3.939651 -5.4023504 -0.22256973
3.9011726 -5.4191222 -0.22226977
3.8747964 -5.4527335 -0.22266974
3.8429878 -5.4788604 -0.22276972
3.8058841 -5.497407 -0.22256973
3.7754648 -5.5256071 -0.22276972
3.7331061 -5.5362401 -0.22226977
3.6935289 -5.5507216 -0.22193648
3.6615953 -5.5766215 -0.2220698
3.6322002 -5.6065326 -0.22236976
3.6074212 -5.6438708 -0.2229697
3.5759218 -5.6709714 -0.22316967
3.5431702 -5.6962004 -0.22330299
3.5044928 -5.7118711 -0.22306968
3.4755898 -5.7435269 -0.22346964
3.4438686 -5.770752 -0.22370295
3.4185348 -5.8090005 -0.22436954
3.3768067 -5.8194942 -0.22396958
3.332597 -5.8253574 -0.22340298
3.2977726 -5.8474369 -0.22346964
3.2589173 -5.8623209 -0.22326966
3.2219248 -5.8804541 -0.223203
3.2009802 -5.9282532 -0.22426955
3.1645451 -5.9477825 -0.22426955
3.1238134 -5.9591212 -0.22396958
3.0812275 -5.9666328 -0.2235363
3.0463717 -5.9889894 -0.22366962
3.0203123 -6.0290141 -0.22446953
2.9801664 -6.0411592 -0.22423622
2.9325607 -6.037756 -0.22343631
2.9053764 -6.0763736 -0.22420289
2.8684638 -6.0949907 -0.22423622
2.8356328 -6.1224518 -0.22460285
2.8034017 -6.1515584 -0.22503613
2.7782815 -6.1969142 -0.22606935
2.7406092 -6.2147589 -0.22610268
2.6904924 -6.2039514 -0.2251028
2.6492381 -6.2129884 -0.22483616
2.6025639 -6.208849 -0.2241029
2.5659416 -6.2283978 -0.22423622
2.5445566 -6.2857118 -0.22573605
2.5103734 -6.3123507 -0.22613601
2.4657748 -6.3127403 -0.22560273
2.4244881 -6.3212194 -0.22536942
2.386713 -6.3387828 -0.22546941
2.355051 -6.3729944 -0.22616933
2.3332818 -6.4352422 -0.22786915
2.289397 -6.4371967 -0.22743587
2.2501853 -6.4520669 -0.22746919
2.2144346 -6.4771004 -0.22786915
2.1765559 -6.4962516 -0.22806913
2.1372781 -6.5113835 -0.22813578
2.0917776 -6.5072484 -0.22753586
2.0617142 -6.5514207 -0.22863573
2.0364835 -6.6126604 -0.23033555
1.9984661 -6.6336436 -0.23063551
1.9602677 -6.6544094 -0.23093547
1.9321246 -6.7104907 -0.23246863
1.8909136 -6.7222195 -0.23246863
1.8522794 -6.7433329 -0.23280193
1.8163049 -6.7748432 -0.23350185
1.7787488 -6.8013306 -0.23403513
1.7431587 -6.8363276 -0.23486836
1.7028667 -6.8536844 -0.23510167
1.6638378 -6.8766322 -0.23553497
1.6273414 -6.9110322 -0.23636821
1.5904851 -6.9452424 -0.23720144
1.5545734 -6.9851127 -0.23823465
1.5112618 -6.9925661 -0.238168
1.4705853 -7.0124674 -0.23853463
1.4317135 -7.0419254 -0.23923455
1.3925352 -7.0711708 -0.23993447
1.3534262 -7.1021619 -0.24070105
1.3096416 -7.1093497 -0.24066772
1.2696724 -7.1379156 -0.24136764
1.2326142 -7.1849732 -0.24270083
1.1963302 -7.2397318 -0.24430065
1.1532984 -7.2558198 -0.24460062
1.1098121 -7.2696757 -0.24483393
1.0693862 -7.3050265 -0.24580048
1.0289842 -7.3431225 -0.24686703
0.9835102 -7.3463264 -0.24676704
0.94702607 -7.4196377 -0.24903345
0.90244657 -7.4332457 -0.24930009
0.85773563 -7.4465861 -0.24956673
0.81982976 -7.5232449 -0.25196648
0.77733386 -7.5639253 -0.25316632
0.72994626 -7.5586033 -0.25283304
0.68931705 -7.6266451 -0.25496614
0.64385092 -7.6466651 -0.25549939
0.59933239 -7.6813602 -0.25653261
0.55412543 -7.7118087 -0.25743252
0.51099432 -7.7788906 -0.25956562
0.46474123 -7.8068213 -0.26039886
0.41811118 -7.833478 -0.26119876
0.37065193 -7.8488746 -0.26163206
0.32445803 -7.8989344 -0.26323187
0.27633467 -7.9107637 -0.26356518
0.22903021 -7.9552689 -0.26499835
0.18189403 -8.0304642 -0.26746473
0.13341253 -8.0793962 -0.26906455
0.084306002 -8.1250353 -0.27056438
0.034324933 -8.0964155 -0.26959783
-1.0180695 -9.0246992 -0.30246082
-1.0790915 -9.0659199 -0.30406064
-1.1474855 -9.161273 -0.3074936
-1.2095366 -9.1986513 -0.30899343
-1.2694997 -9.2167988 -0.30985999
-1.3293036 -9.2315893 -0.3106266
-1.3995795 -9.314188 -0.3136929
-1.4599485 -9.3261614 -0.31439283
-1.5287058 -9.3880529 -0.31679258
-1.5969442 -9.4415655 -0.31892565
-1.6719394 -9.529047 -0.3222253
-1.7389542 -9.5658083 -0.32382512
-1.8099926 -9.6207676 -0.32605821
-1.8832963 -9.6830606 -0.32855791
-1.9525131 -9.7203178 -0.33022439
-2.0425346 -9.8549528 -0.33522385
-2.1067231 -9.859828 -0.33582377
-2.1794238 -9.9023523 -0.33772355
-2.2650871 -9.9989424 -0.34148982
-2.3404539 -10.045205 -0.34355626
-2.415077 -10.085086 -0.34542271
-2.4988687 -10.159367 -0.34848902
-2.5682521 -10.171945 -0.3494556
-2.6453998 -10.213079 -0.35142204
-2.7493095 -10.352177 -0.3567881
-2.8544993 -10.48845 -0.36208752
-2.927119 -10.500583 -0.36312073
-3.0005436 -10.51414 -0.36422062
-3.0806868 -10.549258 -0.36608708
-3.2414312 -10.613894 -0.36968666
-3.3151298 -10.621472 -0.37065321
-3.3823643 -10.607597 -0.37088653
-3.2051232 -9.8425226 -0.34478945
-3.1330588 -9.4243307 -0.330791
-3.2049522 -9.4465742 -0.33225751
-3.2762558 -9.4654551 -0.33362404
-3.3422563 -9.4677935 -0.33442393
-3.3985946 -9.4424057 -0.33425727
-3.4778068 -9.4795504 -0.33632371
-3.5485044 -9.4917345 -0.33752358
-3.6251721 -9.5183516 -0.33925673
-3.7041066 -9.5490427 -0.34115651
-3.7729073 -9.5521631 -0.34208974
-3.8482232 -9.5705633 -0.34358957
-3.9140658 -9.5643454 -0.34422284
-3.9976475 -9.6001225 -0.34638926
-4.1661668 -9.6687498 -0.35068879
-4.2759485 -9.7583504 -0.35488832
-4.3833251 -9.838747 -0.35878789
-4.4786549 -9.8890543 -0.3616209
-4.5822873 -9.9549026 -0.36505386
-4.6504807 -9.9419889 -0.36562046
-4.8315043 -10.166025 -0.37495273
-4.9224672 -10.195593 -0.3771525
-5.0914145 -10.382362 -0.38521826
-5.1933365 -10.427868 -0.38808462
-5.2725563 -10.42613 -0.38921782
-5.3473854 -10.414921 -0.39001772
-3.7382119 -7.1717033 -0.26929787
-3.7971005 -7.1769013 -0.2703644
-3.8377566 -7.1473036 -0.27013111
-3.8896675 -7.1385412 -0.27069771
-6.5056438 -11.76798 -0.44801125
-6.7185211 -11.978897 -0.45761019
-6.9134698 -12.151149 -0.46580929
-7.1257668 -12.347422 -0.47500825
-7.3457747 -12.550164 -0.48454052
-7.5945501 -12.794494 -0.4957726
-8.0444965 -13.365059 -0.51980323
-8.4454899 -13.838421 -0.54023433
-8.5817747 -13.869633 -0.5435006
-8.7235374 -13.90731 -0.54706687
-8.8859243 -13.974974 -0.55186635
-9.0500088 -14.042004 -0.55669916
-9.1698847 -14.038088 -0.55876559
-9.3016367 -14.050731 -0.56153196
-9.4661789 -14.110422 -0.56623143
-9.5896635 -14.106627 -0.56843114
-9.7219601 -14.114191 -0.57113087
-9.866147 -14.137053 -0.57449716
-9.9850149 -14.12195 -0.57636362
-10.142478 -14.159546 -0.58042985
-10.29784 -14.191693 -0.58432937
-10.410769 -14.163673 -0.58579588
-10.544032 -14.162059 -0.5883956
-10.699929 -14.188865 -0.59222853
-10.928738 -14.308809 -0.60002762
-11.067082 -14.307098 -0.60279399
-11.194104 -14.289277 -0.60492706
-11.35238 -14.309584 -0.60872668
-11.511325 -14.328484 -0.61252624
-11.677863 -14.354495 -0.61669242
-11.840703 -14.3736 -0.62062532
-12.044545 -14.439596 -0.62665802
-12.192245 -14.435668 -0.62972432
-12.288386 -14.369702 -0.63012427
-12.392026 -14.312166 -0.63092417
-12.480927 -14.237363 -0.63099086
-12.533554 -14.121643 -0.62925774
-12.674742 -14.105434 -0.63199073
-12.785936 -14.054752 -0.63322395
-12.894277 -14.000296 -0.63432384
-13.182359 -14.138025 -0.64422274
-13.27915 -14.067776 -0.64472264
-13.365909 -13.986753 -0.64475596
-13.464682 -13.918127 -0.64538926
-13.481997 -13.765984 -0.64215624
-13.419849 -13.535371 -0.63522369
-13.303701 -13.254547 -0.62585807
-13.329931 -13.118686 -0.62329173
-13.205944 -12.838092 -0.61379278
-13.15111 -12.628748 -0.6076268
-13.068104 -12.395803 -0.60026097
-13.151211 -12.32222 -0.60059422
-13.170093 -12.189019 -0.59802788
-13.092683 -11.969057 -0.59116197
-12.962636 -11.704961 -0.58202964
-12.811201 -11.426286 -0.5720641
-12.856323 -11.32566 -0.57096422
-12.722758 -11.070078 -0.56199855
-12.998886 -11.170948 -0.57116419
-13.013848 -11.045705 -0.56883115
-13.02317 -10.916847 -0.56629807
-17.534935 -14.51692 -0.75874329
-12.411826 -10.147614 -0.534235
-12.376657 -9.9927807 -0.53006876
-12.413514 -9.8973351 -0.52903557
-12.290262 -9.676302 -0.52123642
-12.395167 -9.6362886 -0.52316952
-12.392224 -9.5125799 -0.52056986
-12.372303 -9.3771982 -0.51730353
-12.692067 -9.4975233 -0.52823567
-12.809588 -9.4634171 -0.53070205
-12.895675 -9.4052544 -0.53186858
-20.445717 -13.070412 -0.80883765
-20.319265 -12.81462 -0.80070525
-20.23288 -12.587276 -0.79423928
-20.086554 -12.325932 -0.78550696
-20.168646 -12.206591 -0.78577358
-20.261187 -12.093368 -0.78647351
-20.347929 -11.976424 -0.78697348
-18.862509 -10.946799 -0.72688013
-18.516407 -10.59458 -0.71101528
-18.577583 -10.478802 -0.71088195
-18.541079 -10.308761 -0.70704901
-18.567171 -10.174626 -0.7056492
-18.586163 -10.037237 -0.70401603
-18.605932 -9.9009371 -0.70244956
-18.684921 -9.7963333 -0.7031495
-18.765991 -9.6925087 -0.70394939
-18.94002 -9.6356449 -0.70824891
-19.121202 -9.5805902 -0.71281505
-17.593224 -8.6803045 -0.65382165
-17.426805 -8.4656267 -0.64568919
-17.346783 -8.2955809 -0.64082307
-17.299696 -8.143014 -0.63722348
-17.300365 -8.0140247 -0.63542372
-17.233717 -7.8550735 -0.63119084
-17.123825 -7.6784315 -0.6254248
-17.201708 -7.5869317 -0.62655801
-17.282778 -7.4963551 -0.62782454
-17.278807 -7.3689952 -0.62602472
-17.379919 -7.2864094 -0.62805784
-17.466808 -7.1971478 -0.62959099
-17.544916 -7.1037169 -0.63082421
-17.712614 -7.045433 -0.63529038
-17.858841 -6.9769902 -0.63898998
-17.965702 -6.8919811 -0.64128971
-18.100246 -6.8164907 -0.6445893
-18.235476 -6.7399535 -0.64792228
-18.414604 -6.6780281 -0.65282178
-18.534328 -6.5930519 -0.65562141
-18.630112 -6.4986267 -0.65758789
-18.781225 -6.4223552 -0.66152078
-17.068686 -5.6036854 -0.59869444
-17.092281 -5.4954829 -0.59832782
-17.103754 -5.3836007 -0.59756124
-17.088707 -5.2638402 -0.59589475
-10.623101 -3.2007468 -0.36958668
-16.982328 -5.0037351 -0.58999544
-16.897179 -4.7540798 -0.58496267
-16.900974 -4.6434259 -0.58409607
-16.905014 -4.5331635 -0.58326286
-16.902538 -4.4215093 -0.58222961
-17.058151 -4.3505688 -0.58666247
-17.101013 -4.2499189 -0.58722907
-17.161739 -4.1533732 -0.58842891
-17.230679 -4.0583053 -0.58992875
-17.371185 -3.9790628 -0.59389502
-19.022959 -3.5054011 -0.644656
-19.1266 -3.2823482 -0.64675575
-19.266678 -3.1848176 -0.65082198
-58.563866 -3.851301 -1.9568096
-58.569435 -3.4908764 -1.956243
-58.254414 -3.1135092 -1.9450443
-89.141289 -2.5729842 -2.9735296
-53.615089 4.0534587 -1.7926613
-51.990997 6.5090179 -1.7469331
-51.693428 6.7941775 -1.7383007
-87.387184 22.63003 -3.0099256
-9.465147 2.7641647 -0.3284246
-9.474823 2.8301973 -0.32935783
-9.4955139 2.899955 -0.33069101
-9.4298382 2.9432778 -0.32902452
-9.3773203 2.9901543 -0.32782468
-9.2656631 3.0173144 -0.32455838
-9.2612009 3.0788391 -0.32505831
-9.239296 3.1346436 -0.32495832
-9.2028875 3.1853926 -0.32435837
-9.2142696 3.2527776 -0.32545826
-9.1913166 3.308239 -0.32535827
-9.1980562 3.3745544 -0.32632482
-9.1968365 3.4382775 -0.32702476
-9.1811705 3.4967775 -0.32722473
-9.166997 3.5559375 -0.32749137
-9.1394272 3.6099155 -0.3272914
-9.1180334 3.6662989 -0.32732472
-9.1046152 3.7259619 -0.32765803
-9.0917311 3.7859824 -0.32802466
-9.0747719 3.8444252 -0.32825795
-9.0675344 3.9071529 -0.3288579
-9.0699377 3.9743474 -0.32982445
-9.0581627 4.0356178 -0.33029106
-9.068737 4.1072001 -0.33159092
-9.0687866 4.1744676 -0.33252415
-9.0511494 4.2338448 -0.33282411
-9.0529842 4.3025994 -0.33385733
-9.0372143 4.3632808 -0.33425727
-9.0730886 4.44945 -0.33659035
-9.0518789 4.5081558 -0.33682367
-9.0454531 4.5744362 -0.33762357
-9.0447769 4.644002 -0.33865678
-9.0471334 4.7155781 -0.33982334
-9.0639677 4.7953024 -0.34155646
-9.0836859 4.8773007 -0.34342292
-9.1150246 4.9664145 -0.34575599
-9.0861292 5.0232167 -0.34582266
-9.1030817 5.1057611 -0.3476558
-9.062026 5.1560841 -0.34728917
-9.119381 5.263042 -0.3507221
-9.1317701 5.3451486 -0.35245526
-9.1108332 5.4082217 -0.35292187
-9.1117306 5.4846377 -0.35425505
-9.1649256 5.5935459 -0.35765466
-9.1720781 5.6754417 -0.35928783
-9.157402 5.744359 -0.36008772
-9.1641541 5.827251 -0.36175421
-15.652486 10.087869 -0.620592
-15.620416 10.203397 -0.6217919
-11.159671 7.3879046 -0.4459115
-11.046901 7.4111414 -0.44321179
-10.995433 7.4748516 -0.4429785
-10.964176 7.552382 -0.44357842
-10.924187 7.6240907 -0.44384506
-10.904946 7.7105937 -0.44497827
-10.897244 7.8058763 -0.4466114
-15.587118 11.310316 -0.64182299
-15.51662 11.405152 -0.64178967
-15.451158 11.503727 -0.64198965
-37.275047 28.10807 -1.5564543
-35.773819 27.321989 -1.5007272
-14.786966 11.438251 -0.62302506
-14.703916 11.518905 -0.62249178
-27.976742 22.194305 -1.1904951
-26.947887 21.648863 -1.1523327
-11.926991 9.7031488 -0.51233745
-10.209431 8.4105816 -0.44071206
-12.332001 10.286654 -0.53513485
-11.418795 9.6443958 -0.49803901
-12.281559 10.502815 -0.53850114
-11.327541 9.8080015 -0.4992722
-11.212282 9.8292284 -0.49683914
-11.621948 10.315123 -0.51780349
-12.11155 10.883218 -0.54260069
-12.416421 11.29561 -0.55936551
-11.794024 10.862439 -0.53430164
-9.995388 9.3200054 -0.45534378
-9.7613974 9.2144566 -0.44724467
-9.1063681 8.7024679 -0.41964775
-9.1806641 8.8818703 -0.42558044
-9.0388775 8.8527212 -0.42151421
-9.1263409 9.0487471 -0.42818013
-9.1722279 9.2065268 -0.43297961
-9.15763 9.3053722 -0.43497938
-9.2473621 9.5125895 -0.44201192
-9.2248182 9.606636 -0.44374508
-9.142312 9.6384039 -0.44261187
-11.788501 12.581626 -0.5745638
-10.487717 11.331988 -0.51450384
-8.739459 9.5601578 -0.43154642
-8.6699162 9.6017332 -0.43101317
-8.587554 9.6286449 -0.42984661
-8.583149 9.7433996 -0.43261299
-8.6281748 9.9165154 -0.43794572
-8.7437038 10.174681 -0.44697803
-6.2615376 7.3776641 -0.32229194
-8.6085558 10.269724 -0.4464781
-6.5134368 7.8681188 -0.34022328
-6.4251804 7.8591914 -0.33812353
-6.3523488 7.8681412 -0.33682367
-6.1699867 7.7389617 -0.32965779
-8.6048088 10.929433 -0.46347621
-6.0359054 7.7643857 -0.32755804
-5.9644141 7.7703567 -0.32625818
-5.9166241 7.8068075 -0.32625818
-5.900948 7.8861742 -0.32805797
-5.8275042 7.8884716 -0.32665813
-5.8125625 7.9701056 -0.32855791
-5.7647176 8.0072432 -0.32862458
-5.9326077 8.3479538 -0.34112319
-5.7658987 8.2197447 -0.33442393
-13.026648 18.81357 -0.7627095
-5.3538761 7.8352208 -0.31605932
-5.6404476 8.3642569 -0.33602375
-12.755116 19.165812 -0.76734233
-12.571441 19.143467 -0.76334274
-7.4698505 11.528929 -0.45771018
-7.3768978 11.540021 -0.45634365
-7.2680955 11.525047 -0.45397726
-5.3097539 8.5356474 -0.33482388
-2.2566841 3.6785457 -0.14351189
-2.2449381 3.7102787 -0.14421181
-2.2313509 3.7394309 -0.14481175
-2.1992385 3.7375481 -0.14421181
-2.1301084 3.6714468 -0.14114548
-2.093642 3.6601586 -0.14021227
-2.0519938 3.6389866 -0.13891241
-2.0208843 3.6357863 -0.13831247
-1.9946948 3.6411059 -0.13804583
-1.9694662 3.6480002 -0.13784586
-1.9451673 3.656487 -0.13771254
-1.9380106 3.6975634 -0.13881242
-1.9345504 3.7466803 -0.14021227
-1.9146973 3.7647154 -0.14044558
-1.9009639 3.7951574 -0.14114548
-8.4078798 17.041121 -0.63329059
-8.2450724 16.972826 -0.62885773
-8.0704851 16.876131 -0.62342501
-7.9016557 16.78698 -0.61832559
-4.8030519 10.369261 -0.38068545
-7.5740104 16.617132 -0.60859334
-4.5453944 10.137424 -0.37008661
-7.1868024 16.294586 -0.59349501
-1.574043 3.6302307 -0.13154656
-1.5599729 3.6591263 -0.13224648
-1.5444478 3.6852198 -0.13284642
-1.5240915 3.7001712 -0.13304639
-1.5021091 3.7113061 -0.13311306
-1.4416274 3.6257293 -0.12971343
-1.4055318 3.5991321 -0.12844691
-1.3726814 3.5796947 -0.12744702
-1.341532 3.5637319 -0.12658045
-1.3023139 3.5250239 -0.12491397
-1.2728227 3.5113387 -0.12414739
-1.2475686 3.5087245 -0.12378076
-1.226016 3.5163136 -0.12378076
-1.2063578 3.529444 -0.12398074
-1.186902 3.5434132 -0.12421405
-1.1626434 3.5430324 -0.1239474
-1.134457 3.5301187 -0.12324749
-1.1109746 3.5312934 -0.12304751
-1.0869321 3.5304024 -0.12278087
-1.0646727 3.5350914 -0.12271421
-1.0488944 3.5616901 -0.12341414
-1.0613215 3.6871486 -0.12754701
-1.04328 3.7099466 -0.12811361
-1.0215558 3.7201333 -0.12824693
-0.99871016 3.7263312 -0.12824693
-0.94243526 3.6047583 -0.12384742
-2.8333056 11.110028 -0.38195196
-8.1125383 35.413464 -1.2111595
-7.8890109 35.435257 -1.2102263
-2.3075538 10.675368 -0.36382064
-2.3733485 11.315341 -0.38515159
-2.3050694 11.335567 -0.3853516
-2.2375977 11.360284 -0.3857182
-2.1717808 11.394416 -0.38641813
-2.1186724 11.498937 -0.38951778
-2.0536802 11.543207 -0.39058432
-6.4978757 37.860069 -1.2806184
-6.2556667 37.840065 -1.2786186
-5.8436613 38.259777 -1.290284
-7.6367378 52.139397 -1.7568986
-7.3039041 52.094212 -1.7538322
-6.9638186 51.986488 -1.7487328
-6.589242 51.594013 -1.7341344
-6.2479529 51.431068 -1.7273352
-5.9045634 51.228165 -1.7192695
-5.5617323 51.00312 -1.7105371
-2.6754518 26.018255 -0.87183064
-2.5086405 25.960562 -0.86936426
-2.3366954 25.836117 -0.86469811
-2.1689746 25.741411 -0.86106521
-2.000169 25.615734 -0.85643238
-1.8371475 25.546778 -0.85373265
-1.6755067 25.483772 -0.85126626
-1.5123296 25.379839 -0.84746671
-1.3470234 25.209993 -0.8415007
-1.1896205 25.160879 -0.83960092
-1.030405 25.050871 -0.83570135
-0.87436819 24.990795 -0.83350158
-0.71714604 24.861822 -0.8290354
-0.56235743 24.767834 -0.82576913
-0.40889853 24.681881 -0.82280278
-0.25628576 24.572992 -0.81910318
-0.10520166 24.504141 -0.81677014
0.0064191744 0.72555798 -0.023791913
0.14312243 0.73272759 -0.024491835
0.14906178 0.71623623 -0.02399189
9.1689348 36.321751 -1.2488552
9.3770962 36.208691 -1.2469221
9.5772915 36.068363 -1.2440891
17.107676 48.469891 -1.7137034
2.4092531 6.2103329 -0.22173651
2.4260218 6.1415172 -0.21980338
2.4696248 6.1413531 -0.22033666
2.5019619 6.1131339 -0.21987005
4.5016484 10.810666 -0.3901177
4.6365018 10.944813 -0.39598373
4.7023845 10.913404 -0.39588374
4.7648473 10.874275 -0.39551711
4.831481 10.844834 -0.39551711
4.9012308 10.822268 -0.39578375
9.6885929 20.387403 -0.75234395
9.8187199 20.338373 -0.75274396
13.081871 26.678738 -0.99048406
9.3961935 18.868097 -0.7025162
8.8619232 17.524845 -0.65448821
8.9332285 17.399899 -0.65185517
8.9936342 17.256126 -0.64852226
9.1124315 17.225355 -0.64945549
9.182498 17.103075 -0.64695573
9.8820601 18.138216 -0.68841779
14.183226 25.657448 -0.97725224
14.350166 25.587372 -0.9779188
17.911884 29.351048 -1.1462667
17.945457 29.004311 -1.137001
17.581949 28.03088 -1.1030382
17.238655 26.7486 -1.0608096
16.857553 25.808064 -1.0275799
16.905258 25.53746 -1.0209141
16.913534 25.212473 -1.0120484
16.42909 24.168413 -0.97415257
16.174002 23.481926 -0.95045519
16.293184 23.346998 -0.94902205
15.804926 22.353788 -0.91255945
15.744502 21.980946 -0.90126073
15.926033 21.948641 -0.90392709
15.444837 21.012968 -0.86926425
15.549009 20.884935 -0.86789775
15.628124 20.724497 -0.86519808
15.61183 20.440762 -0.85733229
15.550458 20.103464 -0.84716672
15.505877 19.793663 -0.83810109
15.499083 19.53685 -0.83123517
15.293185 19.036217 -0.81390381
15.339693 18.855959 -0.81020421
15.38012 18.670454 -0.80627131
15.353555 18.406879 -0.79893881
15.12701 17.910685 -0.78140742
15.109316 17.66865 -0.77487481
15.203052 17.558985 -0.77414155
15.184673 17.321819 -0.7677756
14.981524 16.879978 -0.752244
14.94788 16.635332 -0.7454114
14.653551 16.107841 -0.72578031
14.788672 16.057325 -0.72758007
14.767649 15.838356 -0.7217474
14.383427 13.643548 -0.66072088
14.15546 13.263233 -0.64648914
14.177162 13.121138 -0.64378941
14.039066 12.834285 -0.63392383
14.015931 12.656133 -0.6293577
13.865838 12.366985 -0.61919218
13.766727 12.127733 -0.61142635
13.402832 11.661856 -0.59206188
13.44988 11.558552 -0.59099531
13.418447 11.38914 -0.58652914
13.431399 11.259077 -0.58406276
13.307772 11.017109 -0.57573032
13.347267 10.912472 -0.57453048
13.212575 10.667748 -0.56589812
13.235585 10.552831 -0.5640983
13.208999 10.399698 -0.5602321
13.171567 10.239931 -0.5559659
13.103342 10.058498 -0.55046648
12.876483 9.7593594 -0.53840119
12.88411 9.641243 -0.53623474
12.862641 9.502615 -0.53290176
12.925551 9.4270458 -0.5331018
12.839592 9.2441912 -0.52720243
12.58814 8.9463682 -0.51460385
12.564251 8.8138552 -0.51140422
12.559756 8.6962004 -0.50903779
12.602977 8.6122046 -0.50863785
12.436832 8.3871765 -0.4998388
12.4007 8.2525644 -0.4963392
12.156207 7.9826508 -0.48457384
12.176441 7.889432 -0.48344064
12.147151 7.7650433 -0.48037431
12.331515 7.7767358 -0.48577371
12.173636 7.5731564 -0.47770795
12.198108 7.3823133 -0.47507492
12.120455 7.2340755 -0.47030878
11.795112 6.9420733 -0.45601037
11.649045 6.760201 -0.44874451
11.584475 6.6280379 -0.44467831
11.497832 6.4851403 -0.43981218
11.439577 6.3600712 -0.43607926
11.357435 6.2234745 -0.43147978
11.325936 6.1161494 -0.42884675
11.294433 6.0099158 -0.42624703
11.272676 5.9098701 -0.42404726
11.200393 5.7846332 -0.41998106
11.224986 5.7103615 -0.41958109
13.545495 6.786696 -0.50483823
13.573439 6.6968207 -0.50433832
13.619668 6.6160302 -0.5045383
13.616729 6.5116386 -0.50293845
13.694406 6.4458442 -0.50433832
13.743674 6.3663163 -0.50470495
13.767018 6.2748199 -0.50413835
13.829884 6.2012706 -0.50503826
13.859444 6.1126652 -0.50473827
13.94345 6.0477948 -0.50643808
14.053843 5.993494 -0.50910443
14.096805 5.9098535 -0.50933778
14.137422 5.82515 -0.50950438
14.188646 5.7446713 -0.51007098
14.061112 5.5928545 -0.50423831
10.072694 3.9348385 -0.36022106
14.469277 5.5505519 -0.51640362
14.626523 5.5081649 -0.52080315
14.601923 5.3968301 -0.51873672
9.5094757 3.4482629 -0.33692366
9.7686872 3.4746022 -0.34535605
9.7964287 3.4169018 -0.34558934
9.7207518 3.3237398 -0.34218973
17.781668 5.9589005 -0.62499154
17.822643 5.8512411 -0.62515819
9.5528841 3.0711269 -0.33422396
9.5400887 3.0025504 -0.33312407
9.5191708 2.9318924 -0.33175758
9.4738235 2.8543954 -0.32955781
9.4729452 2.7908435 -0.32892454
9.3900089 2.7038975 -0.32545826
9.3660154 2.6348605 -0.32405841
9.311655 2.5580106 -0.32162535
9.2682905 2.4850342 -0.31959224
9.2524223 2.4200234 -0.3185257
9.2225494 2.3518426 -0.31699255
9.1679411 2.2780931 -0.31462613
9.0515804 2.1902895 -0.31015998
9.0259371 2.1255422 -0.30882677
9.0125055 2.0640941 -0.30792689
9.0045137 2.004194 -0.30722696
8.9756136 1.9400345 -0.30582711
8.9472446 1.8765106 -0.30446061
8.9497757 1.8197832 -0.30416065
8.9195881 1.7567196 -0.30276081
8.8889647 1.6940954 -0.30136096
8.8018866 1.6215876 -0.29806131
8.7890387 1.5635221 -0.29729474
8.7295141 1.4977286 -0.29496166
8.6892366 1.4359856 -0.29329517
8.6890011 1.3812295 -0.29299521
8.6736012 1.3242668 -0.29219532
8.637064 1.2645034 -0.29069549
8.6505976 1.2123162 -0.29089546
8.5954666 1.1508538 -0.28879568
8.4992619 1.0849221 -0.2853294
8.4670639 1.0280502 -0.28402954
8.4384623 0.97207212 -0.28286302
8.4243975 0.91810924 -0.28219643
8.3970642 0.86302632 -0.28109655
8.3624086 0.80764037 -0.27976337
8.3373461 0.75361288 -0.27876347
8.3208981 0.700679 -0.27806357
8.3100948 0.64844227 -0.2775636
8.2800236 0.595002 -0.2764304
8.2356491 0.54103696 -0.27483058
8.2238483 0.48960167 -0.27433065
8.2765989 0.44179949 -0.2759971
8.212266 0.38784268 -0.27376404
8.1645613 0.33539084 -0.27209756
8.1165237 0.28353906 -0.27043107
8.0661612 0.23223181 -0.26869792
8.0444527 0.18221201 -0.26793134
8.0584106 0.13306431 -0.26836464
8.0171013 0.083177447 -0.26696479
7.9864779 0.033850033 -0.26593158
6.5166821 -0.043771505 -0.32609779
6.7180886 -0.37529421 -0.33671263
6.6899309 -0.538688 -0.33586141
6.6599445 -0.61861783 -0.33470982
6.5526595 -0.64922613 -0.32950252
6.528688 -0.68732822 -0.32850114
6.3838725 -0.75139409 -0.32164153
6.3702211 -0.78944486 -0.32119092
6.3147478 -0.8219406 -0.31863734
6.3016686 -0.85959148 -0.3182368
6.2972646 -0.89838272 -0.31828687
6.2945967 -0.93744653 -0.31843707
6.325243 -0.98172081 -0.32028964
6.5064335 -1.050774 -0.32980296
6.4003816 -1.0739802 -0.32474589
6.5589724 -1.1420195 -0.33315766
6.5370989 -1.1795821 -0.33240661
6.5690084 -1.2270075 -0.33440939
6.474081 -1.2504313 -0.32995316
6.3418984 -1.2653099 -0.32359427
6.3653183 -1.3106458 -0.3251965
6.2907233 -1.3355712 -0.32179177
6.3126554 -1.3807619 -0.32334393
6.2153993 -1.3995018 -0.31878754
6.3740473 -1.4763814 -0.32739961
6.335721 -1.5085231 -0.32589749
6.2526155 -1.5293334 -0.32209218
6.2644243 -1.5730219 -0.32319373
6.1531034 -1.5852628 -0.31793636
6.0785651 -1.6058931 -0.31458166
6.069561 -1.6434215 -0.31463176
6.0131674 -1.667818 -0.31222838
6.008585 -1.7063198 -0.31252882
5.9941659 -1.7420408 -0.31232852
6.0293159 -1.7924502 -0.3147319
6.0124707 -1.8276687 -0.31443146
5.9629931 -1.8526713 -0.31242865
5.9353299 -1.884087 -0.31157747
5.8942065 -1.9109206 -0.3100253
5.8700442 -1.9429704 -0.30937439
5.8438191 -1.9741565 -0.30862334
5.8202648 -2.0060704 -0.3080225
5.7965403 -2.03777 -0.30742165
5.7829871 -2.0729616 -0.30737159
5.7626543 -2.1056635 -0.30697104
5.7402663 -2.1374974 -0.30647033
5.6980948 -2.1616957 -0.30491817
5.6996298 -2.202378 -0.30571929
5.6925144 -2.2398689 -0.30606976
5.6805177 -2.2754982 -0.30616993
5.6544261 -2.3054082 -0.30551901
5.6189566 -2.3312559 -0.30436739
5.5778632 -2.354425 -0.30291536
5.5504637 -2.3830888 -0.30221438
5.5357366 -2.4171009 -0.30221438
5.5071096 -2.4449427 -0.30146334
5.4856319 -2.4758115 -0.30111283
5.4558129 -2.5027606 -0.30031171
5.4421639 -2.5370338 -0.30041185
5.4264946 -2.5703783 -0.30041185
5.3989215 -2.597996 -0.29976097
5.3730087 -2.6262496 -0.29921019
5.3460584 -2.6538389 -0.29860935
5.3287821 -2.6861422 -0.29855928
5.3157563 -2.7206085 -0.29875955
5.2909865 -2.7490296 -0.29830894
5.2872705 -2.7884319 -0.29905999
5.2233934 -2.7958398 -0.29640627
5.1903434 -2.8192561 -0.29550502
5.1860671 -2.8582821 -0.29625607
5.1614575 -2.8861496 -0.29585549
5.1288834 -2.9093876 -0.29500431
5.1100698 -2.9403048 -0.29495424
5.0902071 -2.9705975 -0.2948541
5.0469589 -2.9870217 -0.29340208
5.0345306 -3.0215309 -0.29375255
