# .PCD v0.7 - Point Cloud Data file format
VERSION 0.7
FIELDS x y z
SIZE 4 4 4
TYPE F F F
COUNT 1 1 1
WIDTH 1461
HEIGHT 1
VIEWPOINT 0 0 0 1 0 0 0
POINTS 1461
DATA ascii
-10.323879 3.0693491 -0.53934592
-10.300074 3.1311851 -0.53909558
-10.234887 3.1801004 -0.5366922
-10.18948 3.2346809 -0.53534031
-10.138088 3.2869761 -0.53368801
-10.087389 3.339076 -0.53208578
-10.028863 3.3881211 -0.530083
-10.06737 3.4700987 -0.5332374
-10.07227 3.5410812 -0.53463936
-10.058814 3.6058505 -0.53508997
-10.04119 3.6692162 -0.53534031
-10.00164 3.7244844 -0.53443909
-9.9589891 3.7783434 -0.5333876
-9.9290972 3.836859 -0.53303713
-9.8904982 3.8918591 -0.53223598
-9.8784838 3.9573011 -0.53288692
-9.8410692 4.0125608 -0.53218591
-7.1558166 2.9689541 -0.38778403
-7.1503468 3.0182433 -0.38848501
-7.1271038 3.0600901 -0.38823465
-7.1219225 3.1097586 -0.38898569
-7.2149835 3.2032509 -0.39514431
-7.0468125 3.1804862 -0.38698289
-6.9899459 3.2065895 -0.38493004
-6.9918637 3.2595475 -0.3861317
-6.9690242 3.3011043 -0.3859815
-6.8253446 3.2844679 -0.3791219
-6.7817335 3.3148816 -0.3778201
-6.7550044 3.3533223 -0.3774696
-6.8127823 3.4342718 -0.38187575
-8.093153 4.1422186 -0.45517826
-8.1163282 4.2171268 -0.45793208
-8.0699816 4.2561321 -0.45678049
-8.0754128 4.3225369 -0.458583
-7.9723864 4.3305287 -0.45422691
-7.9290457 4.3702044 -0.45327559
-7.8872623 4.4104872 -0.45242441
-7.8982739 4.4804831 -0.45462748
-9.0098314 5.1844087 -0.52051961
-8.9907894 5.2471466 -0.52127063
-8.9678783 5.3078103 -0.52182144
-8.9462738 5.3694181 -0.52247232
-8.9233971 5.4304409 -0.5230732
-8.8967085 5.4892869 -0.52347374
-8.8637056 5.5443029 -0.52352381
-8.8320503 5.6001892 -0.52367401
-8.795002 5.6526566 -0.52352381
-8.7727051 5.7146921 -0.52427483
-8.7249727 5.760159 -0.52352381
-8.6172476 5.7652674 -0.51916772
-8.6139498 5.8398919 -0.52112043
-8.5046892 5.8423038 -0.51666421
-8.4588451 5.8875308 -0.51606339
-8.409502 5.9301133 -0.51526225
-8.3437014 5.9607 -0.51345974
-8.2875519 5.9977303 -0.51225805
-8.2272358 6.0313439 -0.51080602
-7.9928222 5.9352322 -0.49848881
-7.8516946 5.9055166 -0.49192962
-7.7573152 5.9094005 -0.48827451
-7.4259644 5.7293177 -0.46959841
-7.2978067 5.7022114 -0.46369016
-6.9807324 5.5237679 -0.44566494
-6.8539624 5.4921751 -0.43970662
-6.8053989 5.5221691 -0.43875527
-6.74438 5.5416298 -0.43700284
-6.6311722 5.5171123 -0.43184564
-6.6262197 5.5821495 -0.43374828
-6.540174 5.5786266 -0.43034354
-6.4506435 5.5709953 -0.4266884
-5.1750565 4.5250292 -0.34402284
-5.1471939 4.5566974 -0.34402284
-5.1169062 4.586194 -0.34387264
-5.0731382 4.6034102 -0.34282115
-5.0433259 4.6331005 -0.34272102
-6.3977213 5.9502134 -0.43740341
-6.236752 5.8722782 -0.42884141
-6.3401256 6.0434356 -0.43850493
-6.2073412 5.9899831 -0.43184564
-6.067596 5.927454 -0.42463556
-6.0183301 5.951931 -0.42373428
-5.9202933 5.9272676 -0.41937819
-5.8753958 5.9549508 -0.41877735
-5.7655544 5.9157867 -0.41352001
-5.7395377 5.9618449 -0.41427106
-5.6959662 5.9897122 -0.41377035
-5.6727824 6.0391088 -0.41477177
-3.4910817 3.7623923 -0.25670075
-3.4517353 3.7660708 -0.25549906
-3.387006 3.7412722 -0.25239474
-3.3553321 3.7523053 -0.25174382
-3.3276174 3.7675824 -0.25139332
-3.3044374 3.7879293 -0.25139332
-3.2811327 3.8081336 -0.25139332
-3.2706494 3.8434076 -0.25239474
-3.2630689 3.8825185 -0.25364649
-3.3093483 3.9870059 -0.25915417
-3.2949522 4.0195956 -0.25995529
-3.2997596 4.0762234 -0.2623086
-3.3707199 4.2165356 -0.27001938
-6.5130224 8.2509832 -0.5263778
-6.2829919 8.0607719 -0.51175737
-5.708344 7.4169092 -0.46859699
-8.2664909 10.87836 -0.68434864
-8.2948866 11.055903 -0.6923098
-6.4036913 8.6451197 -0.53874511
-6.3959179 8.7463274 -0.54260045
-6.4005876 8.8663874 -0.54760748
-6.7459774 9.4667206 -0.58215576
-6.4694223 9.1975079 -0.56312919
-6.4419131 9.2788725 -0.56568277
-6.3718739 9.2992744 -0.56453115
-6.2525959 9.2463608 -0.55897337
-5.849268 8.7653217 -0.52767962
-5.7135358 8.6767578 -0.52021921
-5.4757304 8.4277363 -0.50324547
-5.4002004 8.42418 -0.50104237
-5.2998328 8.3803406 -0.49648601
-5.1457605 8.2483101 -0.48677242
-5.0615549 8.2252893 -0.48356795
-4.972127 8.1921558 -0.47981268
-4.645298 7.7606039 -0.45282495
-4.5889616 7.7743392 -0.45197377
-4.8159723 8.2745199 -0.47936207
-4.760139 8.2952518 -0.47886136
-4.7125931 8.330389 -0.47921184
-4.639502 8.3198948 -0.47695869
-4.416153 8.0348597 -0.45903364
-4.5608382 8.4201117 -0.47946221
-4.3412037 8.1333838 -0.46158722
-4.4297409 8.4232922 -0.47650808
-4.3807297 8.4556351 -0.47680849
-4.0341411 7.9049969 -0.44431305
-4.3564687 8.6675997 -0.48572096
-4.2850399 8.6574678 -0.48366809
-4.2195873 8.6584587 -0.48226613
-4.1698365 8.69139 -0.48266667
-4.1364727 8.7592592 -0.48501998
-4.116322 8.8569326 -0.48902556
-4.0785131 8.918354 -0.49102837
-2.6989388 5.9985461 -0.32915205
-2.6604652 6.0113401 -0.32895178
-2.6649804 6.1227918 -0.33415905
-2.6976962 6.3033872 -0.34312159
-2.6272106 6.2443323 -0.33901584
-2.5106118 6.0711288 -0.32875147
-2.4838398 6.1123271 -0.33015344
-2.401855 6.0161443 -0.32414505
-4.0175428 10.245663 -0.55111235
-3.9452705 10.245888 -0.54981053
-2.26034 5.978992 -0.31983903
-2.1607308 5.8232641 -0.31077635
-2.1225677 5.829843 -0.31042588
-3.7544386 10.512689 -0.55902344
-3.6908536 10.538356 -0.55917364
-3.6264465 10.561749 -0.55922371
-3.5567946 10.569602 -0.55847269
-3.4884341 10.580793 -0.55792189
-3.4176154 10.583941 -0.5569706
-3.3432767 10.57519 -0.55541837
-1.630272 5.2686238 -0.27587757
-1.5927057 5.2613211 -0.27497631
-1.5510386 5.2393913 -0.27332398
-1.5196939 5.251688 -0.27347422
-3.0591516 10.820774 -0.56312919
-2.9926989 10.839341 -0.56312919
-2.9219756 10.842071 -0.56232804
-2.8604739 10.879114 -0.56332946
-1.3149768 5.1284623 -0.26481208
-2.7403116 10.96766 -0.56613338
-2.6864228 11.039582 -0.56898737
-2.6243889 11.080154 -0.57023913
-2.5554562 11.092155 -0.57003886
-2.4945495 11.139789 -0.57169116
-2.4267869 11.157813 -0.57184136
-2.3584843 11.17347 -0.57189143
-0.89774704 4.3854451 -0.22380476
-0.87295818 4.4016476 -0.22435553
-0.85007477 4.4285002 -0.22545707
-0.82762337 4.4591641 -0.22675888
-2.0310147 11.331985 -0.57654792
-1.9679102 11.381632 -0.57845062
-1.9003341 11.407286 -0.57915157
-1.8298304 11.415772 -0.57900137
-1.7656779 11.465281 -0.58095407
-1.6939816 11.467008 -0.58050346
-0.61077374 4.3165412 -0.21794657
-1.5505941 11.468128 -0.57955211
-1.4759828 11.444738 -0.57789981
-1.4069479 11.463492 -0.57840055
-1.3355427 11.46298 -0.57794988
-1.2656199 11.47493 -0.57815015
-1.1938432 11.469566 -0.57749927
-1.1208183 11.449838 -0.57614738
-1.0491745 11.441581 -0.5753963
-0.97690874 11.423921 -0.57419467
-0.90940046 11.462555 -0.57584697
-0.83409607 11.400185 -0.57244217
-0.76346272 11.395123 -0.57194149
-0.69195282 11.373673 -0.57063967
-0.62133455 11.362746 -0.56988865
-0.5498603 11.330432 -0.56808609
-0.48045453 11.336586 -0.56823629
-0.40980113 11.309379 -0.56673419
-0.34055045 11.316672 -0.56698459
-0.27170363 11.34351 -0.56823629
-0.20092337 11.279057 -0.56493169
-0.13072313 11.195189 -0.56067574
-0.061973151 11.185794 -0.56017506
0.0066405907 11.150008 -0.5583725
0.075001679 11.141768 -0.55797195
0.14269555 11.089168 -0.5553683
0.21027872 11.064117 -0.55416667
0.27786142 11.050638 -0.5535658
0.34397405 10.994819 -0.55086201
0.40918794 10.932619 -0.54785782
0.47352105 10.867041 -0.54470342
0.53711456 10.802085 -0.54159909
0.60054201 10.74773 -0.53904551
0.66363204 10.697988 -0.53674227
0.72749388 10.667808 -0.53544044
0.78293502 10.528684 -0.52868104
0.2881555 3.5799241 -0.17944273
0.91302848 10.529228 -0.52923179
0.97475284 10.492599 -0.52767962
1.0387218 10.482445 -0.52747935
1.101557 10.461969 -0.52677834
1.1639585 10.439132 -0.52597725
1.2261214 10.415923 -0.52517611
1.2822685 10.34576 -0.52202171
0.45211959 3.474319 -0.17503658
0.47356409 3.4724689 -0.17508665
1.4582326 10.220544 -0.51696461
1.5251848 10.24005 -0.51841664
1.5893668 10.239383 -0.51886731
1.6435642 10.176196 -0.51616353
0.55307782 3.2967434 -0.1669753
1.7719164 10.175922 -0.51721495
1.834676 10.166825 -0.51731515
0.60926437 3.2624421 -0.16577363
0.62642938 3.2439332 -0.16502257
1.9769409 9.908021 -0.50589919
2.0237975 9.828207 -0.50244433
2.0726545 9.7618713 -0.49969047
2.1485214 9.8221455 -0.50344574
2.198216 9.7620087 -0.50104237
0.73075396 3.1554344 -0.16176802
2.4043767 10.097668 -0.51976854
2.4670014 10.085636 -0.51991874
0.77581793 3.0901098 -0.15911432
2.6135094 10.14358 -0.52452523
0.81189388 3.0735974 -0.15876383
2.754498 10.172441 -0.52772969
2.824605 10.183259 -0.52918172
2.9279659 10.309848 -0.5366922
2.9828081 10.262917 -0.53519011
0.88643825 2.9821482 -0.15535906
3.1230509 10.273318 -0.53769362
3.1857314 10.253009 -0.53764355
3.2488849 10.23422 -0.53769362
3.3230178 10.249245 -0.53954619
3.383646 10.222025 -0.53919572
3.4344754 10.166061 -0.53734314
3.455452 10.02488 -0.53098422
3.5145795 9.9968939 -0.53063375
3.5812459 9.9901829 -0.53143489
3.6486475 9.9849062 -0.53233612
3.7081022 9.9576511 -0.53208578
1.0552328 2.7818615 -0.14854954
1.0568013 2.7352757 -0.14639653
1.0761248 2.7352455 -0.14674702
1.0988305 2.7434247 -0.14754814
1.129596 2.770849 -0.14940073
4.0835862 9.8420925 -0.53358787
4.145453 9.8205318 -0.53378814
4.1997218 9.7811451 -0.53303713
4.2840395 9.8110237 -0.53609139
4.3814454 9.8685322 -0.54069781
4.4521875 9.8642197 -0.54194957
4.5109634 9.8330851 -0.5417493
4.5695252 9.8016005 -0.54154903
4.5953746 9.7011709 -0.53754342
4.6348906 9.6313934 -0.53524017
4.7482891 9.714035 -0.54144889
4.8011422 9.671299 -0.54069781
4.8576965 9.6363068 -0.54039741
4.9344792 9.6409922 -0.54235011
5.0032129 9.6291437 -0.5434016
5.0603385 9.5947304 -0.54320133
5.1195865 9.5643806 -0.5432514
5.1705484 9.5187454 -0.54245025
5.2163219 9.4640989 -0.54114842
5.2791691 9.4406309 -0.54164916
5.3276329 9.3915558 -0.54069781
5.3821692 9.3534956 -0.54039741
5.4384532 9.3185701 -0.54029727
6.1624627 10.411795 -0.60593903
6.2288022 10.378068 -0.60618937
6.2934022 10.34136 -0.60628951
5.5286212 8.9604559 -0.52722901
6.4574385 10.323469 -0.60984451
5.6558132 8.9197712 -0.52888131
6.6257577 10.308982 -0.61374998
6.6659908 10.232986 -0.61164701
6.7517657 10.226898 -0.61374998
6.8077254 10.175316 -0.61314911
6.8627458 10.122607 -0.61249822
6.9326453 10.091832 -0.61319917
6.9465089 9.9802475 -0.60899329
7.0363955 9.9782476 -0.61149681
7.1536293 9.884675 -0.61109626
7.2678828 9.9138937 -0.61565262
7.3339357 9.8763285 -0.61610323
7.3913956 9.8271513 -0.61585289
7.4648705 9.7990923 -0.61695445
7.4980111 9.7183113 -0.61475134
7.5372076 9.6461515 -0.61309904
7.6297202 9.6420145 -0.61580282
7.6406484 9.5350065 -0.61194742
7.7292175 9.5251694 -0.6143508
7.7659593 9.4513292 -0.61264843
7.820611 9.3996611 -0.61239809
7.8955135 9.3721209 -0.61374998
7.9794464 9.3546524 -0.61580282
8.078475 9.3538895 -0.61900729
8.183054 9.3582773 -0.62261236
8.1429996 9.1979666 -0.61525208
8.2279491 9.1798077 -0.61740506
8.2700262 9.1136179 -0.61635357
8.350791 9.0899153 -0.6182062
8.394846 9.0260715 -0.61735499
8.4329538 8.956214 -0.61610323
8.5228939 8.9411697 -0.61865681
8.5963221 8.9081106 -0.62000871
8.6696634 8.874486 -0.6213606
8.7260599 8.8232536 -0.6215108
8.7701406 8.7596645 -0.62080979
8.90833 8.7891579 -0.62676817
8.8927107 8.6667166 -0.62191135
8.9464407 8.6126814 -0.62196141
8.9817486 8.5411081 -0.62075973
9.0747528 8.524128 -0.62356365
9.0712414 8.4166584 -0.61975837
9.2081261 8.4391155 -0.62556648
9.2412233 8.3657007 -0.62431473
9.3593884 8.3687534 -0.62882102
9.3970871 8.2992678 -0.62791973
9.4019222 8.2014036 -0.62486547
9.4876308 8.1741991 -0.62721878
9.5398903 8.1177721 -0.62736899
9.5176477 7.9986835 -0.62266243
9.7325506 8.0779095 -0.63347751
9.6660671 7.9230714 -0.62596703
9.6244497 7.7907214 -0.62015891
9.7430649 7.7882671 -0.62471527
9.8455458 7.7716541 -0.6282202
9.8457823 7.6742582 -0.62521601
10.047817 7.7330904 -0.63502973
10.066449 7.6495395 -0.63322717
10.095621 7.5744424 -0.63212562
10.199692 7.5551553 -0.63573068
10.240214 7.4883022 -0.63538021
10.32484 7.4533877 -0.63778353
10.40942 7.4177155 -0.64018691
10.423696 7.331871 -0.63828427
10.478332 7.2746086 -0.63888508
10.563966 7.2384038 -0.6413886
10.556885 7.1387625 -0.63828427
10.625412 7.0904832 -0.63978636
10.69708 7.043828 -0.64148873
10.740098 6.9780593 -0.64148873
10.775146 6.907177 -0.64103812
10.810571 6.8366618 -0.64063752
10.865027 6.7781296 -0.6413886
10.796683 6.6438155 -0.63492954
10.928603 6.6328888 -0.64028704
11.036797 6.6062288 -0.64424258
11.007456 6.497263 -0.64018691
11.149836 6.4893832 -0.64614522
11.170386 6.4099107 -0.64504373
11.223415 6.3491178 -0.64584482
11.32584 6.3156404 -0.64949995
11.42127 6.2772951 -0.65275449
11.478893 6.2175617 -0.65385604
11.58291 6.1822815 -0.65761125
11.638305 6.1203904 -0.65861267
11.715547 6.0695376 -0.66086584
11.805944 6.024776 -0.66387004
11.838228 5.9499803 -0.6636197
11.881675 5.8807745 -0.66402024
12.003725 5.8497601 -0.66882694
12.016881 5.7651968 -0.66757518
12.057447 5.693913 -0.66787565
12.113895 5.6299248 -0.66907728
12.114605 5.5401211 -0.66722471
12.192089 5.4853516 -0.66962808
12.226431 5.4108434 -0.66967815
12.274053 5.3420987 -0.67047924
12.404849 5.3087296 -0.67583674
12.447315 5.2367749 -0.67638755
12.460753 5.152669 -0.67538613
12.552279 5.1005511 -0.67864066
12.523974 4.9997382 -0.6754362
12.617939 4.8585925 -0.6772387
12.733731 4.724577 -0.68029296
12.786881 4.6552382 -0.68159479
12.852828 4.590127 -0.68359762
12.89489 4.516129 -0.68434864
12.957308 4.4489222 -0.68620127
12.997614 4.3737931 -0.68690223
13.037486 4.298337 -0.68760324
13.087376 4.2259316 -0.68885493
13.108297 4.1440439 -0.68860459
13.140157 4.0656013 -0.68895513
13.185886 3.9912636 -0.69005662
13.233112 3.9170845 -0.69125831
13.294314 3.8466394 -0.69321108
13.336887 3.7704287 -0.69421244
13.406945 3.7015471 -0.69666588
13.462193 3.6280496 -0.69836825
13.429143 3.5309038 -0.69551426
12.507282 3.2066188 -0.64669603
12.537381 3.1324785 -0.64724678
12.600035 3.066117 -0.64949995
12.61764 2.988517 -0.64944988
12.652285 2.9148517 -0.65030104
12.668957 2.8369458 -0.65025097
12.671487 2.7559736 -0.64949995
12.657865 2.671777 -0.64794779
12.645644 2.5882523 -0.64649576
1.6507201 0.32752705 -0.083758958
1.6438712 0.31569821 -0.083308324
1.6408674 0.30469465 -0.083057977
1.6368074 0.29356366 -0.082757555
1.6405462 0.28385517 -0.082857698
1.6452127 0.27427593 -0.083007909
1.6517955 0.26496616 -0.083258256
1.65339 0.25482595 -0.083258256
1.6598626 0.24540584 -0.083508603
1.6672705 0.23605572 -0.083809026
1.6696775 0.22595491 -0.083859093
1.6789567 0.21672751 -0.084259659
1.7268466 0.21213892 -0.086612947
1.7420042 0.20315705 -0.087313928
1.7054942 0.18830454 -0.085411265
12.085463 1.2579381 -0.60854268
12.095936 1.1840513 -0.60869288
1.7116553 0.15715361 -0.085561477
1.7265189 0.1478392 -0.086262457
1.7114636 0.13597921 -0.085461333
1.6973244 0.12438242 -0.084710285
1.687094 0.1132313 -0.084159516
1.6837695 0.10263484 -0.083959237
1.6793811 0.092028931 -0.083708882
1.6769215 0.081577532 -0.083558679
1.6803839 0.071413413 -0.083708882
1.684783 0.061246011 -0.083909169
1.6971066 0.051267475 -0.084510006
1.7023816 0.040972736 -0.084760353
1.7085925 0.030632958 -0.085060775
1.709747 0.020160295 -0.085110843
1.733808 0.0098014092 -0.086312525
10.266044 -0.022874134 -0.71522576
10.279675 -0.085980892 -0.71619993
10.269977 -0.14892456 -0.71557367
10.224986 -0.21103421 -0.71251202
10.223498 -0.27376956 -0.71251202
10.222624 -0.33652738 -0.71258163
10.221363 -0.39928478 -0.71265119
10.206762 -0.46145442 -0.71181619
10.182817 -0.52300006 -0.71035498
10.152526 -0.5839259 -0.70847625
10.123862 -0.64462644 -0.70673668
10.112751 -0.70624709 -0.70624965
10.124143 -0.7694931 -0.70736295
10.12619 -0.83217072 -0.70785004
10.100025 -0.89244556 -0.70638877
10.081449 -0.95318156 -0.70548421
10.060521 -1.0135232 -0.70444047
10.051138 -1.0749164 -0.70423174
10.046334 -1.1367929 -0.70437092
10.03719 -1.1981783 -0.70423174
10.029648 -1.2597427 -0.70423174
10.007884 -1.3194351 -0.70325756
9.9897175 -1.3794537 -0.7025618
9.960331 -1.4377319 -0.70110053
9.9306059 -1.4957016 -0.69963932
9.9054728 -1.5541334 -0.69852597
9.8908272 -1.6140801 -0.69817805
9.8817215 -1.6749053 -0.69824767
9.8751888 -1.7361975 -0.69852597
9.8515911 -1.7944347 -0.69762141
9.8345127 -1.8537408 -0.69720393
9.8170786 -1.912905 -0.6967864
9.7963543 -1.9713348 -0.6961602
9.7762594 -2.0297852 -0.69560355
9.7548418 -2.0878544 -0.69497728
9.7398987 -2.1472404 -0.69483811
9.7275133 -2.2071834 -0.69490772
9.7516747 -2.2756679 -0.69762141
9.7831221 -2.3463924 -0.70089179
9.7975998 -2.4135327 -0.70297927
9.8657818 -2.4946301 -0.70896333
9.8696022 -2.5601268 -0.71035498
10.017601 -2.6642144 -0.722184
10.04919 -2.7387433 -0.72566313
10.02547 -2.7984753 -0.72517604
10.000436 -2.8577456 -0.72461939
8.0571833 -2.3561373 -0.58468926
7.8227491 -2.3397994 -0.56868529
7.6432047 -2.3372998 -0.55664754
7.6058669 -2.3770137 -0.5549776
7.5493231 -2.4102912 -0.55191594
7.4348035 -2.4241059 -0.54460979
7.4216828 -2.4703093 -0.54474896
7.2344689 -2.4574206 -0.532085
7.1824927 -2.4890282 -0.52937126
7.1134715 -2.5141089 -0.52540505
7.0387836 -2.5364082 -0.52102137
6.9865665 -2.5661392 -0.51830769
6.9174337 -2.5890326 -0.51434147
6.8650641 -2.6175709 -0.51162779
6.7967963 -2.6394267 -0.50773114
6.41959 -2.5384207 -0.48066363
6.4168501 -2.5829768 -0.48163778
6.3916488 -2.6185203 -0.48094195
6.5043755 -2.7114146 -0.49068347
6.5546622 -2.7796993 -0.49576297
6.5558038 -2.8277659 -0.49715462
6.496304 -2.8495095 -0.49395385
6.4468083 -2.8750982 -0.49151847
6.4190512 -2.9100709 -0.49075305
6.4001684 -2.9489853 -0.49068347
6.3684011 -2.9818563 -0.48963973
6.3085446 -3.0011666 -0.48643896
6.2702503 -3.0302706 -0.48490813
5.9264555 -2.9091511 -0.45964974
5.8781371 -2.930331 -0.45728394
5.8155422 -2.943821 -0.45380482
5.7716374 -2.9662278 -0.45178694
5.745368 -2.9974339 -0.4511607
5.731276 -3.0349643 -0.45150861
5.7318792 -3.080461 -0.45303941
5.7137456 -3.1160507 -0.453109
5.7643504 -3.1896837 -0.45867559
5.8499312 -3.2840714 -0.46709505
5.9111605 -3.3663011 -0.47363579
1.2514306 -0.72345889 -0.099978514
1.2581583 -0.73767829 -0.10088308
1.2561814 -0.74691272 -0.10109183
1.2532839 -0.75563592 -0.10123099
1.2494751 -0.76383156 -0.10130057
1.2430685 -0.77043349 -0.10116141
1.2264889 -0.77062148 -0.10018726
1.2141625 -0.77331281 -0.099561021
1.2060413 -0.77858549 -0.099282689
1.1995713 -0.78487933 -0.099143527
1.1930695 -0.79112315 -0.099004358
1.1898493 -0.79954088 -0.099143527
1.1890451 -0.809632 -0.099491432
1.1889831 -0.8203094 -0.099908933
1.1904705 -0.83215886 -0.10046559
1.1910425 -0.84348094 -0.10095266
1.1858447 -0.85077327 -0.10095266
1.1910959 -0.8656531 -0.10185724
1.2243354 -0.90131652 -0.10519719
5.8050222 -4.3256173 -0.5041129
5.7361674 -4.3293076 -0.50042498
1.2130859 -0.92794013 -0.10568427
1.2515459 -0.96956033 -0.10958087
1.2479285 -0.9790678 -0.10978962
1.2364284 -0.98236477 -0.10930255
1.22338 -0.98430753 -0.10867631
1.2142228 -0.98927647 -0.10839798
1.2012019 -0.99099743 -0.10777174
1.1943328 -0.99770993 -0.10770215
1.1897124 -1.0063072 -0.10784132
1.1835154 -1.0135883 -0.10784132
1.173504 -1.017565 -0.10749341
1.1664884 -1.0240885 -0.10742383
1.1624204 -1.033214 -0.10763257
1.1538334 -1.038326 -0.10742383
1.1503915 -1.0480723 -0.10770215
1.1483403 -1.0591676 -0.10811965
1.1432786 -1.0675548 -0.10825881
1.1359814 -1.0738647 -0.10818923
1.153885 -1.1042554 -0.11055503
4.2513609 -4.1163492 -0.41191623
4.1811371 -4.0983691 -0.40753254
4.1176686 -4.0860071 -0.4037751
4.0819621 -4.1005921 -0.40273136
6.3567238 -6.4640665 -0.63151819
6.2988677 -6.4843454 -0.62970901
6.2575803 -6.5214334 -0.62956989
6.2140164 -6.5560865 -0.62922198
4.488143 -4.7940383 -0.45721436
4.4525471 -4.8148956 -0.45658812
4.4195547 -4.8384428 -0.45624021
4.3891153 -4.8647289 -0.45617062
4.3485632 -4.8796535 -0.45505729
4.3079934 -4.8942637 -0.453944
3.7044659 -4.2611694 -0.39298984
3.6737006 -4.278522 -0.39250275
4.430769 -5.2245412 -0.47697574
5.9950457 -7.1572657 -0.65037501
5.9421134 -7.1831555 -0.64940083
5.8941398 -7.2148452 -0.64898336
5.8434949 -7.2431116 -0.64828753
5.8200784 -7.3053565 -0.6506533
5.8022857 -7.3754263 -0.65371495
5.7820153 -7.4431882 -0.65656781
5.7453437 -7.4903979 -0.65761155
5.6330194 -7.438036 -0.64995748
5.5520263 -7.4253249 -0.64585215
5.492733 -7.440793 -0.64425176
5.429934 -7.4509768 -0.64223385
5.4114966 -7.522213 -0.64550424
5.4778805 -7.7138724 -0.65907282
5.4648042 -7.7963495 -0.6632477
5.4299192 -7.8486018 -0.66484815
5.415976 -7.932024 -0.66909266
5.3906202 -7.9998507 -0.67201513
5.3602147 -8.0610189 -0.6743809
5.337471 -8.1346245 -0.67779046
5.3183627 -8.2149506 -0.68175662
5.2855787 -8.2751713 -0.68405288
5.2634249 -8.3530207 -0.6878103
5.2341933 -8.420742 -0.69073278
5.2074575 -8.4935207 -0.69407272
5.1619554 -8.5364103 -0.69497728
5.1191888 -8.5842009 -0.69629937
5.0684438 -8.6188889 -0.69657767
5.0089579 -8.638608 -0.69567311
4.9583335 -8.6735096 -0.69602102
4.9148173 -8.7211514 -0.69741267
4.8660574 -8.7598639 -0.69810849
4.818924 -8.8018064 -0.69908267
4.7814074 -8.8619356 -0.70151806
4.7377138 -8.9113655 -0.70311844
4.6875749 -8.9491053 -0.70381427
4.6463008 -9.0042934 -0.70590174
4.5977449 -9.0459719 -0.70694548
4.5412602 -9.0722284 -0.7068063
4.4991832 -9.1276598 -0.70896333
4.4413495 -9.1515045 -0.70868504
4.3838229 -9.1758833 -0.70847625
4.3465438 -9.2432318 -0.71160746
4.2981272 -9.2878342 -0.71299911
4.2592487 -9.3539782 -0.71606076
4.2270622 -9.4363794 -0.72037482
4.1767259 -9.4794836 -0.72169691
4.1228452 -9.5150013 -0.7224623
4.0596919 -9.5291061 -0.72162735
3.9930527 -9.5345154 -0.72016609
3.9276392 -9.5422316 -0.71891361
3.8649001 -9.5559788 -0.71814823
3.8050878 -9.5767326 -0.7179395
0.82095414 -2.1051073 -0.15675771
0.79088563 -2.0653925 -0.15341777
0.77819777 -2.0702064 -0.15341777
0.76478946 -2.0730708 -0.1532786
0.75069582 -2.0739727 -0.15300027
0.73895806 -2.0813599 -0.15320902
0.72715795 -2.088681 -0.15341777
0.71594083 -2.0978234 -0.15376568
0.70907223 -2.1201503 -0.15508774
0.70009118 -2.1367841 -0.15599231
0.6924578 -2.1581357 -0.1572448
0.6824941 -2.172812 -0.1580102
0.67266953 -2.1884003 -0.15884519
0.66009158 -2.1953523 -0.15905394
0.64576381 -2.1964903 -0.15884519
0.6336531 -2.2052047 -0.1591931
0.62038016 -2.2100117 -0.15926269
0.6073361 -2.2157009 -0.15940185
0.59450358 -2.2222764 -0.1596106
0.57959598 -2.2210565 -0.15926269
0.56792676 -2.2323046 -0.15981935
1.1227578 -4.526515 -0.32445121
2.5015314 -10.353211 -0.74208456
2.4345324 -10.3538 -0.74104083
2.36851 -10.357845 -0.74027538
2.2988501 -10.344917 -0.73832709
2.2370155 -10.366629 -0.73888373
2.1641624 -10.336222 -0.73575258
2.116183 -10.425561 -0.74118
2.0585256 -10.470651 -0.74347621
2.0026319 -10.527184 -0.74660742
1.9472049 -10.589311 -0.7501561
1.8900436 -10.645258 -0.75328732
1.8321004 -10.699919 -0.75634891
1.7724206 -10.747376 -0.75892347
1.7125399 -10.796475 -0.76163721
1.6498686 -10.830447 -0.76330715
1.5872777 -10.867019 -0.76518589
1.5233326 -10.896313 -0.76657754
1.4597481 -10.930174 -0.7683171
1.3963099 -10.967624 -0.77033496
1.3311468 -10.993811 -0.77158749
1.265715 -11.01961 -0.77283996
1.198184 -11.028161 -0.77290952
1.130087 -11.031336 -0.77263123
1.0612313 -11.026146 -0.77179623
0.99310839 -11.027482 -0.77144831
0.92601037 -11.040328 -0.7719354
0.85879213 -11.052764 -0.77242243
0.79181224 -11.069765 -0.77325743
0.72563297 -11.101292 -0.77513617
0.65927351 -11.13541 -0.77722365
0.5910942 -11.142235 -0.77743238
0.52430654 -11.179532 -0.77979821
0.45663589 -11.205463 -0.78139859
0.38773364 -11.204067 -0.78112024
0.32037309 -11.255096 -0.78452981
0.25101689 -11.243885 -0.78362525
0.18216681 -11.25419 -0.78425145
0.11363322 -11.306968 -0.78786975
0.044256788 -11.30845 -0.78793931
-0.025263147 -11.36936 -0.79218388
-0.095479213 -11.423856 -0.79601085
-0.13625111 -9.3922014 -0.65434116
-0.1945142 -9.4221077 -0.65649825
-0.24766129 -9.2462225 -0.64432132
-0.30222827 -9.1787252 -0.6397289
-0.35873657 -9.1816816 -0.64007682
-0.41511253 -9.1803045 -0.64014637
-0.59173775 -11.522795 -0.80394328
-0.66162807 -11.505004 -0.8029691
-0.80519259 -11.530849 -0.80540448
-0.87721354 -11.542602 -0.8065874
-0.94940901 -11.553905 -0.80777031
-1.0183543 -11.525999 -0.80623949
-1.090371 -11.533439 -0.80721366
-1.1611184 -11.52653 -0.80721366
-1.2291715 -11.494391 -0.8054741
-1.3031518 -11.517361 -0.80763113
-1.3743874 -11.514102 -0.80797905
-1.4474958 -11.525247 -0.8093707
-1.5214443 -11.540874 -0.81111026
-1.3955482 -10.106326 -0.71077251
-1.4522623 -10.061041 -0.70819795
-1.4992658 -9.9542809 -0.70130926
-1.5490328 -9.8729506 -0.69622976
-1.1936152 -7.3132415 -0.51601148
-1.2357997 -7.2900434 -0.51489812
-1.2777444 -7.2666035 -0.51378483
-1.3137298 -7.2115173 -0.51044488
-1.3435459 -7.1268549 -0.50501746
-1.379621 -7.0793104 -0.50223416
-1.4216557 -7.0638661 -0.50174707
-1.4509834 -6.9876132 -0.49694589
-1.4938313 -6.978579 -0.49694589
-1.5437082 -7.00143 -0.4992421
-1.6354088 -7.2068286 -0.51461983
-1.469274 -6.2951159 -0.45004737
-1.5053139 -6.2753115 -0.44928196
-2.6609061 -10.802074 -0.77513617
-2.7188237 -10.752661 -0.77277035
-1.918812 -7.3966117 -0.53215456
-1.9580085 -7.3615603 -0.53048456
-1.9895046 -7.2993584 -0.52686632
-2.0187025 -7.2312837 -0.52283055
-3.3285432 -11.648338 -0.84416187
-3.4063916 -11.649718 -0.84576225
-3.4729505 -11.61235 -0.84457934
-3.5336378 -11.556479 -0.84207439
-2.4850047 -7.9515095 -0.58023596
-2.5455773 -7.973175 -0.5829497
-2.5907421 -7.9460244 -0.5821147
-2.6353545 -7.9176736 -0.58121014
-2.6643198 -7.8437333 -0.57696563
-2.680068 -7.7339196 -0.57007694
-2.7254779 -7.7116861 -0.56965947
-2.7697017 -7.6863704 -0.56903321
-2.8230016 -7.6860871 -0.57028568
-4.1681671 -11.137722 -0.82864499
-4.2357178 -11.110073 -0.82850581
-4.2998366 -11.073645 -0.82774043
-4.387506 -11.09715 -0.83149791
-4.5389371 -11.277321 -0.84708434
-4.5607858 -11.133864 -0.83838654
-4.612515 -11.066076 -0.8353945
-4.7103119 -11.108285 -0.84075236
-4.6875272 -10.868486 -0.8247484
-4.7473164 -10.823989 -0.82356548
-3.6323164 -8.1451292 -0.62121999
-3.6554573 -8.0636292 -0.61669713
-2.9560807 -6.4155717 -0.49186638
-2.9991968 -6.4054437 -0.49249262
-3.0410142 -6.3923259 -0.49291012
-3.0801795 -6.3735461 -0.49291012
-3.866807 -7.8778515 -0.61126971
-3.9235265 -7.8709407 -0.61259174
-4.9276028 -9.7354813 -0.76024556
-4.9694653 -9.6704569 -0.75753182
-5.0074868 -9.5990973 -0.75433105
-5.0392199 -9.5170555 -0.75029528
-5.0739121 -9.4420185 -0.74681616
-5.0978465 -9.3485222 -0.74187583
-3.9628165 -7.1618686 -0.57007694
-4.0389109 -7.1948333 -0.57466936
-4.071136 -7.1491098 -0.57299942
-4.9590497 -8.5856571 -0.69073278
-4.9874363 -8.5137491 -0.68739283
-3.8917794 -6.5506358 -0.53062373
-3.9427092 -6.5445781 -0.532085
-3.9677134 -6.495573 -0.53006709
-5.056756 -8.1657228 -0.66909266
-5.106235 -8.1336966 -0.6690231
-5.1560459 -8.102211 -0.6690231
-5.2099886 -8.0771294 -0.66957974
-5.2638168 -8.0516891 -0.67013639
-5.3235903 -8.0350409 -0.67145842
-5.3922524 -8.0312128 -0.67389381
-5.1973553 -7.6391768 -0.6436255
-5.2220511 -7.5751095 -0.64091182
-5.2507267 -7.5175705 -0.63875473
-5.4338846 -7.6790285 -0.65531534
-5.3960509 -7.5271649 -0.64515632
-5.2944307 -7.2904925 -0.62762159
-5.3242879 -7.2377787 -0.62588203
-5.3662143 -7.2017732 -0.62560368
-5.4145083 -7.1742854 -0.62609076
-5.4765997 -7.1647058 -0.62817824
-5.5436616 -7.160944 -0.63082236
-6.4128036 -8.1796198 -0.7241323
-6.5968456 -8.3088808 -0.73916209
-6.7145815 -8.3514395 -0.74660742
-6.8412738 -8.4029188 -0.75495726
-6.9529843 -8.4339113 -0.76156759
-7.0512667 -8.4469976 -0.7666471
-7.1197057 -8.4233828 -0.76845628
-7.2555728 -8.4780722 -0.77750194
-7.3394647 -8.4703369 -0.78091151
-7.5557585 -8.6126289 -0.79830712
-7.6309857 -8.591465 -0.80067289
-7.7169075 -8.5815716 -0.80415201
-7.7862058 -8.5525017 -0.80589157
-7.8696346 -8.5383101 -0.80909234
-7.9307237 -8.4993439 -0.80999696
-7.9936852 -8.4621258 -0.81111026
-8.0723448 -8.4410372 -0.81382394
-8.1198235 -8.3870468 -0.81340647
-8.1543751 -8.3199673 -0.81173646
-8.182086 -8.2464056 -0.80944026
-8.1908236 -8.1545181 -0.80533493
-8.2456827 -8.109004 -0.80582201
-8.3224726 -8.084672 -0.80846614
-8.3517694 -8.0141134 -0.80651784
-8.4000626 -7.9620304 -0.80644822
-8.5514307 -8.0064793 -0.81625932
-8.6377468 -7.9884038 -0.81980807
-8.6998568 -7.9473643 -0.82106054
-8.749197 -7.8945022 -0.8211301
-8.8019409 -7.8446522 -0.82154763
-8.8626375 -7.801703 -0.82273048
-8.9095879 -7.7465215 -0.82266092
-8.950141 -7.6858578 -0.82203466
-8.97507 -7.612082 -0.8200168
-9.0101376 -7.5472603 -0.81897306
-9.0655012 -7.4994631 -0.81980807
-9.1144361 -7.4462223 -0.82008636
-9.1584015 -7.3889041 -0.81994718
-9.1551933 -7.2940273 -0.81563312
-9.1480331 -7.1970019 -0.81104064
-9.1337271 -7.0954447 -0.80589157
-9.130393 -7.0034432 -0.80178624
-9.1302519 -6.914763 -0.79802877
-9.1389542 -6.8335185 -0.79510629
-9.1542282 -6.7577615 -0.79281008
-9.1648865 -6.6791368 -0.79016596
-9.1635885 -6.5924797 -0.78654766
-9.1648283 -6.5084019 -0.78320771
-9.1784515 -6.4337201 -0.78098106
-9.1841211 -6.3540082 -0.77812821
-9.1949263 -6.2784085 -0.77576244
-9.2134228 -6.2084913 -0.77409244
-9.2206097 -6.131402 -0.77151787
-9.2288666 -6.0555534 -0.76908249
-9.2256556 -5.9727879 -0.76574254
-9.2058039 -5.8800855 -0.7610805
-9.1952925 -5.7942357 -0.75725353
-9.196784 -5.7166381 -0.75447023
-9.1891661 -5.6340265 -0.75099111
-9.1825905 -5.5527568 -0.74765116
-9.1882153 -5.4794455 -0.74535489
-9.186408 -5.4022298 -0.74250203
-9.1814127 -5.323741 -0.73944044
-9.179265 -5.247499 -0.73665714
-9.1921711 -5.1803012 -0.73512632
-9.2159357 -5.119441 -0.73450005
-9.2322998 -5.0546517 -0.7333172
-9.2385597 -4.9846435 -0.73136884
-9.2372618 -4.9110026 -0.72886389
-9.2080164 -4.823215 -0.72420186
-9.2072973 -4.7510695 -0.72183609
-9.203373 -4.6777592 -0.71926153
-9.2060328 -4.6082492 -0.71724367
-9.2198191 -4.5446172 -0.71613032
-9.2215052 -4.475327 -0.71411246
-9.1740837 -4.3829627 -0.70833713
-9.1610842 -4.3079085 -0.70527548
-9.1710491 -4.2440739 -0.704023
-9.1760368 -4.1782117 -0.70242262
-9.1914873 -4.1173434 -0.70165718
-9.1937561 -4.0508108 -0.69991761
-9.1918936 -3.9828193 -0.69789976
-9.1812849 -3.9114838 -0.69525564
-9.2014322 -3.8535335 -0.69497728
-9.2258263 -3.7973819 -0.69504684
-9.2517271 -3.7418239 -0.69525564
-9.2847109 -3.6890385 -0.69602102
-9.299736 -3.6290975 -0.69546437
-9.283637 -3.5573294 -0.69261152
-9.2576723 -3.4823837 -0.68906277
-9.2311392 -3.4078913 -0.68551409
-9.2087307 -3.3355553 -0.68231332
-9.1782656 -3.2609503 -0.67855585
-9.1434641 -3.1855328 -0.67452008
-9.0467243 -3.089705 -0.66596144
-9.0068617 -3.014503 -0.66164732
-8.9626274 -2.9386637 -0.6570549
-8.9766903 -2.8823946 -0.65677655
-8.987546 -2.825166 -0.65628952
-9.0399895 -2.7808208 -0.65886402
-9.0587931 -2.7258751 -0.6590032
-9.0724764 -2.6693952 -0.65879446
-9.0896435 -2.6139531 -0.65886402
-9.1016703 -2.5570514 -0.65858573
-9.1268091 -2.5037963 -0.65928155
-9.1526003 -2.4505868 -0.66004694
-9.1722898 -2.3956423 -0.66039485
-9.1790829 -2.3373473 -0.6598382
-9.1913157 -2.2805009 -0.65969902
-9.1973782 -2.2221861 -0.65914237
-9.2021008 -2.1636548 -0.65851611
-9.2220106 -2.1087081 -0.6590032
-9.2240639 -2.0497022 -0.65823781
-9.2208643 -1.9896981 -0.65712446
-9.2143478 -1.929197 -0.65580243
-9.2054815 -1.868454 -0.65434116
-9.2060061 -1.8098176 -0.65357578
-9.231637 -1.7560937 -0.65461951
-9.2500877 -1.7008603 -0.65517616
-9.2682076 -1.6454663 -0.65573281
-9.2663307 -1.5865457 -0.65489787
-9.2434101 -1.5243001 -0.65260166
-9.2240171 -1.463021 -0.65058374
-9.2012615 -1.4015865 -0.64835709
-9.20574 -1.3445253 -0.6480788
-9.2128286 -1.2878766 -0.64800918
-9.2166023 -1.230795 -0.64773089
-9.2150755 -1.1730855 -0.64710462
-9.2141762 -1.115561 -0.64654797
-9.200036 -1.0566111 -0.64508671
-9.1756029 -0.99679881 -0.64292967
-9.1716223 -0.93946236 -0.64223385
-9.1424589 -0.87982172 -0.63979846
-9.1258278 -0.82173824 -0.63826764
-9.1267223 -0.76539403 -0.63798934
-9.1252794 -0.70891505 -0.63757181
-9.1423922 -0.65383607 -0.63847643
-9.1392632 -0.59727126 -0.63798934
-9.1268234 -0.54023826 -0.63687599
-9.1080513 -0.48306304 -0.63534522
-9.1038675 -0.42684048 -0.63485813
-9.07442 -0.36967054 -0.63263148
-9.0426197 -0.31280899 -0.63026571
-9.0054789 -0.2562094 -0.62755197
-8.9520292 -0.19972028 -0.62372494
-8.935132 -0.14449625 -0.62247247
-8.9039297 -0.089345977 -0.62024581
-8.9053078 -0.034714766 -0.62031543
-8.9103403 0.019938627 -0.62066334
-8.9140406 0.074644201 -0.62094164
-8.9124174 0.12932391 -0.62087208
-8.8905115 0.18357609 -0.61941087
-8.8682766 0.23756433 -0.6179496
-8.8367405 0.29099178 -0.61586213
-8.7899323 0.34345812 -0.61273092
-8.7487936 0.39563093 -0.61001724
-8.6983805 0.446852 -0.60667729
-8.6436853 0.49724048 -0.60305899
-8.5936804 0.5472914 -0.59978861
-8.5682678 0.59848332 -0.59825778
-8.5465288 0.64968622 -0.59700531
-8.5662432 0.70407391 -0.59867531
-8.5637493 0.75679761 -0.59881449
-8.5380888 0.80735904 -0.59735322
-8.5012121 0.85653478 -0.59512663
-8.4709978 0.90603071 -0.59338707
-8.5257454 0.96482891 -0.59763157
-8.4830151 1.012751 -0.59505701
-8.4845591 1.0657768 -0.59561366
-8.4719257 1.117035 -0.59519619
-8.4283485 1.1639502 -0.59262162
-8.3993263 1.2125096 -0.5910908
-8.3650942 1.2600143 -0.58921212
-8.3315821 1.3072993 -0.58740294
-8.292882 1.3534175 -0.58524591
-8.2677011 1.4014432 -0.58406299
-8.2491217 1.4504197 -0.58336717
-8.2381039 1.5006506 -0.58322799
-8.2316809 1.5517247 -0.58343679
-8.2141724 1.6006783 -0.58288008
-8.1914825 1.6484917 -0.58197552
-8.1665611 1.6956817 -0.58093178
-8.1472235 1.7438804 -0.58030558
-8.1305246 1.7925498 -0.57988805
-8.1193724 1.842404 -0.57988805
-8.1127729 1.8933221 -0.58023596
-8.1087637 1.9449263 -0.58079261
-8.1024885 1.9960754 -0.58121014
-8.0601072 2.0381746 -0.57905304
-7.9943395 2.0738194 -0.57522607
-7.95929 2.1169369 -0.57362562
-7.9384513 2.1636364 -0.57306898
-7.9298301 2.2136457 -0.57341689
-7.9458332 2.2707558 -0.57557398
-7.9413257 2.3222671 -0.57626981
-7.9307504 2.3720934 -0.5765481
-7.9294019 2.424794 -0.57752228
-7.9219918 2.4757824 -0.57807893
-7.8942966 2.5204008 -0.57717437
-7.853075 2.5604446 -0.57529563
-7.8154464 2.6013374 -0.57369524
-7.8276753 2.6588666 -0.57578272
-7.8244104 2.7114179 -0.57675683
-7.8132696 2.7613707 -0.57717437
-7.7877321 2.8062172 -0.5765481
-7.8181252 2.8714855 -0.58009678
-7.8349285 2.9323378 -0.58267134
-7.8158565 2.9800017 -0.58260179
-7.8011441 3.0293469 -0.58288008
-7.7935419 3.0815575 -0.58371508
-7.6356697 3.0734565 -0.57327771
-6.9640012 2.8529382 -0.52408302
-7.4463658 3.1039915 -0.56186622
-7.4455485 3.1574109 -0.56325787
-7.1493931 3.08374 -0.54224402
-7.0554223 3.094698 -0.53653824
-6.9670558 3.1070571 -0.53125
-6.9505863 3.1509831 -0.53145874
-6.8985028 3.178546 -0.52895379
-6.8888083 3.2254667 -0.52971917
-6.842762 3.2552495 -0.52770132
-6.8118811 3.2919667 -0.52686632
-7.2715664 3.5692699 -0.56416243
-7.3691683 3.6734476 -0.57348651
-7.3527207 3.7217481 -0.57397354
-7.327971 3.7658815 -0.57383442
-7.2994194 3.808006 -0.57341689
-7.2582836 3.8433878 -0.57202524
-7.2161107 3.8779359 -0.57056403
-7.1956835 3.9240503 -0.57084233
-7.1932931 3.9802012 -0.57258189
-7.2035327 4.0437937 -0.57536519
-7.182919 4.0903854 -0.5757131
-7.1438637 4.1263995 -0.5745998
-7.1252966 4.1741891 -0.57515645
-7.1390038 4.2412658 -0.57835728
-7.0863547 4.2690344 -0.57620019
-7.0489593 4.3056755 -0.57529563
-7.0020518 4.3362422 -0.57362562
-6.9702435 4.3759427 -0.57320815
-6.9584117 4.428268 -0.57446063
-6.9336247 4.4725027 -0.57466936
-6.9227509 4.5258784 -0.57606101
-6.9081569 4.5770855 -0.57717437
-6.8907099 4.6266155 -0.57807893
-6.8687901 4.6732974 -0.57863557
-6.8325939 4.7102599 -0.57800937
-6.7765737 4.7332473 -0.5757131
-6.7009854 4.7418962 -0.57174695
-6.6474395 4.7654886 -0.56965947
-6.6673145 4.8419404 -0.57390398
-6.6326575 4.8792129 -0.57348651
-6.5153971 4.8548555 -0.56590199
-6.4504485 4.8683028 -0.5628404
-6.3697295 4.8690214 -0.5583871
-6.3121238 4.886642 -0.55595171
-6.2490463 4.8994322 -0.5530293
-5.9969735 4.7615333 -0.53326786
-5.8875628 4.7338619 -0.52610087
-5.8259125 4.7434473 -0.52317846
-5.7397346 4.7321506 -0.51802933
-5.5260196 4.613224 -0.50125998
-5.5661821 4.7049971 -0.5075224
-5.5091634 4.7150645 -0.50494784
-5.4756045 4.7448597 -0.50453037
-5.1471624 4.5158906 -0.476767
-5.0984716 4.5288405 -0.47481871
-5.0505586 4.5420299 -0.47293997
-5.0388231 4.5877075 -0.47447079
-5.0325861 4.6388202 -0.47655827
-5.0397687 4.7029586 -0.4799678
-5.0361996 4.7577682 -0.48240316
-5.0559402 4.8354616 -0.48713478
-4.9423141 4.7852139 -0.47899362
-5.0453825 4.9453192 -0.49193597
-5.1480823 5.1082706 -0.50501746
-5.1539469 5.1772294 -0.50870532
-5.18364 5.2713432 -0.51482856
-5.0823798 5.2322154 -0.50793988
-4.7835569 4.985477 -0.4810811
-3.6643996 3.866503 -0.37072349
-3.5021911 3.7410944 -0.35659826
-3.4757833 3.7588513 -0.35625035
-3.4405425 3.7668509 -0.35499787
-3.3839483 3.7508602 -0.35151875
-3.3548958 3.7648511 -0.35089251
-3.3284361 3.7816219 -0.3505446
-3.2973149 3.7929399 -0.3497096
-3.2655303 3.8032625 -0.34880504
-3.2602007 3.8445289 -0.35075334
-3.2455184 3.8751667 -0.35172749
-3.2490239 3.9280584 -0.35471955
-3.246321 3.9741852 -0.35708535
-3.2688572 4.0522571 -0.362304
-3.2687976 4.1034455 -0.3650873
-3.3009257 4.1963367 -0.37155846
-5.4539638 7.020947 -0.6192717
-5.4156389 7.0606117 -0.61982834
-8.2236109 10.858252 -0.94923127
-5.2574921 7.0314698 -0.61154807
-5.0118155 6.9667201 -0.59777075
-6.5101047 9.4097147 -0.79726338
-4.4792838 6.560379 -0.55323803
-5.83991 8.90026 -0.74166703
-5.6821733 8.7768259 -0.72844642
-5.2389336 8.4283676 -0.69135898
-4.7758002 7.8979125 -0.64292967
-4.6040978 7.7205887 -0.62616032
-4.5283175 7.7005401 -0.62226373
-4.4349408 7.648788 -0.61586213
-4.31811 7.5537477 -0.60605103
-4.112977 7.2985315 -0.58350635
-4.0681167 7.3236308 -0.58350635
-4.006813 7.3187051 -0.58114052
-3.9310374 7.2860885 -0.57661772
-3.7640181 7.080183 -0.55845672
-3.7024498 7.0686827 -0.55574298
-3.5208411 6.8235502 -0.53472912
-3.4291801 6.7472053 -0.52707505
-3.3734245 6.7395744 -0.5248484
-3.3143635 6.7243567 -0.5220651
-3.2429841 6.6826429 -0.51726395
-3.2470791 6.796926 -0.52457011
-3.1607335 6.7219362 -0.51726395
-3.1139817 6.7294345 -0.51635939
-3.0254982 6.6449189 -0.50842696
-2.6967075 6.0206285 -0.45930183
-2.6649446 6.0489287 -0.46020639
-2.632539 6.0761504 -0.46104139
-2.6038098 6.1123791 -0.46257219
-2.5920787 6.189889 -0.46723422
-2.493288 6.0580826 -0.45610103
-2.4373648 6.0270281 -0.45262194
-2.4474943 6.1605334 -0.46152845
-2.3893359 6.123394 -0.45763186
-2.712652 7.0796928 -0.52797961
-2.3603818 6.2754993 -0.46681672
-2.333235 6.3207464 -0.46911293
-2.5611508 7.0712113 -0.52373511
-2.4993422 7.0350938 -0.51990807
-2.4475937 7.0258045 -0.51809895
-2.3963764 7.0170903 -0.51635939
-2.3263574 6.9512539 -0.51044488
-2.2765114 6.9435954 -0.50884449
-2.1935971 6.8320608 -0.4996596
-2.198911 6.9957519 -0.51065361
-2.1673858 7.0462971 -0.5133673
-1.5956601 5.3037219 -0.38547495
-1.5597073 5.301929 -0.38463995
-1.5216305 5.2922254 -0.3832483
-1.9371331 6.8956866 -0.49875504
-1.4507645 5.2893353 -0.3817175
-1.4350574 5.3607726 -0.38624036
-1.3789388 5.2806802 -0.37983876
-2.1024423 8.2568417 -0.59345663
-2.0531814 8.2753954 -0.5938741
-2.0023658 8.287838 -0.5938741
-1.9521601 8.3028812 -0.59408289
-1.9022901 8.3195658 -0.5944308
-1.8512064 8.3310814 -0.5944308
-1.8011054 8.3471594 -0.59477872
-0.93084902 4.4476061 -0.31610134
-0.89619696 4.4170618 -0.31352678
-0.86619008 4.407795 -0.31248304
-0.84472263 4.4424267 -0.31457052
-0.81239533 4.4200554 -0.31262222
-1.5102684 8.506999 -0.60180652
-1.4587157 8.5200386 -0.60208482
-1.4065728 8.5298128 -0.60215443
-1.3548337 8.5422249 -0.60243273
-0.67477548 4.4320469 -0.31185681
-1.2529343 8.5789356 -0.603894
-1.2027587 8.6042452 -0.60514647
-1.1506019 8.6164074 -0.60549438
-1.0989715 8.6332016 -0.6061902
-1.0489777 8.6645403 -0.60792977
-0.99545163 8.66784 -0.60772103
-0.94548225 8.703537 -0.6098085
-0.89145023 8.7032204 -0.60939097
-0.83898783 8.7184553 -0.6100868
-0.78538704 8.7224464 -0.61001724
-0.73235291 8.7330656 -0.61043471
-0.67813534 8.7294388 -0.60987806
-0.62484467 8.7374153 -0.61015642
-0.57460767 8.7928476 -0.61377466
-0.51952368 8.7772875 -0.61245263
-0.46639812 8.7942572 -0.61342674
-0.41247559 8.7979488 -0.61349636
-0.35836262 8.7973242 -0.61328757
-0.30492947 8.8153095 -0.61440092
-0.1121824 3.955807 -0.2751869
-0.19735411 8.8463125 -0.61634922
-0.14313525 8.851346 -0.61662757
-0.038069535 3.8305161 -0.26634994
-0.01455729 3.8286824 -0.26621076
0.019737743 8.8175659 -0.61419219
0.032195758 3.8006413 -0.26426247
0.055601858 3.8063569 -0.26467997
0.18277575 8.851614 -0.61669713
0.23756433 8.8682766 -0.6179496
0.29282629 8.8925753 -0.61975878
0.34781227 8.901576 -0.62052417
0.40242475 8.8992739 -0.62052417
0.45794201 8.9145699 -0.62177664
0.51286101 8.915576 -0.62205499
0.56825292 8.9232121 -0.62282038
0.62452161 8.9414511 -0.6243512
0.68028003 8.9493876 -0.6251862
0.2963523 3.6010599 -0.25118098
0.79092896 8.9503031 -0.62588203
0.8462075 8.949254 -0.62616032
0.90500033 8.9826021 -0.62887406
0.96381015 9.0115986 -0.63130945
1.0243549 9.052103 -0.63457978
1.0756238 9.0099888 -0.63207483
1.1327516 9.0180655 -0.63311857
0.4455826 3.3764632 -0.23670785
0.47024727 3.4023237 -0.23872574
1.2905753 8.9403954 -0.62922198
1.3425865 8.9135656 -0.62789989
1.3991085 8.9169865 -0.62873489
1.4502625 8.8865728 -0.62720406
0.56156003 3.3105638 -0.23336791
1.5712925 8.9368839 -0.63207483
0.59160012 3.2455184 -0.22926255
0.60780871 3.2222207 -0.2278709
0.62527972 3.2066808 -0.22703591
0.64494371 3.2027838 -0.22703591
0.6645835 3.198766 -0.22703591
0.68336338 3.190726 -0.22675757
1.9542217 8.8640957 -0.63228357
2.0057051 8.8392906 -0.63137901
0.73789889 3.1601202 -0.2255051
2.0882072 8.7063332 -0.62365538
2.1439745 8.703042 -0.6243512
2.1924453 8.6703806 -0.62295955
2.2393441 8.6326237 -0.62121999
2.2853496 8.5926905 -0.61934125
2.3571744 8.6487675 -0.62442076
2.40698 8.622611 -0.62358576
2.443126 8.5491686 -0.61934125
2.4955366 8.5340176 -0.61934125
0.89513916 2.9913659 -0.21694647
2.5852001 8.4540977 -0.61579257
2.6524947 8.4875898 -0.61941087
2.6954236 8.4426432 -0.6173234
2.733573 8.3842134 -0.61426175
2.7843361 8.3653898 -0.61412257
2.8343298 8.3443699 -0.61384428
2.8782921 8.3060846 -0.61231345
2.9265444 8.2807426 -0.6117568
2.9424739 8.1659603 -0.60458982
3.0327554 8.2573156 -0.61273092
3.0777707 8.2236023 -0.61161762
1.046682 2.7440305 -0.20400414
1.0588058 2.725467 -0.20309958
1.0769759 2.7226298 -0.2033779
1.1133999 2.7650192 -0.20706576
1.1212704 2.7359798 -0.20539579
3.363023 8.067914 -0.60883433
3.3754711 7.9598746 -0.60222399
3.4862669 8.0828304 -0.61314845
3.5386012 8.0676823 -0.61363548
3.5880368 8.0458174 -0.61363548
3.6356902 8.0200157 -0.61335719
3.6848316 7.9975572 -0.61335719
3.7262216 7.9585338 -0.61210471
3.7659862 7.9166021 -0.61064345
3.8040748 7.871788 -0.6089735
3.8531826 7.8500896 -0.60911268
3.8977175 7.8191562 -0.60855597
3.9496758 7.8031044 -0.60918224
4.0002155 7.7840462 -0.60959971
4.0548224 7.7726221 -0.61064345
4.1015043 7.7458324 -0.61050433
4.1513157 7.7249146 -0.61085224
4.2086649 7.71769 -0.61231345
4.2544918 7.6891022 -0.61210471
4.2976851 7.6558928 -0.61154807
4.3352022 7.6129074 -0.61022598
4.3758454 7.5757971 -0.60939097
4.4167013 7.5393362 -0.60862559
4.4562559 7.5009441 -0.60772103
4.4790354 7.4350057 -0.60458982
4.479856 7.3341656 -0.59860569
4.5683613 7.3769369 -0.60438102
4.6517248 7.4096012 -0.60939097
4.7094183 7.4002767 -0.61099136
4.7606845 7.3804631 -0.6117568
4.8217087 7.3753281 -0.61377466
4.9351873 7.4487286 -0.62240291
4.9724588 7.4058828 -0.62135917
5.0626941 7.4412189 -0.62692577
5.1212778 7.428906 -0.62852615
5.1799021 7.4161539 -0.63012654
5.2327991 7.3948178 -0.6310311
5.2827239 7.3690572 -0.63158774
5.3366318 7.3486128 -0.63263148
5.392261 7.3301945 -0.63388395
5.4502487 7.3145695 -0.63541478
5.5148563 7.3072677 -0.63771099
5.5868483 7.3089585 -0.6408422
5.6431918 7.2895288 -0.64216429
5.741972 7.3238549 -0.64828753
5.8047895 7.3111434 -0.65030539
5.9614205 7.4145594 -0.66276067
6.0395527 7.4180708 -0.66637892
6.1680779 7.4817123 -0.67549425
6.2969694 7.5432863 -0.68453991
6.3695364 7.5357456 -0.68739283
6.5103483 7.607182 -0.69755185
6.5686607 7.5806637 -0.69880432
6.6334701 7.5612149 -0.70075262
6.6711292 7.5106735 -0.69984806
6.7117519 7.4636645 -0.69929141
6.7567501 7.4216037 -0.69922179
6.7960768 7.3734031 -0.69859558
6.83915 7.3293757 -0.69838685
6.8860478 7.2894497 -0.69859558
6.9258194 7.2420135 -0.69810849
6.9812269 7.2108493 -0.69922179
7.0169616 7.159328 -0.69838685
7.0375729 7.0927672 -0.69609058
7.088737 7.0571947 -0.69685602
7.1219487 7.0037732 -0.69588184
7.1647887 6.9599419 -0.69588184
7.2073598 6.9158483 -0.69588184
7.2453151 6.8673768 -0.69546437
7.2895002 6.8248363 -0.69567311
7.3378305 6.786077 -0.69629937
7.3800678 6.7415977 -0.69636893
7.41611 6.6915097 -0.69588184
7.4555397 6.6445518 -0.69574267
7.5014105 6.6032948 -0.69622976
7.549314 6.5636883 -0.69692558
7.592473 6.5198426 -0.69720393
7.6429858 6.4821672 -0.69817805
7.6849098 6.4370713 -0.69838685
7.7242627 6.3897958 -0.69838685
7.7888169 6.3631096 -0.70068306
7.8191738 6.3083076 -0.69991761
7.8639746 6.2651849 -0.70047432
7.9085412 6.2217493 -0.70103097
7.9434175 6.1706581 -0.70075262
7.9819217 6.1224093 -0.70082223
8.0225182 6.075727 -0.70110053
8.0620441 6.0281796 -0.70130926
8.1157341 5.9910417 -0.70277053
8.1692705 5.9534712 -0.70423174
8.2250814 5.9172163 -0.70590174
8.2864466 5.8845434 -0.70805877
8.3485365 5.8519125 -0.71028543
8.4031534 5.813632 -0.71188581
8.4419632 5.7642121 -0.7121641
8.4647636 5.7039423 -0.71112037
8.5020952 5.653553 -0.71132916
8.5366249 5.6012788 -0.71132916
8.5766945 5.5525894 -0.71181619
8.6215315 5.5068407 -0.71272081
8.6661301 5.4607506 -0.71362537
8.7189589 5.4195871 -0.71522576
8.7648058 5.3738089 -0.71626949
8.8206606 5.3338666 -0.71814823
8.866931 5.2878194 -0.71926153
8.8931904 5.2297735 -0.71877444
8.9268379 5.1761079 -0.71891361
8.948904 5.1157899 -0.71814823
8.9792566 5.0602946 -0.71807861
9.0214729 5.0114017 -0.71898323
9.066927 4.964098 -0.72016609
9.1217976 4.9216356 -0.72211438
9.1650362 4.8725977 -0.72315812
9.2027149 4.820437 -0.72378439
9.2347784 4.7652521 -0.72399312
9.2585077 4.7057867 -0.72357565
9.2711506 4.6408501 -0.72232318
9.2806625 4.5746126 -0.72086191
9.2870178 4.5071268 -0.71919197
9.3090982 4.4474773 -0.71877444
9.3362122 4.390274 -0.71877444
9.358448 4.3308105 -0.71842653
9.392108 4.2766142 -0.71898323
9.4172621 4.2184968 -0.71891361
9.443881 4.1610365 -0.71898323
9.4692354 4.1030116 -0.71898323
9.4914799 4.0436592 -0.71877444
9.524394 3.9888132 -0.7194007
9.5763636 3.9416904 -0.72148818
9.605917 3.8851011 -0.72190565
9.6267939 3.8249822 -0.72169691
9.6519403 3.7665665 -0.72183609
9.6674185 3.7044163 -0.72127944
9.6871653 3.6439745 -0.72107065
9.731801 3.5927598 -0.72274065
9.7667933 3.5377364 -0.72371483
9.8118172 3.4860926 -0.72545439
9.8415003 3.4287772 -0.7260806
9.8708496 3.3712289 -0.72670686
9.9112148 3.3172493 -0.72816807
9.9493933 3.262279 -0.72949016
10.010063 3.2142863 -0.73248219
10.090503 3.1719551 -0.73693544
10.140286 3.1193688 -0.73916209
10.249029 3.0841167 -0.7457028
10.367287 3.0504632 -0.7529394
10.431827 3.0000303 -0.75627935
10.444276 2.934346 -0.75586188
10.404364 2.8543668 -0.75168693
10.378319 2.7788596 -0.74855572
10.297691 2.6896594 -0.74152792
10.241497 2.6079557 -0.73630923
10.183722 2.5268037 -0.73102093
10.170916 2.4574735 -0.72900307
10.051794 2.3635013 -0.7194007
10.018456 2.2908809 -0.71599114
10.011874 2.2248199 -0.71452993
10.020461 2.1622939 -0.71418202
10.029634 2.0999508 -0.71390367
10.036466 2.0371797 -0.71348619
1.6465238 0.32315189 -0.1161912
1.6661155 0.31639969 -0.11744369
1.6552711 0.30382454 -0.11653911
1.6462998 0.29174331 -0.11577371
1.6441259 0.28096265 -0.11549538
1.6517246 0.27184349 -0.11591287
1.6553321 0.26201627 -0.11605204
1.6549361 0.2515538 -0.11591287
1.6722419 0.24370238 -0.11702619
1.6835855 0.23481891 -0.11772201
1.6820282 0.22408785 -0.11751327
1.694257 0.2151494 -0.11827867
1.7311972 0.20906849 -0.12078364
1.7334385 0.19855601 -0.12085322
1.7108227 0.18532871 -0.11918324
10.366444 1.0619341 -0.72601104
10.370778 0.99811566 -0.72587186
