# .PCD v0.7 - Point Cloud Data file format
VERSION 0.7
FIELDS x y z
SIZE 4 4 4
TYPE F F F
COUNT 1 1 1
WIDTH 1527
HEIGHT 1
VIEWPOINT 0 0 0 1 0 0 0
POINTS 1527
DATA ascii
7.3173141 8.7599401 2.3466856
7.3291788 8.6655188 2.3333807
7.355453 8.5891399 2.3249137
7.3765755 8.5075846 2.3150358
7.3814664 8.4084301 2.3003197
7.3997345 8.3256435 2.2900386
7.4198871 8.245863 2.2805638
7.4254889 8.1509447 2.2668557
7.4428229 8.0699492 2.2569778
7.4487486 7.9775958 2.2438743
7.4544964 7.8861866 2.2309725
7.4763336 7.8126993 2.2231104
7.5002775 7.7420568 2.2160547
7.5222645 7.6700168 2.208596
7.531229 7.5854888 2.1975083
7.5588837 7.5204835 2.1920655
7.5860238 7.4554248 2.1866226
0.96568316 0.93769902 0.27453381
0.97141862 0.93175608 0.27453381
0.99916178 0.94665855 0.28078312
1.0020907 0.93783313 0.27997676
0.99847507 0.92302459 0.27735609
0.99977958 0.91291851 0.27614653
0.98208475 0.88577771 0.26969564
0.96775252 0.86214638 0.26425266
0.97081816 0.85425138 0.26364791
0.9745627 0.84699357 0.26324472
0.9767682 0.83844644 0.26243836
0.9751696 0.8267377 0.26062405
0.98322827 0.82325339 0.26143041
0.9927907 0.82094938 0.26263994
1.001603 0.81793934 0.26364791
0.99974018 0.80624539 0.26183358
1.0077336 0.80253625 0.26263994
1.0080187 0.79270566 0.26143041
1.0051267 0.78049946 0.25941449
1.0091194 0.77372158 0.25921291
1.0122859 0.76633298 0.25880972
1.0036303 0.75014061 0.25538269
1.0176728 0.75094575 0.25780177
1.0143436 0.73892123 0.25578585
1.0212444 0.7343986 0.25639063
1.0281277 0.72981906 0.25699541
1.0093213 0.70720088 0.25114927
1.01767 0.70377946 0.25215724
1.0203511 0.69641781 0.25175405
1.0262299 0.69123811 0.25215724
1.0410571 0.69197524 0.25477791
1.0452834 0.68557441 0.25477791
1.0527599 0.68127578 0.25558427
1.0626997 0.67849219 0.25699541
1.071816 0.67509013 0.25820494
1.0800983 0.67108488 0.25921291
1.0858661 0.66546828 0.25961608
1.0899289 0.65879297 0.25961608
1.0981575 0.65459985 0.26062405
1.1029979 0.64834559 0.26082563
1.1103454 0.64352959 0.261632
1.1261799 0.64350605 0.26445428
1.1471764 0.64619565 0.26848608
1.1562582 0.64199662 0.26969564
1.1687685 0.63959068 0.27171153
1.2011223 0.64774573 0.27836403
1.2249691 0.65093213 0.28300062
1.2445605 0.65157896 0.28662926
1.2511468 0.64527678 0.28723404
1.2585757 0.6393618 0.2880404
1.2624751 0.63162726 0.2880404
1.280386 0.63079304 0.29126585
1.2930455 0.6271984 0.29328173
1.2889142 0.61545515 0.29146743
1.2944393 0.60836792 0.29187062
1.3070382 0.60452455 0.29388651
1.3071567 0.59487098 0.29308015
8.4146423 3.7661772 1.8949206
8.4233723 3.6466789 1.8866554
8.448514 3.5350976 1.882422
8.4667387 3.4212477 1.876979
8.4720955 3.3630893 1.873552
8.4633694 3.2996576 1.8671011
8.4761381 3.244864 1.8654884
8.4931383 3.1917608 1.8648835
8.4629383 3.1212864 1.8539977
8.2470684 2.9843173 1.802592
8.2310715 2.9215364 1.7951332
8.6688156 3.0171366 1.8866554
8.7362967 2.9806504 1.8973397
8.801796 2.9428282 1.9076208
8.75453 2.8674259 1.8935095
8.5667715 2.7478445 1.8491595
8.5731916 2.6920006 1.8469421
8.7009649 2.6735787 1.8709313
8.8241396 2.6522794 1.8939127
8.7218409 2.5632892 1.8685123
8.769413 2.5189178 1.8753663
8.8177109 2.4743237 1.882422
9.0228806 2.3536241 1.9166924
8.9626665 2.2208157 1.8979445
8.854249 2.1363761 1.8721409
8.8319101 2.073724 1.864682
0.70015478 0.15552559 0.14511251
0.72407597 0.15617736 0.1499507
0.76241183 0.15954725 0.15781273
0.77393597 0.15700586 0.16003023
0.77200139 0.15168826 0.15942547
0.77869129 0.14804481 0.16063501
0.78151172 0.1436177 0.16103819
0.78430712 0.13916153 0.16144137
0.78804266 0.13484143 0.16204613
0.79078817 0.13032164 0.16244932
0.7944752 0.12592635 0.16305409
0.79523289 0.12104918 0.16305409
0.79983765 0.11673237 0.16386046
0.79956871 0.11168718 0.16365887
0.80023897 0.10677902 0.16365887
0.80087912 0.10186684 0.16365887
0.80051666 0.096833408 0.16345727
0.79914951 0.091696836 0.16305409
0.79969716 0.08679162 0.16305409
0.7972914 0.081584677 0.16244932
0.797777 0.076691054 0.16244932
0.8011592 0.072057113 0.16305409
0.80158627 0.067139931 0.16305409
0.80686587 0.062597945 0.16406205
0.8052808 0.057506826 0.16365887
0.80855078 0.052755296 0.16426364
0.80885917 0.047793131 0.16426364
0.78468442 0.041540291 0.15922387
0.93462127 0.043694288 0.19006726
0.98967737 0.040173426 0.20135635
1.011441 0.034838058 0.20579134
1.0733178 0.030366041 0.21849157
1.0705463 0.023715133 0.21788679
1.0589195 0.016959717 0.21546771
1.0590036 0.010461991 0.21546771
1.0590478 0.00396387 0.21546771
1.0747755 0.0022207485 0.19752331
1.0600215 -0.0043236404 0.19478206
1.0363803 -0.010602387 0.19039606
1.0421941 -0.017053826 0.19149256
1.039121 -0.02338393 0.1909443
1.0242163 -0.029347163 0.18820305
0.9699747 -0.033787854 0.17815179
0.96483719 -0.039541163 0.17723803
0.96948695 -0.045688391 0.17815179
0.97409743 -0.051894158 0.17906554
0.97081631 -0.057697281 0.17851728
1.0322531 -0.067662217 0.19003056
1.058297 -0.075875461 0.19496481
1.0362462 -0.080702819 0.1909443
1.0288732 -0.086487785 0.18966505
1.0341988 -0.093325384 0.19076155
1.0463295 -0.10088749 0.1931373
1.0408002 -0.10680722 0.19222356
1.0381705 -0.11298002 0.19185805
1.0472256 -0.120465 0.19368556
1.0786777 -0.13077226 0.19971631
1.0788302 -0.13751212 0.19989908
1.0711442 -0.14322148 0.19861981
1.0809566 -0.15128323 0.20063007
1.0780622 -0.15762979 0.20026457
1.0829067 -0.16512717 0.20136108
1.0789599 -0.17130803 0.20081282
1.0730379 -0.17712769 0.19989908
1.0738691 -0.18403928 0.20026457
1.0794963 -0.19182467 0.20154382
1.0492879 -0.19312495 0.19606131
1.0422876 -0.19846009 0.19496481
1.0217545 -0.2010681 0.19130981
0.9279952 -0.18860447 0.17376578
0.94606835 -0.1983151 0.17742078
0.94291139 -0.20370251 0.17705528
0.93204522 -0.20735627 0.17522778
0.93458945 -0.21394604 0.17595878
0.94145137 -0.22770309 0.17778628
0.92048168 -0.23463829 0.17431402
0.91521913 -0.23928991 0.17358303
0.95647597 -0.25632286 0.18180679
0.97953987 -0.26893759 0.18655829
0.98639107 -0.27733195 0.18820305
1.0196358 -0.29341567 0.19496481
1.0404558 -0.30631575 0.19935082
1.0347903 -0.31156275 0.19861981
1.0648139 -0.32771885 0.20483333
1.0580927 -0.33277446 0.20391957
9.7742929 -3.535738 1.9298137
9.9009342 -3.6503923 1.9592365
9.8865881 -4.4966516 2.0166202
9.8882618 -4.5708413 2.022651
9.8493509 -4.6264133 2.0204577
9.8793411 -4.714704 2.0325193
9.945775 -4.821547 2.0522563
9.9653988 -4.9068003 2.0624905
9.9878674 -4.9942331 2.0734553
9.9894714 -5.0718899 2.0802171
10.020211 -5.1650672 2.0931926
10.017949 -5.2419486 2.099406
10.011646 -5.317152 2.1048884
10.013452 -5.3971386 2.1121986
10.006025 -5.47263 2.117681
10.031575 -5.5668359 2.1302907
10.061486 -5.664454 2.1439972
10.094842 -5.7650847 2.158617
10.130742 -5.8683076 2.1739681
10.154733 -5.965713 2.1869433
10.173685 -6.0611167 2.1990049
10.191845 -6.1569767 2.2110665
10.197473 -6.2460966 2.2205694
10.195706 -6.3313689 2.2286105
10.228222 -6.4388494 2.2443271
10.233279 -6.5300441 2.2541955
10.262366 -6.6375585 2.2695465
10.26667 -6.7300448 2.2795978
10.282509 -6.8309922 2.2923903
10.321145 -6.948307 2.3104827
10.341669 -7.0547171 2.3247371
10.339437 -7.1465473 2.3340573
10.350156 -7.2482009 2.3464844
10.370439 -7.3576488 2.3612871
10.410523 -7.4825344 2.3808415
10.440721 -7.6018219 2.3983855
10.447686 -7.7054214 2.4108126
10.480554 -7.8293943 2.4294531
10.49504 -7.9410095 2.4440732
10.50933 -8.0536928 2.4588759
10.516416 -8.1620264 2.4722166
10.56508 -8.304162 2.4956088
10.617777 -8.4514856 2.5202799
10.605525 -8.5485573 2.529783
10.63285 -8.6787424 2.5489719
10.676404 -8.823987 2.5723639
10.72008 -8.9713526 2.5961213
10.742093 -9.1024237 2.6149447
10.758421 -9.230257 2.6326714
10.775809 -9.3605671 2.6509464
10.81341 -9.5102644 2.6745212
10.834156 -9.6470423 2.6942582
10.871154 -9.8002281 2.7183814
10.91757 -9.9641705 2.7452457
10.955158 -10.122375 2.7702825
10.990494 -10.280741 2.7951365
10.992884 -10.410174 2.8119495
10.991967 -10.537981 2.8282144
11.054804 -10.729158 2.8612921
11.122015 -10.9277 2.8960147
11.103551 -11.044269 2.9088073
11.184532 -11.262169 2.9480984
11.248793 -11.466734 2.983552
11.248012 -11.607553 3.0021927
11.317309 -11.823363 3.0400219
11.351277 -12.005451 3.0688965
11.347865 -12.150316 3.0880852
11.351766 -12.304984 3.1096499
11.406509 -12.51756 3.1456516
11.410393 -12.677193 3.1681299
11.381387 -12.802073 3.1818361
11.43691 -13.024585 3.2196655
11.323923 -13.056638 3.2103453
11.217371 -13.095262 3.2028525
10.929788 -12.919163 3.143276
10.958113 -13.114992 3.1745262
10.856784 -13.15696 3.1684954
10.746037 -13.186746 3.1597235
10.605129 -13.178141 3.1419966
10.505107 -13.219104 3.1363313
10.376454 -13.222987 3.1220767
10.341495 -13.346245 3.1361487
10.39204 -13.582788 3.1767192
10.400362 -13.767888 3.2050455
10.476161 -14.046592 3.2549362
10.504037 -14.265777 3.2907553
10.468335 -14.40153 3.3072028
2.1662643 -3.0199125 0.68857348
2.1493986 -3.0355544 0.68912172
10.714701 -15.325811 3.4736884
10.74443 -15.570907 3.5142591
10.869506 -15.960767 3.5871763
10.856923 -16.154453 3.6156855
10.9266 -16.475576 3.6725209
10.975511 -16.77183 3.7235081
11.052658 -17.118025 3.7852778
11.146565 -17.498123 3.8541746
11.145188 -17.735168 3.891273
11.243887 -18.1383 3.9645557
11.306252 -18.491295 4.0265083
11.368257 -18.85162 4.0897398
11.454904 -19.261557 4.1633883
11.55435 -19.702934 4.243433
11.642404 -20.135181 4.3211017
11.68273 -20.494074 4.3826885
11.79519 -20.98963 4.4731503
11.921055 -21.521721 4.5709214
11.978637 -21.942223 4.6445699
12.100907 -22.493233 4.7454481
12.142256 -22.905832 4.8167205
17.116173 -33.268513 6.9521585
12.717652 -25.096891 5.2275434
12.626204 -25.300249 5.2536769
12.765163 -25.97637 5.3777642
12.877448 -26.616184 5.4938107
13.023361 -27.344435 5.627584
13.199203 -28.157351 5.7781701
13.275352 -28.777916 5.8887339
13.513015 -29.771986 6.0751395
13.651173 -30.57342 6.2215223
13.767736 -31.349737 6.3622403
13.97429 -32.357861 6.5493765
13.981067 -32.927147 6.6471481
13.793536 -33.047699 6.6542754
13.603186 -33.16264 6.6604886
13.414885 -33.283779 6.6681643
13.224885 -33.402031 6.6754742
13.033582 -33.518284 6.6826015
12.838544 -33.626099 6.6882668
12.637842 -33.719891 6.6913733
12.439528 -33.820793 6.696125
12.243119 -33.927925 6.7023387
12.057347 -34.06636 6.7149482
11.866467 -34.192642 6.7253652
11.665625 -34.291801 6.7306647
11.468676 -34.403774 6.7387056
11.272928 -34.521164 6.7480259
11.079165 -34.646805 6.7591739
10.876061 -34.745094 6.7652044
10.671591 -34.840317 6.7708697
10.47003 -34.946579 6.7789111
10.280557 -35.096024 6.7955413
10.076924 -35.200031 6.8035822
9.8803463 -35.331264 6.8171058
9.6739912 -35.430111 6.8245983
9.4769192 -35.565754 6.8394012
9.2740955 -35.683178 6.8509145
9.0709114 -35.802311 6.8629761
8.8619003 -35.901207 6.8713827
8.6531658 -36.003658 6.880703
8.4444036 -36.108727 6.8907542
8.2377291 -36.226009 6.9033637
8.0235691 -36.313313 6.910491
3.3633387 -15.679834 2.9786179
3.2656634 -15.693438 2.9773386
7.4148502 -36.757462 6.967875
7.1987853 -36.851479 6.9771953
7.0329695 -37.214722 7.0376854
1.9041108 -12.60482 2.3673179
1.8241963 -12.598753 2.3640285
1.7260728 -12.459735 2.3358848
1.6332076 -12.34631 2.3126757
1.552624 -12.318056 2.3055484
1.4668322 -12.242424 2.289649
1.3539379 -11.919059 2.227514
1.2402372 -11.549814 2.1569724
1.1551844 -11.417329 2.1308391
1.0719907 -11.2862 2.1050713
0.99453998 -11.200509 2.0878928
0.92231292 -11.164268 2.0800345
0.85026819 -11.123645 2.0714452
0.77965355 -11.095307 2.0652318
0.70885211 -11.057693 2.0573735
0.63392979 -10.940128 2.0347123
0.56205553 -10.8525 2.0177166
0.49029312 -10.7428 1.9967003
0.41744998 -10.57074 1.9641707
0.34906822 -10.467962 1.9446164
0.27995333 -10.291039 1.9113559
0.21578558 -10.244398 1.9024011
0.15217131 -10.195395 1.8930808
0.089514904 -10.185322 1.8910706
0.027073447 -10.206326 1.8949084
-0.03551162 -10.194502 1.8927153
-0.098335527 -10.222602 1.8980151
-0.16162896 -10.25818 1.9047769
-0.22549142 -10.29926 1.9126352
-0.28857231 -10.293752 1.9119042
-0.35213032 -10.303578 1.9140972
-0.40664607 -10.085103 1.8738921
-0.45521343 -9.7956438 1.820529
-0.5091185 -9.6748505 1.798599
-0.56513095 -9.6146193 1.7879994
-0.61221415 -9.4275055 1.7538251
-0.66364026 -9.3333473 1.7370121
-0.71953398 -9.3114557 1.7337226
-0.77600104 -9.2990274 1.7322606
-0.83207947 -9.2833195 1.7302504
-0.88518333 -9.2379131 1.7227576
-0.94324535 -9.2460012 1.725316
-0.99700022 -9.2126713 1.7201991
-1.0508285 -9.1829367 1.715813
-1.1065657 -9.1714354 1.7148993
-1.1633145 -9.1683741 1.7156303
-1.2226605 -9.184453 1.7200164
-1.2808913 -9.1904116 1.7225748
-1.3390994 -9.1950264 1.7249506
-1.3987405 -9.2080212 1.7289711
-1.4569025 -9.2099476 1.7309813
-1.5105152 -9.1833725 1.7276918
-1.5678276 -9.1797457 1.7287884
-1.6272089 -9.1873789 1.7320778
-1.6835511 -9.1772213 1.7320778
-1.7405628 -9.1705828 1.7328088
-1.8005832 -9.1790257 1.7364638
-1.8594071 -9.1803322 1.7388396
-1.9205257 -9.1918468 1.7432256
-1.9853727 -9.2192965 1.7507184
-2.0467982 -9.2290182 1.7549217
-2.0056355 -8.7878227 1.6732322
-2.0186486 -8.6011457 1.6399716
-2.0605557 -8.5436764 1.6313823
-2.1004167 -8.4802923 1.6216966
-2.1495054 -8.4558105 1.6195036
-2.2033329 -8.4500723 1.6209656
-2.2579319 -8.4468422 1.6229758
-2.3032274 -8.4091225 1.6184071
-2.3526578 -8.3872585 1.6169451
-2.3959389 -8.3443155 1.6114626
-2.4415526 -8.3105907 1.6078076
-2.4854283 -8.2719135 1.6032388
-2.5309422 -8.2395897 1.5999494
-2.5717378 -8.1929493 1.5939186
-2.6207597 -8.1732702 1.5931876
-2.6757543 -8.1719856 1.5961115
-2.7249117 -8.1526165 1.5955633
-2.7628264 -8.1003819 1.5886189
-2.8027873 -8.0554199 1.5831363
-2.8416433 -8.00842 1.5772883
-2.8913975 -7.992682 1.5776538
-2.9516065 -8.0052328 1.5836846
-2.9979045 -7.9796081 1.5822226
-3.0461075 -7.9592266 1.5818571
-3.0898895 -7.9275613 1.5792986
-3.1268716 -7.8792095 1.5734506
-3.1460724 -7.7878575 1.5590132
-3.1444616 -7.6483736 1.5348902
-3.010767 -7.1971889 1.4479011
-2.9948277 -7.0374484 1.419392
-3.0317054 -7.0045033 1.416468
-3.0595801 -6.9515729 1.4095235
-3.0817008 -6.886899 1.4002032
-3.08076 -6.772994 1.3808317
-3.1218479 -6.7530708 1.380649
-3.1552844 -6.7168803 1.3771766
-3.1824672 -6.6681118 1.371146
-3.2250376 -6.6519976 1.371877
-3.262753 -6.6259093 1.3705977
-3.3046663 -6.6084032 1.371146
-3.3344715 -6.5669613 1.3667599
-3.3760543 -6.5489998 1.3673081
-3.411617 -6.5194497 1.3654807
-3.4538608 -6.5027356 1.3663944
-3.508621 -6.5091157 1.3722425
-3.5532115 -6.4960909 1.3740699
-3.5953887 -6.4784651 1.3749837
-3.6432707 -6.4708471 1.3780905
-3.6931443 -6.4662995 1.3819282
-3.7435918 -6.462234 1.3859487
-3.7966175 -6.4620309 1.390883
-3.8603475 -6.4791574 1.399655
-3.9467959 -6.5327716 1.416468
-4.0212083 -6.5646057 1.4287122
-4.0728221 -6.5581837 1.4327328
-4.1444087 -6.582993 1.4436978
-4.1974154 -6.5773315 1.4480839
-4.2398295 -6.5547552 1.4488149
-4.2853589 -6.5368395 1.4506423
-4.3281069 -6.5145168 1.4515561
-4.4432111 -6.5995741 1.4765929
-4.5728149 -6.7029533 1.5060157
-4.6977034 -6.7960887 1.5334282
-4.8312335 -6.8984089 1.5632166
-4.9280801 -6.9456153 1.5807606
-5.1289635 -7.1355972 1.6311996
-5.286644 -7.2605753 1.6672015
-34.498142 -46.779732 10.801976
-34.740986 -46.508888 10.788453
-34.996643 -46.256428 10.779498
-35.18951 -45.922981 10.751904
-35.369362 -45.57571 10.721201
-35.54689 -45.228737 10.690681
-35.783943 -44.959774 10.678802
-35.924023 -44.571716 10.638781
-36.157047 -44.301704 10.627085
-36.323605 -43.952454 10.596565
-36.535828 -43.660889 10.580118
-36.803673 -43.436642 10.5803
-14.945054 -17.205265 4.2339296
-15.036059 -17.096998 4.2299094
-15.253291 -16.920689 4.232285
-15.194458 -16.648855 4.1875114
-15.876103 -17.182844 4.3463211
-15.788488 -16.879034 4.2938719
-15.983018 -16.878216 4.3185434
-15.880812 -16.565489 4.2633529
-16.064322 -16.552399 4.2852826
-14.864035 -15.128708 3.9400673
-15.340673 -15.423407 4.0413108
-16.320236 -16.208178 4.273221
-16.416573 -16.104979 4.27249
-16.567327 -16.054577 4.2860136
-16.622202 -15.911148 4.2748661
-16.397341 -15.50421 4.1924453
-14.98405 -13.994672 3.8088527
-16.026356 -14.785147 4.0508142
-16.629805 -15.154067 4.1798358
-17.687761 -15.920642 4.4212489
-15.80718 -14.053229 3.929285
-15.711381 -13.796384 3.8843284
-16.787994 -14.560368 4.1284828
-17.334713 -14.849176 4.240509
-16.925631 -14.319599 4.1187973
-17.799299 -14.872371 4.3092232
-18.892681 -15.590152 4.5508189
-17.885201 -14.575187 4.2863793
-18.131308 -14.591538 4.323843
-17.919554 -14.240833 4.2523875
-16.470581 -12.925155 3.8894455
-16.760958 -12.987653 3.9391537
-17.552433 -13.429431 4.1058221
-16.263264 -12.285546 3.7863743
-16.339128 -12.186113 3.786557
-16.403303 -12.078051 3.7841814
-17.443316 -12.679564 4.0062227
-17.450497 -12.521853 3.9901409
-15.774838 -11.173384 3.5910141
-18.532675 -12.956887 4.2010345
-17.064665 -11.775252 3.8516161
-17.236544 -11.738396 3.8740945
-17.225832 -11.577021 3.8556366
-17.533329 -11.628155 3.9084516
-16.651722 -10.896907 3.6968267
-16.838032 -10.871861 3.7233255
-17.071091 -10.874518 3.7600582
-17.020956 -10.696326 3.7344732
-17.343634 -10.75124 3.7907603
-17.378242 -10.625642 3.7839985
-18.129265 -10.932617 3.93294
-17.426207 -10.363338 3.7664545
-17.502188 -10.263679 3.7691958
-17.53845 -10.140838 3.7635305
-18.18655 -10.073552 3.8622158
-18.248194 -9.8170099 3.8494232
-18.118721 -9.6044683 3.8095837
-18.281015 -9.5472765 3.8313308
-18.92761 -9.7376432 3.9543219
-18.967388 -9.4655647 3.9380569
-67.553329 -33.197937 13.988959
-67.801773 -32.80508 13.998463
-68.218819 -31.979759 14.002483
-68.497681 -31.599287 14.019662
-20.048679 -9.0995131 4.0902882
-68.997002 -30.808449 14.043419
-69.208145 -30.394789 14.048171
-69.494423 -30.013222 14.068639
-69.721619 -29.605078 14.077594
-69.882904 -29.168764 14.073756
-70.142433 -28.773003 14.090203
-70.321304 -28.343544 14.090935
-70.513092 -27.91913 14.094772
-70.704147 -27.494139 14.098975
-70.982658 -27.102224 14.121088
-71.233231 -26.698261 14.138083
-71.482445 -26.292585 14.155262
-71.777443 -25.902208 14.181944
-71.945221 -25.464911 14.183954
-72.270088 -25.081976 14.217398
-72.437515 -24.643129 14.220322
-72.676903 -24.228046 14.237865
-72.833542 -23.784706 14.239693
-73.030548 -23.35413 14.249928
-73.283188 -22.940241 14.271492
-73.829475 -22.120203 14.323941
-74.034576 -21.687508 14.337647
-74.429016 -21.30806 14.388452
-74.445686 -20.819458 14.366705
-75.811943 -18.714325 14.512722
-49.922047 -11.99861 9.5415478
-76.45034 -17.385471 14.571202
-50.2938 -11.11289 9.5718842
-47.102291 -10.104928 8.9523602
-47.131641 -9.8091125 8.9463301
-47.208286 -9.5232334 8.9496193
-77.776527 -15.194122 14.728185
-78.089516 -14.758421 14.770035
-78.237595 -14.289771 14.781182
-78.5252 -13.844954 14.819195
-78.634842 -13.36732 14.824129
-78.952126 -12.923328 14.86872
-79.164925 -12.459892 14.894122
-35.573143 -5.3750525 6.6851602
-35.590656 -4.931767 6.6765709
-80.657967 -10.170436 15.10922
-35.494812 -4.2541757 6.6427617
-81.290535 -9.2382727 15.205346
-81.28997 -8.7333231 15.194929
-35.912392 -3.6350689 6.707273
-35.778404 -3.3998554 6.6782155
-36.030048 -2.9781218 6.7178721
-35.644745 -2.726167 6.6427617
-32.765949 -1.9000429 6.0985312
-35.931644 -1.8625449 6.685708
-33.047066 -1.5097066 6.1469603
-33.074371 -1.3076435 6.1504326
-31.812239 -1.0622587 5.914319
-33.055485 -0.6978417 6.1434879
-32.867451 -0.49212956 6.1078515
-26.499228 -0.23401986 4.9236298
-26.144262 -0.070450611 4.8574739
-26.206141 0.090180382 4.8689871
-26.403683 0.25287318 4.9059029
-27.201643 0.59439498 5.0552096
-27.234829 0.76233429 5.0621543
-26.452106 1.2280569 4.9199748
-26.348839 1.3853363 4.9022479
-29.727951 2.2956505 5.5400462
-27.122143 2.4296439 5.059413
-25.632824 2.4548995 4.7841911
-24.935551 2.5426378 4.6568141
-23.858936 2.5809007 4.4585299
-25.758123 3.1065242 4.8203754
-25.67518 3.2564754 4.808497
-24.511517 3.4150474 4.5979686
-26.697626 3.8867006 5.012629
-28.331911 4.6586499 5.3348179
-24.354521 4.1583772 4.5902929
-24.288855 4.3007088 4.5828004
-24.262976 4.4498386 4.582983
-23.575487 4.4734659 4.4581647
-23.410595 4.5911741 4.4322138
-27.337288 6.2376356 5.2098165
-27.376987 6.4236708 5.224802
-17.233509 6.1141391 3.3967507
-16.983755 6.2612324 3.3623936
-16.874147 6.338706 3.3483217
-16.991957 6.5022035 3.3795722
-16.857384 6.5695744 3.3607488
-16.66597 6.6130605 3.330595
-16.896742 6.8249135 3.3850546
-17.052782 7.0099425 3.4248941
-16.851625 7.0484395 3.3930955
-15.698915 6.6798239 3.1690438
-17.370213 7.5170798 3.5159037
-17.710716 7.7937865 3.5944865
-17.270376 7.7268624 3.5146246
-17.621796 8.0142002 3.5961311
-15.996217 7.3937597 3.2733941
-17.904783 8.4095554 3.6747139
-16.040928 7.6547022 3.3015378
-16.15379 7.8306007 3.3346155
-14.049349 6.9173489 2.9086244
-13.997848 6.9990273 2.9067969
-14.072579 7.2536006 2.9406059
-15.322321 8.0170708 3.2121727
-15.373567 8.164423 3.2333717
-15.343953 8.2697935 3.2377577
-13.58928 7.4321451 2.8768258
-15.341039 8.5127974 3.2589569
-15.192561 8.5527534 3.2384889
-14.969894 8.5487976 3.2021215
-14.130198 8.184701 3.0330775
-14.095819 8.2807093 3.0365496
-14.004202 8.3428926 3.0277777
-15.789858 9.5383291 3.4267216
-13.315551 8.1557112 2.900218
-13.790246 8.6809177 3.0266812
-14.663348 9.3565912 3.2309961
-13.131203 8.4928484 2.904604
-13.224387 8.6686554 2.9369507
-13.568958 9.0140123 3.0257673
-13.204282 8.8890295 2.9565051
-13.571031 9.2574053 3.0513525
-13.444325 9.4147863 3.0486112
-13.385502 9.4965334 3.0484285
-13.320594 9.5738964 3.0469666
-40.751938 32.845425 9.7268562
-40.659317 33.184372 9.7531729
-44.98732 39.075943 11.074092
-42.661762 46.814365 11.770919
-33.769962 54.47401 11.911271
-33.511505 54.805172 11.938501
-30.336767 55.56802 11.765802
-3.9279966 55.859074 10.406505
-3.3760295 52.622772 9.799408
-2.9136965 50.239761 9.3520355
-2.454977 47.356339 8.812191
-2.0303662 44.438839 8.2666817
-1.6633401 42.066196 7.8231463
-1.3536483 40.532909 7.5362282
-0.77694154 36.798519 6.8394012
-0.53074944 35.443035 6.5866575
-0.30009818 33.959148 6.310339
-0.088696793 32.8484 6.1036487
0.10994519 31.994949 5.9450212
0.30301175 31.653515 5.8817897
0.46541411 29.623055 5.5047755
0.64414418 29.481047 5.4790077
0.80243284 28.668697 5.3287868
0.91441584 26.78944 4.9802823
1.0680597 26.517103 4.930757
1.228467 26.460945 4.9216194
1.3441128 25.564377 4.7562304
1.4060522 23.939169 4.4552407
1.5286039 23.555309 4.3854299
1.666769 23.456244 4.3687997
1.7063851 22.094801 4.1169696
1.7968335 21.543087 4.0160913
1.86067 20.768831 3.873729
1.970454 20.573029 3.8393719
2.047894 20.082266 3.7500069
2.1296411 19.686157 3.6783688
2.1975582 19.210695 3.591928
2.2677257 18.801533 3.5179141
2.3376565 18.429312 3.4508448
2.3984387 18.02187 3.3771963
2.4633987 17.679632 3.3157921
2.5242507 17.337286 3.2543881
2.5731747 16.943356 3.1832981
2.6413138 16.700983 3.1407173
2.6853638 16.329391 3.0738308
2.7391837 16.041248 3.0226607
2.7873423 15.740484 2.9691148
2.8308511 15.433942 2.9144726
2.8937955 15.249176 2.8828566
2.9307432 14.942661 2.8282144
2.9757469 14.694096 2.7845371
3.0180128 14.44651 2.7410424
3.0565267 14.195124 2.6968169
3.0984552 13.972613 2.6580737
3.1296787 13.714664 2.6125689
3.1722274 13.518126 2.5787601
3.2053399 13.291961 2.5392861
3.2341444 13.059225 2.4985328
3.2754705 12.886675 2.4692926
3.3123226 12.704601 2.438225
3.3404658 12.49787 2.402406
3.3887877 12.373779 2.3824863
3.410495 12.159637 2.3452051
3.4489636 12.012797 2.3208995
3.4591632 11.77539 2.2790496
3.4911878 11.620236 2.253099
3.5485694 11.553483 2.2443271
3.622926 11.542748 2.24652
3.7053874 11.556814 2.2536473
3.7841809 11.558155 2.2583988
3.8618841 11.555233 2.2624192
3.9511166 11.585291 2.2730188
4.0424776 11.619329 2.2845321
4.1258578 11.628591 2.2912939
4.2108412 11.640963 2.2987866
4.2934113 11.645349 2.3048174
4.3817239 11.663884 2.3137722
4.4778032 11.701056 2.3265646
4.5602241 11.700842 2.3320472
4.6522379 11.723817 2.3422811
4.7432313 11.742455 2.3517842
4.8338809 11.758597 2.3609216
4.9283199 11.78223 2.3717041
5.0170722 11.79067 2.3795621
5.1135316 11.815607 2.3908927
5.2069206 11.831703 2.4005785
5.3047137 11.856071 2.4120917
5.3993382 11.871627 2.4219604
5.4988904 11.896283 2.4338391
5.591424 11.904144 2.4424284
5.6808729 11.904218 2.4495556
5.788115 11.939913 2.4641757
5.884717 11.951804 2.4740441
5.9816823 11.962958 2.4839127
6.0870152 11.989149 2.4970708
6.1973982 12.023236 2.5120564
6.2952099 12.031154 2.5217421
6.3868961 12.026165 2.5288692
6.4405107 11.949533 2.5210111
6.5146542 11.911516 2.5213766
6.6935134 12.06217 2.5619471
6.6608186 11.831532 2.5215592
6.7211022 11.769094 2.5169904
6.7513065 11.655317 2.5014567
6.7728992 11.5289 2.4831817
6.7921906 11.40097 2.4645412
6.8010197 11.258093 2.4426112
6.8602133 11.200221 2.4391389
6.8676114 11.059357 2.4175744
6.9091549 10.975407 2.4084368
6.919785 10.844123 2.3888824
6.9504218 10.746147 2.3766382
6.9510155 10.603803 2.3545256
6.9979963 10.533927 2.3484948
6.9960704 10.392102 2.3263819
6.9998713 10.26126 2.3066449
7.0202203 10.156649 2.2927558
7.0480084 10.064255 2.2816081
7.0749292 9.9719048 2.2704604
7.1095891 9.8915815 2.2620537
7.0978179 9.7484169 2.2392099
7.0915623 9.6152678 2.2185593
7.1174788 9.5274649 2.2083251
7.1461453 9.4444103 2.1991878
7.1603079 9.3434162 2.1858468
7.1952009 9.2705669 2.1790853
7.2203579 9.1860466 2.1695821
7.2386279 9.0938768 2.1582515
7.2652936 9.0133123 2.1496623
7.2856493 8.925909 2.1394284
7.3027024 8.8355656 2.1284633
7.3309107 8.7596769 2.1209705
7.3425746 8.6650229 2.1089091
7.3507934 8.5675726 2.0961165
7.338109 8.4473391 2.0776587
7.3527951 8.3600712 2.0672419
7.384994 8.2935038 2.0619421
7.4021716 8.2107906 2.0526218
7.4033709 8.1114769 2.0390985
7.4129715 8.0225706 2.0281334
7.4271345 7.9395967 2.0186303
7.4439402 7.8603225 2.010041
7.4627743 7.7839804 2.0021827
7.4747915 7.7013555 1.9926798
7.5033016 7.6364098 1.9877455
7.5174313 7.5574636 1.9791563
7.5336666 7.4814043 1.971298
7.5752187 7.4309068 1.9702015
0.92409372 0.89456737 0.23681463
0.97430807 0.93171179 0.24832791
0.96429068 0.91085517 0.2443074
0.96411347 0.89955246 0.2428454
0.96094376 0.8856197 0.2406524
0.94673955 0.8618266 0.23571813
0.95274049 0.85665905 0.23590089
0.95357043 0.8468774 0.23480439
0.95801008 0.84036177 0.23462163
0.96537656 0.83640033 0.23516989
0.96750385 0.82790262 0.23443888
0.96656114 0.81687021 0.23297688
0.97080064 0.81029373 0.23279414
0.96968794 0.79931557 0.23133212
0.9791469 0.79707724 0.23242863
0.99014658 0.79598576 0.23389064
0.9896242 0.78561336 0.23261139
0.99133235 0.77709842 0.23188038
0.99297333 0.76859218 0.23114938
0.99064332 0.75710797 0.22950463
0.99762356 0.75279319 0.23005287
1.0006477 0.74548209 0.22968738
0.99886966 0.73466444 0.22822538
1.0025634 0.72794354 0.22804262
1.0149988 0.72751033 0.22987013
1.0130255 0.71672237 0.22840813
0.98920304 0.69077533 0.22201186
1.0209353 0.70367861 0.22822538
1.0252337 0.69740105 0.22822538
1.0384694 0.69712996 0.23023562
1.0460047 0.6929186 0.23096663
1.0477687 0.68487221 0.23041838
1.0527773 0.67896372 0.23060113
1.0776532 0.68569738 0.23516989
1.0785105 0.67697954 0.23443888
1.0784661 0.66775894 0.23352513
1.0842206 0.66215485 0.23389064
1.0840536 0.65295106 0.23297688
1.0905747 0.64779478 0.23352513
1.1021615 0.6455673 0.23516989
1.1086553 0.64026892 0.23571813
1.12025 0.63783658 0.23736289
1.1267139 0.63239586 0.23791113
1.1408932 0.63118744 0.24010414
1.1525111 0.62841523 0.2417489
1.1589426 0.62272918 0.24229714
1.1835893 0.6266582 0.24668315
1.1542969 0.60208809 0.23973864
1.0897794 0.5599097 0.22548412
1.1712452 0.59276646 0.2417489
1.2276415 0.611911 0.25271392
1.2481378 0.61260587 0.25618619
1.1713376 0.56596869 0.2395559
1.2094053 0.57525897 0.24668315
8.5268164 3.8696299 1.7382914
8.3331499 3.7202289 1.6940658
8.5232515 3.7425618 1.7280574
8.3538055 3.6071632 1.6891315
8.4206066 3.453532 1.689497
8.6214075 3.4129167 1.7212956
8.5450573 3.3221815 1.7019241
8.5999117 3.2225912 1.7048481
8.2430038 2.9739761 1.6266309
8.2203169 2.9089077 1.6185899
8.6021032 2.9847796 1.690228
8.5941944 2.9230754 1.685111
8.5597372 2.8528748 1.6748769
8.5658665 2.7966371 1.672684
8.5360422 2.7290516 1.6635464
8.560133 2.6789739 1.6650084
8.57265 2.6252477 1.6642774
8.6083736 2.5785234 1.6681153
0.52206969 0.14527556 0.09847264
8.6470175 2.2468174 1.6584295
0.67796433 0.17105687 0.1277127
0.68091023 0.167365 0.12807819
0.70881248 0.15590759 0.13264695
0.75493616 0.16124876 0.14123622
0.78478724 0.16262367 0.14671873
0.79733521 0.16013838 0.14891173
0.80409229 0.15637408 0.15000823
0.80793488 0.15198509 0.15055649
0.81465513 0.14808477 0.15165299
0.8165167 0.14325407 0.15183574
0.81641108 0.13807654 0.15165299
0.81433219 0.13258807 0.15110473
0.80833197 0.12651886 0.14982548
0.80326027 0.12067521 0.14872898
0.80009359 0.11518047 0.14799798
0.7968899 0.10972916 0.14726698
0.79657352 0.10470849 0.14708422
0.79329926 0.099326804 0.14635323
0.79389375 0.094457343 0.14635323
0.79152781 0.08925125 0.14580497
0.78815043 0.083972737 0.14507398
0.78865081 0.07913515 0.14507398
0.78912157 0.074294597 0.14507398
0.79152113 0.069625273 0.14543948
0.79585266 0.065091304 0.14617048
0.80113864 0.060581792 0.14708422
0.80247599 0.055733938 0.14726698
0.83714283 0.053012539 0.15366323
0.90517652 0.051803596 0.16627301
0.96536958 0.0493543 0.17742078
0.98922545 0.044507295 0.18180679
1.0042158 0.0390196 0.18454805
1.0103319 0.03305411 0.18564455
1.0085502 0.026800603 0.18527904
1.0519449 0.021525718 0.19332007
1.0628707 0.015232845 0.19533031
1.0796572 0.0088589462 0.19843706
1.0011243 0.0032391129 0.16620632
1.00507 -0.0029159083 0.16686927
0.99813026 -0.0090191793 0.16570911
1.0010142 -0.01518886 0.16620632
0.99695843 -0.021245897 0.16554338
0.98005074 -0.026899552 0.16272587
0.97493929 -0.032746058 0.16189718
0.96289539 -0.038255475 0.15990835
0.96461278 -0.044253737 0.16023982
0.98303485 -0.051148821 0.1633888
0.99845439 -0.058099188 0.16604058
1.0502375 -0.067590572 0.1748246
1.0586566 -0.074659377 0.17631623
1.0670279 -0.081834011 0.17780785
1.0694541 -0.088624477 0.17830506
1.0679079 -0.095097214 0.17813933
1.0682859 -0.10174165 0.17830506
1.0666605 -0.10819492 0.17813933
1.0600936 -0.11410354 0.1771449
1.0652525 -0.12127634 0.17813933
1.0635092 -0.1276926 0.17797358
1.0685759 -0.13495818 0.178968
1.0520861 -0.13943647 0.17631623
1.0853982 -0.15064009 0.18211699
1.0932368 -0.15857266 0.18360862
1.0805427 -0.16350509 0.18161978
1.0912086 -0.1719764 0.18360862
1.1193275 -0.18345869 0.18858069
1.1152643 -0.1898264 0.18808348
1.0490131 -0.18516901 0.17697917
1.0284561 -0.1880511 0.17366445
1.027283 -0.19435805 0.17366445
1.0038115 -0.19630051 0.16985251
0.98422229 -0.19874391 0.16670354
0.96946865 -0.201961 0.16438322
0.92675263 -0.19899508 0.15725657
0.92551422 -0.20467778 0.15725657
0.93001008 -0.21166702 0.15825099
0.92773366 -0.21714453 0.15808526
0.92254871 -0.22190963 0.1574223
0.91638303 -0.2263826 0.15659362
0.91497672 -0.23200114 0.15659362
0.92117083 -0.23959844 0.15791951
0.91110796 -0.24295756 0.15642789
0.94003987 -0.25686744 0.16173145
1.0001721 -0.27991778 0.17250429
0.97852808 -0.2803421 0.16902384
0.9853062 -0.28883928 0.17051546
0.997684 -0.29913044 0.1730015
1.0128005 -0.31045175 0.17598476
1.0061713 -0.31518555 0.17515607
1.0098537 -0.32315773 0.17615049
1.014231 -0.33833596 0.17764211
9.7175608 -3.5106766 1.7344016
9.7282257 -3.582164 1.7402023
9.9208841 -4.361279 1.8192585
9.8980417 -4.496973 1.8250592
9.963376 -4.6006193 1.8422958
10.224071 -5.5865078 1.9559908
10.116289 -5.6084909 1.9419032
10.353704 -6.6010561 2.0615647
10.374297 -6.7040706 2.0738292
10.458861 -6.9421325 2.1076393
10.417705 -7.007277 2.1079707
10.439704 -7.1155014 2.1212296
10.470502 -7.2309823 2.1364775
10.470376 -7.3261881 2.1455929
10.472692 -7.423945 2.1553714
10.480611 -7.5266066 2.1664755
10.470117 -7.6168799 2.1739337
10.464465 -7.7114019 2.1825521
10.488077 -7.828557 2.1974683
10.492551 -7.9326115 2.2085726
10.568956 -8.0927725 2.2350905
10.547156 -8.1792259 2.2410569
10.617759 -8.3388109 2.2669117
10.632769 -8.4565964 2.2811651
10.645964 -8.5742579 2.2952526
10.642826 -8.6799335 2.3060255
10.680614 -8.8204288 2.3259139
10.701943 -8.9490604 2.3424873
10.698762 -9.0585289 2.3539233
10.744053 -9.2106552 2.3762975
10.767023 -9.3455763 2.3940313
10.762071 -9.4576864 2.4057987
10.781197 -9.5923738 2.4232008
10.826182 -9.7520704 2.4467354
10.924259 -9.9625168 2.4827001
10.899878 -10.063478 2.4911528
10.918613 -10.205592 2.5097151
10.959651 -10.370679 2.533747
11.053192 -10.588498 2.5703745
11.087125 -10.752239 2.5935776
11.061052 -10.859447 2.6030247
11.141796 -11.073799 2.637995
11.167486 -11.236384 2.6603694
11.137711 -11.344808 2.6698163
11.216182 -11.565852 2.7056153
11.213903 -11.706383 2.7223547
11.258445 -11.898178 2.7508612
11.343473 -12.136346 2.7898092
11.344385 -12.287599 2.8085375
11.395695 -12.496153 2.840193
11.418468 -12.676485 2.8652191
11.375213 -12.785357 2.8740032
11.433904 -13.011221 2.9089735
11.35256 -13.079644 2.9086421
11.243851 -13.116112 2.9013495
11.135759 -13.152492 2.894223
10.888475 -13.021602 2.8506343
10.866142 -13.158125 2.8658822
10.744688 -13.174873 2.8551092
10.624058 -13.191399 2.8445022
10.510998 -13.216203 2.8358839
10.402907 -13.246322 2.8285916
10.332312 -13.323932 2.8315747
10.346887 -13.513143 2.8582582
10.389261 -13.742363 2.8932285
10.421537 -13.962332 2.9260442
10.473734 -14.213376 2.965158
10.474505 -14.398593 2.99035
2.1843832 -3.0415308 0.62728423
2.1645391 -3.0532675 0.62695277
10.685423 -15.271737 3.1303971
10.737777 -15.54881 3.1736541
10.764911 -15.794497 3.2102818
10.837314 -16.112288 3.2613285
10.917667 -16.448807 3.3158557
10.955391 -16.727509 3.3584499
10.983143 -16.996517 3.3988895
11.08222 -17.382906 3.4625323
11.131808 -17.699347 3.5119216
11.223156 -18.089947 3.5757298
11.272032 -18.420074 3.6272738
11.34326 -18.794535 3.6872704
11.395179 -19.145128 3.7422948
11.506112 -19.604219 3.818202
11.572809 -19.997948 3.881016
11.666869 -20.448896 3.9546027
11.762104 -20.912912 4.030344
11.823866 -21.327963 4.0963073
11.939603 -21.851862 4.1828213
12.017088 -22.31805 4.2578998
12.099922 -22.806036 4.3367901
12.227271 -23.745396 4.4866157
12.82629 -25.288765 4.7633948
12.685863 -25.396984 4.7690301
12.676035 -25.771681 4.8247175
12.809077 -26.45075 4.9370866
12.962684 -27.192045 5.0605597
13.085044 -27.887985 5.1750836
13.221664 -28.634775 5.2985568
14.923283 -32.848202 6.0614405
13.795203 -31.38216 5.7591376
13.903691 -32.163231 5.8867545
13.998858 -32.936802 6.0125484
13.802581 -33.036636 6.0152001
13.605981 -33.136215 6.0180178
13.414211 -33.248341 6.0233212
13.224849 -33.367611 6.0301161
13.027014 -33.466511 6.0334311
12.84325 -33.602924 6.0437064
12.647219 -33.708797 6.0486789
12.455481 -33.827408 6.0561366
12.375008 -34.25565 6.1191168
12.16722 -34.338371 6.1204424
11.950469 -34.395615 6.1174593
13.549814 -39.784664 7.0613265
3.2093039 -9.6155777 1.7015858
3.1787434 -9.7222614 1.7169993
3.435359 -10.729631 1.8913537
3.3729975 -10.761802 1.8933425
10.697472 -34.880997 6.1295581
10.486362 -34.956371 6.131381
10.308036 -35.14402 6.1530924
11.918585 -41.578056 7.267005
11.685578 -41.730175 7.2809267
11.203624 -41.986679 7.3011465
10.962182 -42.117622 7.3120852
9.103056 -35.876236 6.2183924
8.8829889 -35.932373 6.2185583
8.6683455 -36.011127 6.2228675
8.4580173 -36.109726 6.2308226
8.2588501 -36.259983 6.2478933
8.0585833 -36.411079 6.265296
7.8459978 -36.510941 6.2740798
7.6560392 -36.722515 6.3022552
7.418654 -36.709835 6.2921453
2.4962008 -12.753934 2.1820548
2.4078064 -12.715718 2.1729393
2.3139403 -12.643917 2.1581888
2.2121253 -12.520947 2.13482
2.1044555 -12.353462 2.1039932
2.0094609 -12.249363 2.0841048
1.9181287 -12.159179 2.0667026
1.832705 -12.09954 2.0546038
1.7004782 -11.711399 1.9868177
1.6057892 -11.557511 1.958974
1.5124048 -11.398021 1.9303017
1.4247501 -11.267178 1.9066014
1.3341687 -11.097508 1.8764374
1.2336617 -10.821336 1.8283739
1.1579409 -10.742418 1.8137891
1.0843315 -10.673775 1.8010275
1.0132939 -10.622306 1.791249
0.94310397 -10.572334 1.7818021
0.87527871 -10.542542 1.7758356
0.80883694 -10.525099 1.7720237
0.73826295 -10.445265 1.7577704
0.66666824 -10.33347 1.7382135
0.60250413 -10.324569 1.736059
0.5386799 -10.319206 1.7345673
0.46986514 -10.203117 1.7145132
0.40347809 -10.111212 1.6986026
0.33880207 -10.035634 1.6855094
0.27599385 -9.9931622 1.6780512
0.21433325 -9.9788933 1.6753995
0.15246533 -9.9386063 1.6684386
0.09168864 -9.9620361 1.6722505
0.030473819 -9.9338121 1.6674442
-0.030473389 -9.9318399 1.6671127
-0.091322482 -9.9216042 1.6654553
-0.15151702 -9.8764849 1.6579973
-0.20849064 -9.7067728 1.6296563
-0.26131681 -9.4618196 1.5887195
-0.31763726 -9.4087868 1.5801013
-0.36422923 -9.1277971 1.5331979
-0.41777861 -9.0721931 1.5242481
-0.47086522 -9.0202179 1.5159613
-0.52223784 -8.9492292 1.5045255
-0.57631379 -8.9330616 1.502371
-0.63160199 -8.936244 1.5035311
-0.68581724 -8.9243336 1.5022053
-0.74219531 -8.9396133 1.50552
-0.79782259 -8.9437323 1.5070117
-0.85287261 -8.9406309 1.5073431
-0.90781492 -8.9362116 1.5075088
-0.95702678 -8.8785067 1.4987248
-1.0103691 -8.8626699 1.4970675
-1.0622579 -8.835742 1.493587
-1.1159581 -8.8251438 1.492924
-1.170606 -8.8220406 1.493587
-1.2266154 -8.8283672 1.4959073
-1.2833133 -8.8382406 1.4988905
-1.338258 -8.8350754 1.4997193
-1.3909068 -8.8169565 1.4980619
-1.4462578 -8.8160419 1.4993877
-1.5019813 -8.8167229 1.5010451
-1.5575957 -8.816081 1.5025368
-1.6113058 -8.8044176 1.5022053
-1.6577747 -8.7546387 1.4954101
-1.6904329 -8.6368761 1.4770133
-1.7082281 -8.4523487 1.4471809
-1.7481817 -8.3847494 1.4374024
-1.7921364 -8.3391552 1.4314359
-1.8447627 -8.3347425 1.4325961
-1.885136 -8.2761507 1.424475
-1.9277843 -8.2298613 1.4185085
-1.9717826 -8.1910324 1.413868
-2.0205843 -8.1730356 1.4128735
-2.0721505 -8.1662188 1.413868
-2.1229639 -8.1562138 1.4143651
-2.1752579 -8.1516085 1.4158567
-2.2228932 -8.1295471 1.4143651
-2.2660844 -8.0920143 1.4102217
-2.3173242 -8.0836449 1.4112161
-2.3671584 -8.07022 1.4113818
-2.4055796 -8.0187054 1.4049182
-2.44982 -7.9877663 1.4021007
-2.4931817 -7.9547048 1.3989516
-2.5482593 -7.9589801 1.4024321
-2.6016438 -7.9572544 1.4049182
-2.6497953 -7.9392705 1.4045867
-2.6803358 -7.8696527 1.3951397
-2.7153013 -7.8148651 1.3883445
-2.7602367 -7.7896914 1.3868529
-2.7982635 -7.7457113 1.3820466
-2.8375592 -7.7061853 1.3780689
-2.8799396 -7.675703 1.3757486
-2.9125462 -7.6201196 1.3689533
-2.9599628 -7.6039429 1.3692849
-2.8979108 -7.311522 1.3197298
-2.9360769 -7.2771411 1.3167465
-2.861547 -6.968894 1.2640424
-2.8841028 -6.9029779 1.2552584
-2.9044149 -6.8334193 1.2458115
-2.9247658 -6.7656837 1.236696
-2.945586 -6.7006655 1.2280777
-2.9520371 -6.6050377 1.2138244
-2.9753759 -6.5490904 1.2068635
-3.008476 -6.5154901 1.204046
-3.0467219 -6.4933367 1.203383
-3.0741997 -6.4487047 1.1985767
-3.1072626 -6.4164071 1.1960906
-3.1513624 -6.4069543 1.1979138
-3.1707838 -6.3477974 1.1904556
-3.1989667 -6.3071146 1.1864779
-3.2430243 -6.2978883 1.1884668
-3.2843478 -6.2831144 1.1894612
-3.3186781 -6.2550035 1.1879696
-3.3420339 -6.206738 1.1826659
-3.3786361 -6.1835184 1.1821688
-3.4346848 -6.1954455 1.1884668
-3.4760189 -6.1802707 1.1896269
-3.5182731 -6.1665349 1.1911185
-3.5787671 -6.1840935 1.1987424
-3.6291249 -6.1832805 1.2028857
-3.6745622 -6.1736073 1.2053719
-3.7337773 -6.1864047 1.2123327
-3.7835054 -6.182725 1.2161447
-3.8406081 -6.1903987 1.2222769
-3.9121227 -6.2201419 1.232884
-3.9708917 -6.2284508 1.2393477
-4.0234861 -6.2263317 1.2438226
-4.0799861 -6.2295761 1.2494576
-4.1486745 -6.2504358 1.2587389
-4.2161202 -6.2682314 1.2675229
-4.3000474 -6.3090639 1.2811133
-4.2534947 -6.1592188 1.2559214
-4.1792612 -5.9730186 1.2231057
-4.1964407 -5.919909 1.2174705
-4.2200298 -5.8764262 1.2138244
-4.1829076 -5.7499423 1.1929417
-4.2046533 -5.7059083 1.1891297
-4.2566924 -5.70292 1.1939361
-4.3112311 -5.7026539 1.1994053
-4.3641276 -5.6995826 1.2043774
-4.412313 -5.6898422 1.2080237
-4.4660249 -5.6867042 1.2131615
-4.5290718 -5.6946969 1.2207853
-4.5824862 -5.6898413 1.2257574
-4.6285315 -5.6753726 1.2287407
-4.6594996 -5.6423035 1.2277462
-4.6908693 -5.6098242 1.2269175
-4.7334871 -5.5907202 1.2290721
-4.8145576 -5.6162257 1.2411709
-4.9116325 -5.6588187 1.2572472
-4.9547248 -5.6382051 1.2594018
-5.1386881 -5.7756772 1.2971897
-5.283597 -5.8656697 1.3247019
-5.2895846 -5.8003507 1.3172437
-16.523842 -17.896999 4.0916667
-16.661627 -17.825533 4.0986276
-16.793058 -17.746601 4.1040969
-14.852285 -15.503994 3.6062255
-14.732929 -15.191696 3.5545158
-15.152658 -15.433862 3.6329088
-15.260283 -15.353887 3.6360579
-15.076513 -14.983978 3.5702608
-15.408845 -15.127465 3.6269424
-15.441906 -14.974964 3.6130207
-16.905109 -16.193808 3.9322283
-24.946068 -23.604504 5.7697449
-16.884977 -15.781775 3.8821762
-16.880053 -15.58422 3.858973
-16.378567 -14.936131 3.7232351
-16.365124 -14.740971 3.6995349
-16.937855 -15.069633 3.8080921
-16.376625 -14.391264 3.6619127
-16.386419 -14.222634 3.6445105
-15.988957 -13.706557 3.5372791
-16.766697 -14.195714 3.6900878
-18.101778 -15.136351 3.9635525
-17.558611 -14.500037 3.8249972
-17.27124 -14.085381 3.7434549
-17.84045 -14.368216 3.847703
-17.969183 -14.291012 3.856487
-19.15089 -15.039914 4.0903406
-16.215183 -12.574339 3.4464557
-16.272457 -12.45962 3.4423125
-16.581455 -12.535574 3.4913702
-16.488935 -12.307363 3.4559028
-18.891088 -13.92063 3.9416754
-16.451315 -11.967761 3.4169548
-17.282211 -12.410756 3.5737412
-16.398216 -11.624112 3.3760178
-18.195179 -12.73087 3.7300303
-17.901293 -12.362331 3.6541231
-17.262955 -11.765732 3.5089383
-17.610588 -11.845067 3.5647914
-17.32305 -11.497923 3.4921989
-17.934467 -11.745852 3.6009219
-17.217669 -11.126049 3.443141
-17.372927 -11.075858 3.4605434
-18.222763 -11.460999 3.6158381
-17.441334 -10.82076 3.4474502
-18.332594 -11.218499 3.6100373
-18.271904 -11.027837 3.5846796
-17.491796 -10.411135 3.4189436
-17.856428 -10.480318 3.4776142
-17.806875 -10.304861 3.4555712
-18.035944 -10.290214 3.4877241
-19.190687 -10.639018 3.6856129
-18.219702 -9.9550686 3.487227
-18.275232 -9.8402824 3.4862325
-18.347464 -9.7344322 3.4885528
-18.268759 -9.5494919 3.4623663
-18.224428 -9.3843956 3.4429753
-18.338835 -9.3013906 3.4537482
-67.376404 -33.65435 12.655252
-19.280771 -9.4834738 3.6090429
-19.888895 -9.6314745 3.7117994
-20.091829 -9.5780029 3.7386487
-20.147543 -9.4532852 3.7381513
-68.576706 -31.663944 12.692211
-19.853506 -9.0197372 3.6627414
-69.144669 -30.902508 12.726188
-69.250832 -30.441549 12.711105
-69.59201 -30.083364 12.739612
-69.811592 -29.671219 12.746242
-69.956848 -29.227478 12.739778
-70.216972 -28.831394 12.754694
-70.452003 -28.42399 12.765467
-70.674591 -28.010792 12.774417
-70.803772 -27.560516 12.766958
-71.118019 -27.181532 12.79331
-71.363792 -26.774788 12.80773
-71.617424 -26.369799 12.823972
-71.853004 -25.957005 12.837397
-72.062981 -25.534077 12.846678
-72.369209 -25.143858 12.873527
-72.595871 -24.724453 12.88662
-72.786438 -24.291973 12.893746
-73.071907 -23.889956 12.91811
-73.172035 -23.42671 12.910154
-73.393456 -23.002068 12.924076
-74.015915 -22.203392 12.984735
-74.204697 -21.764643 12.994183
-74.500847 -21.355934 13.022855
-57.643288 -15.760827 10.041097
-57.90107 -15.070153 10.053029
-75.641838 -19.192766 13.113181
-75.801254 -18.738926 13.120639
-50.102139 -11.088648 8.6218977
-47.356544 -9.873004 8.1278381
-47.404633 -9.5798988 8.1258497
-77.940804 -15.253606 13.345212
-78.390831 -14.345177 13.391121
-78.670631 -13.898049 13.424102
-78.827339 -13.427493 13.436532
-79.004593 -12.959369 13.45294
-36.387024 -5.2829461 6.17729
-36.217422 -4.805284 6.1380105
-35.792255 -4.5255699 6.0611091
-81.044983 -9.7422333 13.71646
-81.248245 -9.2612963 13.74099
-81.439827 -8.7772808 13.764027
-35.962196 -3.6528966 6.072876
-35.989582 -3.209996 6.0703902
-32.680191 -2.5110257 5.5063901
-32.63596 -2.3062859 5.4964461
-35.971901 -2.3202782 6.0559711
-32.663776 -1.9057337 5.4967775
-32.782001 -1.3077148 5.5116935
-32.915874 -0.70655936 5.531085
-26.146383 -0.40079954 4.3926435
-25.798258 -0.078842632 4.3336411
-27.615429 0.59349328 4.6400871
-26.506828 1.384048 4.4587722
-26.565767 1.5506303 4.4702077
-23.227446 1.4988112 3.9096882
-23.225683 1.6418604 3.9110141
-26.291565 2.3456938 4.4340773
-25.614019 2.4437451 4.3222055
-25.597565 2.6007643 4.3220396
-25.29286 2.7267005 4.2733135
-27.182419 3.4376659 4.6026311
-27.668188 3.6717243 4.6886482
-25.692604 3.7309279 4.3611536
-26.289356 3.9824491 4.4665618
-26.111488 4.1195531 4.4405413
-24.439348 4.1637244 4.1644249
-24.401688 4.3115439 4.162436
-24.444616 4.4739723 4.1743689
-24.215164 4.5857091 4.1398959
-27.041468 5.4655266 4.6344523
-26.986185 5.6269188 4.630806
-27.019606 5.8071098 4.6425734
-16.045277 5.4650879 2.8466568
-17.374964 6.3980308 3.1096799
-17.571747 6.5932126 3.1521084
-17.179995 6.5667524 3.088963
-16.803028 6.5411043 3.0283036
-18.109324 7.1779003 3.27177
-16.991282 6.8556681 3.0771956
-16.829391 6.9107213 3.0554843
-15.000472 6.2675185 2.7301443
-16.10438 6.8451362 2.9388061
-17.644363 7.6278834 3.2285128
-17.294796 7.6030459 3.1729913
-17.613354 7.8724041 3.2402799
-17.784687 8.0802736 3.2808855
-16.512659 7.6249056 3.0546556
-16.225407 7.6133914 3.0100725
-16.167704 7.7077127 3.0080838
-15.319528 7.4190493 2.8585896
-14.937452 7.3475008 2.79561
-14.992661 7.4892573 2.8145039
-14.821536 7.5177622 2.7909694
-13.958004 7.187767 2.6365032
-15.863437 8.2925529 3.0062606
-15.30264 8.1193323 2.9093051
-15.330679 8.2551546 2.9242213
-14.22568 7.7731004 2.7223547
-13.668853 7.5781145 2.6245704
-15.520802 8.7298126 2.9906814
-13.584251 7.7506576 2.6263933
-14.292669 8.2715244 2.7732356
-13.524686 7.9382401 2.6335201
-13.71554 8.1638241 2.6804235
-13.888927 8.3828726 2.7243435
-13.885176 8.4972773 2.7337904
-14.995054 9.3034496 2.9636664
-13.800725 8.6801558 2.7379339
-14.475631 9.2291002 2.8831186
-13.695652 8.8504648 2.738431
-13.673264 8.9554062 2.7448947
-13.682965 9.0822201 2.757988
-13.626163 9.1654558 2.7578223
-14.086303 9.6010323 2.8628988
-13.765838 9.5068293 2.8095319
-13.531908 9.4684286 2.7735672
-40.614151 33.124222 8.8058653
-40.708038 34.467751 8.9623194
-45.224129 39.254494 10.062145
-44.798683 39.859604 10.075569
-43.152145 45.048019 10.481789
-43.045052 45.491749 10.523389
-42.842976 46.980995 10.683656
-38.113514 49.149727 10.45063
-37.256809 51.215221 10.641724
-33.352581 55.26226 10.845745
-29.971991 55.66436 10.62283
-29.526485 56.486809 10.709842
-22.792963 52.726974 9.651782
-10.02555 66.194374 11.249478
-9.5465136 65.75399 11.164455
-9.0060911 64.826721 10.997394
-8.7221603 65.740074 11.143076
-8.4069452 66.490913 11.261412
-8.0219927 66.734138 11.294062
-7.6399546 67.024124 11.334998
-6.8199797 67.143242 11.340137
-5.9821119 67.071587 11.314778
-3.8784795 54.885681 9.2450657
-3.4272552 53.135048 8.9464092
-2.9324198 50.26263 8.4594765
-2.4055946 46.095127 7.7552638
-2.0278919 44.049126 7.4087095
-1.6716183 41.905697 7.0462446
-1.3675345 40.524471 6.8123908
-0.79002875 36.80542 6.1849136
-0.54337603 35.451778 5.9566951
-0.32018581 34.8391 5.8532758
-0.099570833 32.596886 5.4762263
0.099896811 32.420357 5.4465594
0.29132795 31.606564 5.3099928
0.45264763 29.481207 4.9531631
0.63276935 29.442381 4.9471965
0.79107141 28.629591 4.8112926
0.90060389 26.666782 4.482141
1.0589002 26.527727 4.4597664
1.2175666 26.43207 4.44485
1.2744516 24.408159 4.1055884
1.3912047 23.83478 4.0104556
1.4984937 23.222525 3.9088595
1.5953325 22.567579 3.8001366
1.6947738 22.049997 3.7146168
1.7887411 21.541893 3.6307542
1.8509465 20.746662 3.498497
1.9573226 20.515991 3.4615378
2.0334239 20.014019 3.3788354
2.1146457 19.615833 3.3137012
2.1861434 19.174309 3.2412744
2.2507737 18.719931 3.1666932
2.3233995 18.372141 3.1101773
2.3884709 17.99876 3.0493519
2.4495924 17.629194 2.9891899
2.5157659 17.324955 2.9401319
2.5667782 16.944525 2.8781466
2.6185977 16.598228 2.8219621
2.6807961 16.340506 2.7808595
2.7205527 15.96891 2.7203658
2.776444 15.713991 2.6797605
2.8271801 15.447355 2.6371663
2.8767688 15.191357 2.5963953
2.9077899 14.855979 2.5420337
2.9732955 14.71123 2.5203223
3.0079458 14.426257 2.4745791
3.044601 14.166492 2.433145
3.0709367 13.874091 2.386076
3.1187718 13.691525 2.3579009
3.1588602 13.484897 2.3255823
3.2034566 13.307062 2.2982359
3.249305 13.142597 2.2732098
3.3245487 13.101384 2.2695634
3.3979187 13.054015 2.2649229
