# .PCD v0.7 - Point Cloud Data file format
VERSION 0.7
FIELDS x y z
SIZE 4 4 4
TYPE F F F
COUNT 1 1 1
WIDTH 1537
HEIGHT 1
VIEWPOINT 0 0 0 1 0 0 0
POINTS 1537
DATA ascii
3.6587744 -20.034988 3.7834504
3.5246763 -19.994127 3.7715714
3.3963261 -19.982424 3.765358
3.2603111 -19.921387 3.7500069
3.122422 -19.841953 3.7313664
2.9890096 -19.783939 3.7169292
2.8626285 -19.767853 3.7105329
2.7312937 -19.71298 3.6970093
2.6035786 -19.678686 3.6875064
2.4761412 -19.641617 3.6776378
2.3475018 -19.589087 3.6650281
2.2212658 -19.550371 3.6551595
2.0895019 -19.454149 3.6346915
1.9696981 -19.462688 3.6339605
1.8479146 -19.449942 3.6293917
1.7200093 -19.364941 3.6114821
1.5956475 -19.308502 3.5990553
1.4751928 -19.292444 3.5943036
1.3530641 -19.248171 3.5844352
1.2287641 -19.15996 3.5665257
1.1091279 -19.131805 3.5599465
0.99136007 -19.131376 3.5586674
0.87121534 -19.07719 3.5475197
0.75212264 -19.031092 3.5380166
0.6338585 -18.991131 3.5297928
0.51624703 -18.955351 3.5224829
0.39868316 -18.899183 3.5115178
0.15454453 -10.353665 1.9225037
0.091648422 -10.426187 1.9358444
0.027616631 -10.405906 1.9320067
-0.036179624 -10.390149 1.9290826
-0.099715747 -10.36712 1.9248794
-0.16320194 -10.35845 1.9234174
-0.22634953 -10.338577 1.9199451
-0.28887463 -10.304562 1.9139144
-0.35229787 -10.308492 1.9150109
-0.41494983 -10.291399 1.9122697
-0.47599271 -10.243483 1.9038632
-0.53630847 -10.192262 1.8949084
-0.59854883 -10.183872 1.8939946
-0.65981549 -10.161366 1.8905224
-0.72124648 -10.144377 1.8881466
-0.78287226 -10.131919 1.8866847
-0.84069645 -10.074997 1.8769989
-0.90179807 -10.061816 1.8755368
-0.96173888 -10.037498 1.8720646
-1.0206176 -10.004999 1.8671303
-1.0813537 -9.9926844 1.8660338
-1.1417537 -9.9780464 1.8645718
-1.2062517 -9.9981833 1.8696889
-1.2646084 -9.967185 1.8653028
-1.3256124 -9.9582634 1.8651201
-1.3800439 -9.9022284 1.8561653
-1.4502648 -9.9587593 1.8684096
-1.5141474 -9.9681406 1.8718818
-1.5722114 -9.9392405 1.8682269
-1.6309348 -9.9158249 1.8656683
-1.6910847 -9.9017544 1.8649373
-1.7752892 -10.023822 1.8899741
-1.8381795 -10.020476 1.8914361
-1.9010955 -10.016737 1.8928981
-1.9630886 -10.007778 1.8934463
-2.0223124 -9.9849443 1.8914361
-2.0807266 -9.9588737 1.8888776
-2.1386902 -9.9315023 1.8861364
-2.1993759 -9.9172335 1.8859537
-2.2608414 -9.9064264 1.8865019
-2.317317 -9.8741817 1.8830296
-2.3783209 -9.8616886 1.8833951
-2.438314 -9.8450012 1.8830296
-2.4989178 -9.8308077 1.8832123
-2.5586956 -9.8133869 1.8828468
-2.618861 -9.7975016 1.8828468
-2.6786687 -9.7803001 1.8826641
-2.7365053 -9.7561073 1.8812021
-2.7849233 -9.6994419 1.8735266
-2.8438315 -9.6802855 1.8731611
-2.9045889 -9.6673613 1.8740748
-2.9655838 -9.6549969 1.8751713
-3.0224152 -9.6291142 1.8737093
-3.0808411 -9.6085148 1.8733438
-3.1464686 -9.6099863 1.8773644
-3.2075562 -9.5970268 1.8786436
-3.2647958 -9.5725117 1.8777299
-3.3199172 -9.5420847 1.8757195
-3.3770888 -9.517828 1.8749886
-3.4394381 -9.5080223 1.8771816
-3.5017941 -9.4978094 1.8793746
-3.5579312 -9.4706211 1.8782781
-3.613867 -9.4431028 1.8771816
-3.6703131 -9.4170866 1.8764505
-3.7247629 -9.3861637 1.8748058
-3.7811806 -9.3603983 1.8742576
-3.843029 -9.3479328 1.8764505
-3.9048665 -9.3350611 1.8786436
-3.9639964 -9.3154488 1.8795574
-4.0249848 -9.2999735 1.8813848
-4.0859318 -9.2841005 1.8832123
-4.1404123 -9.2534704 1.8821158
-4.1954846 -9.2243118 1.8813848
-4.2553048 -9.205534 1.8828468
-4.3183956 -9.19349 1.8857709
-4.3755713 -9.1685934 1.8861364
-4.433033 -9.144227 1.8866847
-4.4899259 -9.118619 1.8870502
-4.5444732 -9.0882597 1.8865019
-4.6068277 -9.0733538 1.8892431
-4.6781783 -9.0755033 1.8956394
-4.7442589 -9.0666637 1.8998426
-4.8039513 -9.0451975 1.9014874
-4.8593612 -9.0155506 1.9014874
-4.9117579 -8.9803896 1.9003909
-4.9681993 -8.9526606 1.9009391
-5.0273786 -8.929719 1.9025838
-5.085001 -8.9038258 1.9036804
-5.1420016 -8.8767118 1.9045942
-5.2003551 -8.8517752 1.9060562
-5.2626209 -8.8332148 1.9089801
-5.3223133 -8.8100147 1.9109904
-5.3937278 -8.8056984 1.9172039
-5.4569921 -8.7874718 1.9204934
-5.5123792 -8.7563181 1.9210417
-5.5649462 -8.7206736 1.9206762
-5.6210194 -8.6904907 1.92159
-5.5718369 -8.4996052 1.8868674
-5.6597877 -8.5193081 1.8989289
-5.7125039 -8.4852352 1.8991116
-5.7666764 -8.4532728 1.8998426
-5.8380003 -8.4460382 1.9062389
-5.8998647 -8.4245548 1.9095284
-5.9650979 -8.4074392 1.9139144
-6.0349331 -8.3962288 1.9197624
-6.094439 -8.3701687 1.922321
-6.1509347 -8.3397379 1.9239657
-6.2066975 -8.3081408 1.9254277
-6.2795062 -8.2989111 1.9321895
-6.341671 -8.2750521 1.9356617
-6.4037786 -8.250742 1.939134
-6.4664335 -8.2267532 1.942789
-6.5247498 -8.1969213 1.9451647
-6.5915799 -8.1773996 1.950099
-6.6820378 -8.1863108 1.9619777
-6.7427893 -8.15804 1.9650846
-6.7763152 -8.0969095 1.960333
-12.153082 -14.342649 3.4921463
-22.366661 -26.071232 6.3828912
-22.564894 -25.978037 6.393856
-22.787495 -25.911444 6.4117656
-22.98332 -25.81299 6.4221821
-23.224215 -25.763494 6.445209
-23.449459 -25.694582 6.4638495
-23.680065 -25.62965 6.483952
-23.878519 -25.528387 6.4952826
-24.085407 -25.434935 6.5089889
-24.272316 -25.319317 6.517395
-24.571003 -25.318071 6.5557728
-21.44136 -21.823595 5.6846018
-25.023357 -25.158939 6.5936022
-25.228182 -25.055502 6.6069427
-25.425659 -24.943611 6.6184564
-25.691193 -24.896605 6.647696
-25.862648 -24.756855 6.6526303
-26.120506 -24.698347 6.6798601
-26.315388 -24.578547 6.6910081
-26.594328 -24.535284 6.7235374
-26.818493 -24.43919 6.742178
-27.070976 -24.366917 6.7679458
-27.283165 -24.256535 6.7836623
-27.583668 -24.222313 6.8213091
-27.768909 -24.084818 6.8304467
-27.998301 -23.984335 6.8505492
-24.783199 -20.967772 6.0320106
-28.533445 -23.84194 6.9093947
-28.830099 -23.790943 6.9457622
-29.034218 -23.661423 6.9598336
-29.304466 -23.583921 6.9898047
-29.496344 -23.441595 7.0011353
-29.823696 -23.404627 7.0446301
-30.056112 -23.290447 7.0656462
-30.319479 -23.198191 7.0939727
-30.553818 -23.08165 7.1155372
-30.760281 -22.942528 7.1307054
-31.080976 -22.886272 7.1723723
-31.173103 -22.660446 7.1614075
-28.265419 -20.021196 6.436254
-31.920172 -21.738935 7.176393
-31.658436 -20.718077 7.0305581
-32.135979 -20.195663 7.0528536
-31.763077 -19.15493 6.8923988
-32.527321 -18.808187 6.9819465
-32.822525 -18.445181 6.996201
-33.00819 -18.283932 7.011735
-33.172394 -18.109793 7.0228825
-33.682026 -18.120649 7.1071305
-34.085312 -18.068827 7.1687174
-34.327999 -17.928528 7.1964955
-34.583359 -17.792673 7.2270145
-61.310608 -30.129986 12.696001
-59.431374 -28.755064 12.27001
-59.39455 -28.288816 12.226333
-59.218056 -27.760258 12.154695
-58.406548 -26.510515 11.920408
-58.498989 -26.120773 11.906337
-58.857998 -25.849104 11.946907
-58.927944 -25.449659 11.929181
-58.94363 -25.028429 11.901037
-58.938225 -24.600391 11.869239
-58.977089 -24.192766 11.846943
-58.90831 -23.743326 11.803631
-58.838985 -23.29673 11.760868
-58.877281 -22.894997 11.740217
-58.931236 -22.500687 11.723221
-58.91444 -22.081041 11.692701
-58.929787 -21.675352 11.669127
-58.824936 -21.227921 11.622343
-58.82618 -20.821308 11.597123
-58.886879 -20.437078 11.584148
-58.967426 -20.060486 11.575559
-59.294598 -19.766697 11.615764
-60.146549 -19.641481 11.758858
-60.232224 -19.261278 11.752278
-60.267643 -18.865784 11.736379
-60.202721 -18.440634 11.701474
-60.249752 -18.051418 11.688864
-60.273521 -17.65624 11.672234
-60.135918 -17.21599 11.624902
-60.171303 -16.827349 11.611561
-60.206081 -16.439442 11.598585
-60.212719 -16.044905 11.580676
-60.256748 -15.661293 11.570442
-60.257359 -15.267364 11.552349
-60.225822 -14.866712 11.528592
-60.13715 -14.453926 11.494418
-60.145245 -14.066075 11.479249
-60.032932 -13.651855 11.441603
-60.086765 -13.276878 11.43612
-60.084435 -12.890206 11.420403
-60.129665 -12.514481 11.41419
-60.162918 -12.136742 11.406149
-60.050991 -11.731166 11.371061
-60.106384 -11.359558 11.368137
-60.20977 -10.996899 11.374716
-60.153149 -10.605569 11.351507
-60.034874 -10.205299 11.31715
-60.031357 -9.8260994 11.304906
-60.059437 -9.4526777 11.299058
-60.020065 -9.069438 11.280965
-60.043449 -8.6964808 11.275117
-60.050884 -8.3216887 11.266711
-60.006481 -6.8192582 11.223581
-59.873196 -6.4322419 11.191052
-59.869469 -6.0604877 11.183194
-59.871277 -5.6897655 11.176798
-59.900162 -5.3218598 11.175884
-59.900333 -4.9516273 11.170035
-60.006054 -4.5898418 11.18429
-60.139008 -4.2290149 11.204027
-60.024326 -2.7426987 11.166746
-59.785583 -2.3642797 11.119414
-59.784225 -1.9969053 11.116673
-59.807148 -1.6303602 11.118866
-59.788498 -1.2627782 11.113749
-59.804951 -0.89604646 11.115576
-59.78278 -0.52883816 11.110642
-59.798664 -0.16204543 11.1132
-62.184647 0.21302229 11.556736
-59.836731 1.3066732 11.122887
-59.71751 1.6707217 11.102418
-59.756252 2.0388193 11.111738
-59.711178 2.4041729 11.10589
-59.714943 2.77142 11.109546
-59.684055 3.1371009 11.10717
-59.670551 3.5036597 11.108449
-59.604759 3.8669252 11.100408
-59.608349 4.2346001 11.105708
-59.599869 4.6017084 11.10918
-59.639095 4.9730382 11.121972
-59.604527 5.3386197 11.121425
-59.593151 5.7064009 11.125628
-59.606899 6.0770354 11.134948
-59.613457 6.4475245 11.143354
-59.822826 6.8417797 11.190139
-59.896271 7.5959134 11.220475
-59.783241 7.9546003 11.208231
-59.786865 8.3287334 11.218282
-59.530327 8.6656837 11.179904
-59.553791 9.0425978 11.194525
-59.553513 9.416748 11.205124
-59.536327 9.7888422 11.212982
-59.562366 10.168857 11.229429
-59.599529 10.551957 11.248436
-59.621662 10.933592 11.265066
-59.634594 11.314611 11.280417
-59.590096 11.685416 11.285352
-59.550999 12.057663 11.291747
-59.512463 12.430472 11.298692
-59.457176 12.800159 11.302896
-59.409195 13.171762 11.308926
-59.400101 13.552663 11.322815
-59.424946 13.94248 11.343649
-59.434807 14.330115 11.362106
-59.424019 14.713907 11.377092
-59.463161 15.111423 11.402129
-59.462555 15.500299 11.420038
-59.432812 15.882629 11.432831
-59.39967 16.264921 11.44544
-59.374485 16.65032 11.460061
-59.361923 17.040361 11.477605
-59.335484 17.427551 11.492955
-59.280167 17.807137 11.50319
-59.227116 18.188143 11.514338
-59.230721 18.587715 11.536999
-59.220413 18.984409 11.557467
-59.285015 19.407063 11.593102
-59.323341 19.823435 11.62417
-59.335518 20.23307 11.650669
-59.320755 20.635204 11.672417
-59.235645 21.01392 11.680823
-59.161064 21.397049 11.691788
-59.230686 21.834122 11.731811
-59.260345 22.259022 11.764523
-59.229172 22.662973 11.785722
-59.147625 23.048817 11.797418
-59.24543 23.506664 11.845481
-59.218594 23.917606 11.869239
-59.12801 24.304064 11.880752
-59.091152 24.713825 11.903596
-59.122047 25.15407 11.940694
-58.962078 25.514412 11.93978
-58.987995 25.956491 11.977061
-58.925442 26.361708 11.996981
-58.834175 26.755331 12.011601
-58.329769 26.959089 11.942156
-58.40086 27.428076 11.990951
-58.299786 27.818501 12.005022
-58.204967 28.213007 12.020922
-58.062515 28.585247 12.0275
-57.864044 28.929983 12.022932
-58.614708 29.756222 12.216647
-58.457241 30.128828 12.22213
-58.583267 31.10951 12.327394
-40.321163 24.019474 8.7217293
-40.183964 24.273037 8.7241058
-40.365444 24.721964 8.7962914
-39.834621 24.734247 8.7135057
-39.583092 24.915878 8.6917582
-39.646622 25.296839 8.7396393
-39.624397 25.62612 8.7692451
-39.632511 25.977638 8.80616
-39.33276 26.476856 8.8110943
-33.915874 26.65593 8.0161304
-33.753853 27.205235 8.0561533
-33.452232 27.302423 8.0239887
-33.408371 27.609882 8.0539598
-33.060387 27.665453 8.0108309
-33.253067 28.175394 8.0992823
-33.017624 28.325766 8.0841141
-48.736458 45.5858 12.402139
-48.529366 45.953613 12.420961
-48.503643 47.071529 12.561314
-48.295959 47.448872 12.582696
-13.318828 13.9142 3.5780389
-13.150791 13.908508 3.5557435
-13.004132 13.923555 3.539113
-12.816453 13.892529 3.5111523
-12.638257 13.869173 3.4855673
-12.47333 13.858041 3.4634545
-12.503037 14.06363 3.4956186
-12.301682 14.009325 3.4632716
-12.221933 14.09197 3.4650991
-11.97533 13.980037 3.4194117
-11.913455 14.081774 3.4263561
-11.83187 14.160644 3.4278181
-11.677802 14.151838 3.4082639
-11.564661 14.191216 3.4005883
-11.384905 14.147022 3.3731759
-11.180437 14.068833 3.3380878
-11.021671 14.045134 3.3163404
-10.900957 14.068199 3.3059237
-10.755882 14.058302 3.2880142
-10.575783 14.00009 3.2591395
-10.415616 13.96542 3.2361131
-10.262106 13.937231 3.2149141
-10.091993 13.883831 3.1882324
-9.9447069 13.859226 3.1684954
-9.802084 13.838955 3.1500375
-9.6459999 13.797315 3.1270111
-9.5164881 13.791508 3.112391
-9.3708076 13.760254 3.0922885
-9.231905 13.736712 3.0741963
-9.1007099 13.722637 3.0584798
-8.9721909 13.710762 3.0434942
-8.8206949 13.661489 3.0204678
-8.7060661 13.667261 3.0098681
-8.5859442 13.662986 2.9972584
-8.4330492 13.604276 2.9729526
-8.3001785 13.575242 2.9554086
-8.1893082 13.580451 2.94554
-8.0691385 13.56876 2.9321992
-7.9573808 13.569674 2.9217825
-7.783905 13.462493 2.8883393
-7.6792421 13.471565 2.8801155
-7.5737991 13.478148 2.8715262
-7.4395041 13.431483 2.851789
-7.3300962 13.427691 2.8413723
-7.2014518 13.386701 2.8232801
-7.0800347 13.356801 2.8077462
-6.9674506 13.341604 2.7955019
-6.8490229 13.313292 2.7806993
-6.7440948 13.309464 2.7711961
-6.6267405 13.27934 2.7563934
-6.511312 13.250926 2.7421389
-6.4007645 13.230448 2.7297118
-6.2919836 13.211779 2.717833
-6.1982799 13.223431 2.7123506
-6.1017871 13.228182 2.7055888
-5.9831204 13.18301 2.6887758
-5.8700495 13.147656 2.6741557
-5.7691035 13.137518 2.6648355
-5.6747413 13.141078 2.6584392
-5.5767102 13.134928 2.6502154
-5.4789691 13.128071 2.6419916
-5.3680892 13.087765 2.6271889
-5.2615871 13.055713 2.6142137
-5.1593013 13.031991 2.603066
-5.0617814 13.018503 2.5941112
-4.9618163 12.996964 2.5836945
-4.866447 12.985735 2.5754707
-4.7700462 12.970138 2.5665159
-4.6750212 12.956622 2.5581093
-4.5846071 12.954479 2.5520785
-4.4844027 12.922921 2.5403826
-4.3879251 12.899933 2.530514
-4.2903442 12.871585 2.5197318
-4.1899204 12.832247 2.5069392
-4.1030188 12.83243 2.5020049
-4.0609179 12.974647 2.5248487
-4.0336385 13.170408 2.5581093
-3.9716568 13.25801 2.5703535
-3.9620957 13.527442 2.6178687
-3.9220443 13.701782 2.6469259
-3.8789418 13.872349 2.6752522
-3.8460648 14.087472 2.7121677
-3.8061345 14.285607 2.7457938
-3.776777 14.533256 2.788923
-3.7220635 14.692441 2.8150563
-3.7008822 14.994674 2.868602
-3.6469486 15.175784 2.8989387
-3.6043644 15.41423 2.9402401
-3.5467803 15.599032 2.9713078
-3.5237622 15.949781 3.0339911
-3.4617155 16.138367 3.0657897
-3.4107082 16.39031 3.1096499
-3.3752086 16.733784 3.1708713
-3.2794435 16.789881 3.177633
-3.1734395 16.79423 3.1747088
-3.0385344 16.639296 3.1418138
-2.9136746 16.528854 3.1175082
-2.8482862 16.758688 3.1575303
-12.367779 85.389259 16.03558
0.051447123 0.42079332 0.076542601
78.907906 46.929298 17.063187
77.964592 45.082397 16.738256
77.761436 44.330486 16.635916
78.711647 44.234486 16.780836
80.55761 43.979931 17.058069
80.509254 42.67952 16.935625
80.47506 42.03088 16.873856
48.128601 20.785524 9.7425728
49.705692 20.03404 9.9593153
49.354176 19.541187 9.8646498
49.448406 19.228367 9.8597164
49.325737 18.833063 9.8120184
49.728767 17.945309 9.824811
17.806248 5.2155609 3.4466414
17.737301 4.9598513 3.4212391
17.814821 4.8638735 3.4303765
17.72653 4.7230802 3.4077156
17.731388 4.6080403 3.4031467
17.774578 4.5030193 3.4060709
17.852463 4.4063606 3.4157567
17.890635 4.2994938 3.4179497
17.863068 4.1770997 3.4077156
17.868231 4.0628371 3.4038777
17.827543 3.9386981 3.3914509
17.711027 3.799125 3.3647692
17.682989 3.6797626 3.3550835
17.683069 3.5667207 3.3508801
17.606201 3.4389241 3.3322396
17.570938 3.3202398 3.3216403
17.534885 3.2021179 3.3110406
17.522251 3.0888319 3.3050098
17.478842 2.9707136 3.293314
17.423973 2.8514979 3.2796075
17.387726 2.736125 3.2695563
17.287531 2.6117556 3.2476263
17.311016 2.5067596 3.2490883
17.227713 2.3868625 3.2306306
17.160162 2.2702756 3.2152796
17.124996 2.1587896 3.2061419
17.055922 2.0438428 3.1907909
16.991947 1.9304911 3.1765363
16.931135 1.8184221 3.163013
16.936104 1.7139062 3.1619165
16.934557 1.6088396 3.1597235
16.798193 1.4919351 3.1324935
16.731585 1.3825977 3.1184218
16.677996 1.2751839 3.1069086
16.593317 1.1663418 3.08973
16.600163 1.0645052 3.08973
16.60638 0.96262842 3.08973
16.587429 0.85944265 3.0851612
16.587481 0.75742346 3.0842476
16.578062 0.65508622 3.0816891
16.553272 0.55240071 3.0763893
18.118124 0.15978189 3.3656831
16.426727 0.050269946 2.7586508
16.398127 -0.050435212 2.7538445
3.0729442 -0.028155675 0.51441795
3.194984 -0.048888467 0.53496921
3.1936378 -0.068470404 0.53480345
3.1892142 -0.087955929 0.53414053
3.1866436 -0.10745634 0.53380907
3.1829681 -0.12688917 0.53331184
3.1821296 -0.1464171 0.53331184
3.1811714 -0.16593954 0.53331184
3.1751709 -0.18516836 0.53248316
3.1720064 -0.20452031 0.5321517
3.1687245 -0.22384045 0.53182024
3.1633582 -0.24297681 0.53115726
3.1598423 -0.26221901 0.53082579
3.158174 -0.28160253 0.53082579
3.1603131 -0.30135009 0.53148878
3.141726 -0.31904098 0.52867121
3.1583385 -0.34032071 0.53182024
3.182646 -0.36271003 0.53629512
3.1784024 -0.3819961 0.53596359
3.2581823 -0.41188523 0.54988545
3.254616 -0.43173957 0.54971975
3.1708326 -0.44043538 0.53596359
3.0431509 -0.44174197 0.51474941
2.9146023 -0.44135123 0.49336943
2.9663901 -0.46783331 0.50265068
2.9050741 -0.47644597 0.49270651
2.919595 -0.49724364 0.49568975
15.61785 -2.7594559 2.6633525
15.601594 -2.8554108 2.6635182
17.786488 -3.4814215 3.0438826
17.758991 -3.5893197 3.0428884
18.013704 -3.7559938 3.0904546
18.571703 -3.9914093 3.1903934
20.011377 -4.4294686 3.4424782
20.122282 -4.5837145 3.4663441
19.999681 -4.6850524 3.4501019
60.058914 -14.458872 10.379861
59.958534 -14.824511 10.378037
59.859756 -15.190432 10.376878
59.739651 -15.550732 10.372403
59.620239 -15.910891 10.368425
52.65065 -14.397531 9.1713133
52.555622 -14.718721 9.1703186
52.444412 -15.035213 9.1668386
52.341705 -15.353947 9.1651812
52.234234 -15.671136 9.1630259
52.112579 -15.983826 9.1587172
51.988117 -16.295319 9.1542425
51.866489 -16.607388 9.1505957
51.749554 -16.920725 9.1481104
51.643818 -17.237623 9.1479445
51.546413 -17.55736 9.1496019
3.3593338 -1.1670991 0.59562862
3.3521092 -1.1876897 0.59562862
3.3354838 -1.2048844 0.59397125
3.3335805 -1.2273726 0.5949657
3.3158302 -1.243993 0.59314257
3.2068064 -1.225583 0.57491159
3.1881981 -1.2409433 0.57292277
3.1612716 -1.2528512 0.56944233
3.1416357 -1.2674278 0.56728774
3.1237652 -1.2825599 0.56546468
3.1112871 -1.2998018 0.56463599
3.0642269 -1.3022795 0.5575093
3.0643253 -1.3245788 0.55900097
3.0561402 -1.3433561 0.55900097
2.9758139 -1.3298895 0.54574203
2.9613128 -1.3452681 0.54458189
2.9503167 -1.3621728 0.54408467
2.9392247 -1.3789933 0.54358751
2.9289277 -1.3961532 0.54325598
2.9247437 -1.4162477 0.54408467
2.9221931 -1.4372139 0.54524487
2.9309638 -1.4639312 0.54855955
2.937757 -1.4899178 0.55154282
2.9601226 -1.5241693 0.5575093
2.9900429 -1.5628629 0.56496745
2.9891083 -1.5858021 0.56662482
2.9836633 -1.6064509 0.5674535
3.0542324 -1.6687058 0.58286697
3.0939598 -1.7151493 0.59247965
3.0696251 -1.7263658 0.58982784
3.040987 -1.7349048 0.5863474
2.9517593 -1.7080857 0.5710997
2.9948039 -1.757615 0.58154106
2.9805732 -1.77394 0.58087814
2.9645667 -1.7891375 0.57988369
2.943439 -1.8011167 0.57789487
2.9273043 -1.8160238 0.57690042
2.9136021 -1.832376 0.57640326
2.9031355 -1.8507493 0.57656896
2.8958662 -1.871204 0.57739764
2.8868053 -1.8905586 0.57789487
2.8702207 -1.9049637 0.57690042
2.8527503 -1.9186863 0.57574028
2.8376641 -1.9339327 0.57507735
2.8208756 -1.9479454 0.57408291
2.8088701 -1.9652174 0.57408291
2.7983677 -1.9835559 0.57441443
2.7404869 -1.9678993 0.56496745
18.414429 -13.396443 3.8249972
18.393805 -13.554812 3.8379245
18.474667 -13.79012 3.8723977
18.119099 -13.698628 3.8153844
17.67688 -13.535549 3.7396431
17.252947 -13.379657 3.6672163
16.834703 -13.221518 3.5954525
16.419836 -13.059375 3.5238545
16.125116 -12.987291 3.4776142
15.724914 -12.824829 3.4081707
15.423135 -12.737079 3.3596101
15.035275 -12.57273 3.2918239
14.655293 -12.408572 3.225198
14.421654 -12.363471 3.1903934
14.1005 -12.239049 3.1358662
13.835502 -12.158682 3.0934379
13.529295 -12.037509 3.0413966
13.258811 -11.943405 2.9969795
12.987084 -11.843784 2.9518991
12.762009 -11.782763 2.9170945
12.431551 -11.619764 2.8577611
12.217475 -11.560938 2.8247795
12.087202 -11.579062 2.8110235
12.035041 -11.671547 2.8154984
11.987125 -11.768662 2.8211334
11.93917 -11.866325 2.8269341
11.921053 -11.994617 2.8400273
11.863121 -12.083724 2.8438392
11.841616 -12.210799 2.856601
11.806717 -12.325245 2.8663793
11.762726 -12.431126 2.8741689
11.730672 -12.550617 2.8851075
11.679531 -12.650619 2.8915713
11.639565 -12.763578 2.9010181
11.601291 -12.879456 2.911128
11.545644 -12.976921 2.9170945
11.51918 -13.108264 2.930685
11.482489 -13.229342 2.9419551
11.441534 -13.346718 2.9523964
11.39957 -13.464087 2.9628377
11.343944 -13.566311 2.9699645
11.307585 -13.692692 2.9823947
11.258881 -13.805378 2.9918416
11.19561 -13.901084 2.9976423
11.171487 -14.0467 3.0142159
11.133816 -14.17703 3.0274749
11.076229 -14.283265 3.0355959
11.017756 -14.389327 3.0437169
10.966131 -14.505433 3.0539925
10.957143 -14.679928 3.0765328
10.901963 -14.794518 3.0864768
10.863772 -14.933704 3.1015589
10.829458 -15.080185 3.1181326
10.769802 -15.193012 3.1277452
10.715386 -15.314563 3.1391809
10.658762 -15.434391 3.1502852
10.627172 -15.592402 3.1691792
10.567625 -15.711323 3.1801178
10.516832 -15.844888 3.1940396
10.479926 -16.001518 3.2126021
10.422223 -16.128469 3.225198
10.370776 -16.266956 3.2401142
10.323796 -16.414598 3.2568536
10.272273 -16.557245 3.2725985
10.219903 -16.700716 3.2885091
10.173289 -16.855984 3.3067403
10.117586 -16.998594 3.3224852
10.042047 -17.109684 3.3320978
9.9763899 -17.239264 3.3453567
9.9407969 -17.423498 3.3692226
9.8830109 -17.57184 3.3861277
9.8615503 -17.788261 3.416126
9.7872086 -17.912479 3.4283905
9.7252703 -18.061628 3.4454613
9.6646423 -18.215918 3.4635265
9.6148195 -18.393738 3.4860668
9.5573063 -18.560228 3.5064523
9.4744682 -18.680088 3.5180538
9.4328232 -18.884321 3.5455661
9.3568163 -19.023258 3.5608137
9.3018084 -19.208122 3.5846796
9.2393656 -19.381453 3.6063912
9.1793327 -19.563662 3.62976
9.1293974 -19.771824 3.6579351
9.0413561 -19.901093 3.6715255
8.9685678 -20.066936 3.691911
8.9333725 -20.32201 3.7287045
8.8570318 -20.488689 3.7492557
8.7677946 -20.62887 3.7650006
8.7034006 -20.831511 3.7921813
8.6368484 -21.034132 3.8193622
8.561861 -21.22117 3.8437252
8.513607 -21.480499 3.8811817
8.4002466 -21.580122 3.8897998
8.2697878 -21.636786 3.8907943
8.124054 -21.652958 3.8846622
7.9579887 -21.612631 3.8685856
7.7558689 -21.469061 3.8342783
7.5903959 -21.421432 3.8173733
7.4202991 -21.356749 3.7976506
7.2665434 -21.335596 3.7858834
7.0989671 -21.270334 3.7664921
6.9404345 -21.228195 3.7514102
6.7799802 -21.17646 3.7348366
6.6115756 -21.095327 3.7132909
6.4525199 -21.03933 3.6963859
6.2890177 -20.96423 3.6763318
6.1422238 -20.940914 3.6655588
5.9774761 -20.852125 3.6435161
5.8318658 -20.825733 3.6325774
5.6738019 -20.75078 3.6133521
5.5229797 -20.697542 3.5981042
5.3792357 -20.667097 3.5869999
5.2326779 -20.62229 3.5735755
5.083797 -20.564016 3.5579963
4.9379063 -20.513327 3.5439086
4.792829 -20.461622 3.5298212
4.6584287 -20.452185 3.5231917
4.5102601 -20.378319 3.5056236
4.3652463 -20.313051 3.489713
4.2240219 -20.260288 3.4761226
4.0861487 -20.219128 3.4646866
3.9496982 -20.180912 3.4539139
3.8100183 -20.121437 3.4396605
3.675833 -20.086231 3.4297163
3.5370767 -20.021006 3.4148002
3.4017437 -19.969419 3.40237
3.2695718 -19.931528 3.3924258
3.1442933 -19.932705 3.3892767
2.978513 -19.664957 3.3405504
2.1591258 -14.870512 2.5233057
2.0655348 -14.866874 2.520488
2.603719 -19.623577 3.3248055
2.4830146 -19.637228 3.3244741
1.758697 -14.6292 2.4742477
1.6644335 -14.600523 2.4676182
1.5719619 -14.583987 2.4631433
1.482347 -14.592377 2.4629776
1.3912839 -14.58549 2.4603257
1.2958056 -14.526958 2.4490557
1.2086033 -14.558223 2.4530334
1.1197063 -14.571264 2.4540279
1.020685 -14.442108 2.4311562
0.93008304 -14.41759 2.4260185
0.8351683 -14.312763 2.4074559
0.74810201 -14.332389 2.4099419
0.657924 -14.288439 2.4018209
0.57004285 -14.28728 2.4009922
0.48163539 -14.268826 2.397346
0.52434403 -18.991497 3.1908906
0.40570983 -18.896749 3.1744828
0.28901362 -18.850567 3.1663618
0.1730625 -18.821415 3.1612239
0.03216058 -10.487051 1.7604221
-0.032108206 -10.461411 1.7561131
-0.096097514 -10.439322 1.7524668
-0.16002901 -10.430647 1.751141
-0.22356093 -10.407778 1.7474947
-0.28638235 -10.36875 1.7411968
-0.34946573 -10.351027 1.7385449
-0.41257846 -10.338835 1.7368876
-0.47528237 -10.320347 1.7342359
-0.53746647 -10.29557 1.7305896
-0.59988165 -10.279281 1.728435
-0.66275227 -10.272453 1.7279378
-0.72472715 -10.253438 1.7254518
-0.78535992 -10.219299 1.7204797
-0.84698862 -10.201512 1.7183251
-0.90860391 -10.185319 1.7165021
-0.96995872 -10.16777 1.7145132
-1.0307337 -10.14593 1.7118615
-1.0908543 -10.119805 1.7085468
-1.1509168 -10.095284 1.7055634
-1.2102485 -10.066492 1.7019173
-1.268404 -10.030503 1.6971109
-1.3295369 -10.019599 1.6966137
-1.3899052 -10.003439 1.6952878
-1.4499835 -9.9859381 1.6937962
-1.5107856 -9.9739275 1.6932991
-1.5702653 -9.9537544 1.6914759
-1.6301932 -9.9371204 1.6903157
-1.6856697 -9.8948498 1.6848465
-1.7755229 -10.049412 1.7130216
-1.8367965 -10.036387 1.7126901
-1.898711 -10.026867 1.7130216
-1.9607671 -10.017931 1.7135189
-2.0192685 -9.9912119 1.7110327
-2.0751004 -9.9525681 1.7065579
-2.134264 -9.9309711 1.7050663
-2.1970773 -9.9263544 1.7065579
-2.2575047 -9.9107628 1.7062265
-2.3160243 -9.8871231 1.7045691
-2.3761854 -9.8708086 1.7042376
-2.434103 -9.8455114 1.7024145
-2.4908295 -9.8160534 1.6999284
-2.552752 -9.8072653 1.7010885
-2.6093199 -9.7780771 1.6987683
-2.6692681 -9.7618828 1.6987683
-2.7285836 -9.7434216 1.6984369
-2.785599 -9.7170162 1.6967795
-2.8473899 -9.7073116 1.6981053
-2.9085994 -9.6953249 1.6990998
-2.9662991 -9.6716385 1.6981053
-3.0235226 -9.6466684 1.6969452
-3.0841601 -9.6326313 1.6977739
-3.1395288 -9.6022778 1.695785
-3.1958904 -9.5753498 1.6944592
-3.2542655 -9.5546265 1.6942934
-3.3173621 -9.5475206 1.6966137
-3.3798349 -9.5381393 1.6986026
-3.4342749 -9.5060921 1.6966137
-3.489131 -9.4755869 1.6949564
-3.5402772 -9.4355335 1.6916417
-3.5995145 -9.4173174 1.6923046
-3.6683204 -9.423542 1.6974424
-3.728617 -9.4072742 1.6986026
-3.7829478 -9.375988 1.6971109
-3.8404064 -9.3526001 1.6971109
-3.89658 -9.3261299 1.6966137
-3.9599032 -9.3165665 1.6992655
-4.0240383 -9.3083868 1.7022488
-4.0695677 -9.2573404 1.6974424
-4.1258912 -9.2312956 1.6972767
-4.1930618 -9.2291498 1.7015858
-4.2525058 -9.2095146 1.7027459
-4.311029 -9.1877117 1.7035747
-4.3698688 -9.1664286 1.7045691
-4.4294696 -9.1465435 1.7058949
-4.488555 -9.1253872 1.7070551
-4.5515141 -9.1117897 1.7097069
-4.6144753 -9.0977621 1.7123587
-4.6742749 -9.0771675 1.7138503
-4.7221165 -9.0334587 1.7110327
-4.7788424 -9.0069275 1.71153
-4.8419666 -8.992197 1.7143475
-4.9017792 -8.9709721 1.7160048
-4.9653392 -8.9562511 1.7189881
-5.0240679 -8.9324913 1.720314
-5.0866013 -8.9152012 1.7229657
-5.1476297 -8.8949184 1.7251203
-5.2046075 -8.8674183 1.725949
-5.2579098 -8.833621 1.7256175
-5.3227153 -8.818923 1.729098
-5.389081 -8.8062859 1.7330756
-5.4544525 -8.7914886 1.7367219
-5.5203691 -8.7770548 1.7405338
-5.579422 -8.7513332 1.7421912
-5.6292677 -8.7111359 1.7410311
-5.5475292 -8.4701891 1.699597
-5.6484814 -8.5099382 1.7145132
-5.7104983 -8.4898481 1.7174965
-5.7691488 -8.4644279 1.7194853
-5.8310642 -8.4434767 1.7224686
-5.9042478 -8.4382429 1.7287666
-5.9650378 -8.4147282 1.7314184
-6.0171328 -8.3787699 1.7315841
-6.0835147 -8.3624258 1.7358932
-6.1622076 -8.3622532 1.7436827
-6.22402 -8.3385105 1.7466661
-6.2816095 -8.3088169 1.7484891
-6.3354707 -8.2740316 1.7493178
-6.4018331 -8.2552643 1.7536269
-6.4767303 -8.246851 1.7602564
-6.5443988 -8.2285652 1.764897
-6.6145597 -8.2128325 1.7702006
-6.6741776 -8.1835546 1.7726866
-6.7248931 -8.1432095 1.7728523
-6.7614474 -8.085906 1.7693719
-12.18171 -14.38736 3.1661959
-22.337973 -26.056408 5.765933
-22.536219 -25.963539 5.775877
-22.782337 -25.924032 5.7980857
-22.995384 -25.844906 5.811842
-23.197096 -25.751682 5.8227806
-23.4065 -25.665697 5.8357077
-23.635124 -25.599123 5.8534417
-23.8463 -25.511974 5.8668661
-24.071527 -25.438238 5.8837714
-24.278324 -25.34347 5.8962016
-24.49173 -25.254198 5.9102893
-21.464661 -21.862892 5.1470742
-25.012526 -25.165777 5.9610043
-25.197247 -25.042416 5.9682965
-25.415171 -24.950897 5.9835443
-25.647787 -24.872061 6.0022726
-25.850479 -24.762655 6.01404
-26.148064 -24.741844 6.0478501
-26.373592 -24.650297 6.0649209
-26.591736 -24.55022 6.0803342
-26.846073 -24.481617 6.1040344
-27.047077 -24.362633 6.1156363
-27.350779 -24.333872 6.1504407
-27.56254 -24.220924 6.1645284
-27.808949 -24.136675 6.1864057
-27.998453 -24.00153 6.1956868
-24.816996 -21.011475 5.4628015
-28.579123 -23.897158 6.258832
-28.794413 -23.778494 6.2739143
-28.990211 -23.642502 6.2848525
-29.33827 -23.628094 6.3287725
-29.586123 -23.529886 6.3509812
-29.823788 -23.421608 6.3710356
-30.072147 -23.319756 6.3934097
-30.30628 -23.204941 6.4128008
-30.57868 -23.117271 6.4403133
-30.888283 -23.05485 6.475615
-31.078386 -22.901161 6.4858904
-28.252348 -20.026918 5.8179741
-31.711853 -22.188099 6.5024643
-32.326981 -22.324287 6.6004143
-32.922546 -22.143856 6.6660457
-33.079163 -21.955608 6.6703548
-33.304005 -21.811661 6.6885858
-35.129406 -22.700373 7.027185
-31.726934 -19.148335 6.2258506
-35.685593 -20.944418 6.9519405
-35.798923 -20.716661 6.9491229
-36.006615 -20.251141 6.9406705
-40.645382 -22.532927 7.8082991
-40.232475 -21.982378 7.7028909
-63.644932 -34.269032 12.146111
-63.598755 -33.742443 12.09755
-34.890015 -18.237604 6.614336
-62.975216 -32.427624 11.902313
-60.478168 -30.673824 11.394498
-60.707588 -30.323313 11.402452
-60.492519 -29.753513 11.32754
-60.377495 -29.238222 11.272184
-60.440037 -28.812035 11.250639
-60.034283 -27.719675 11.110923
-59.684761 -26.674662 10.984797
-59.005001 -25.937677 10.830166
-58.963898 -25.489054 10.793704
-58.93948 -25.050402 10.760888
-59.00927 -24.653688 10.745807
-59.176762 -24.298269 10.748956
-59.144577 -23.86202 10.716306
-59.155109 -23.445255 10.691942
-59.053398 -22.986691 10.647857
-59.283607 -22.658417 10.664099
-59.200848 -22.211441 10.624488
-59.068565 -21.749298 10.57659
-58.826195 -21.251085 10.509632
-58.845795 -20.850868 10.490075
-58.856182 -20.448948 10.469358
-58.933872 -20.071533 10.461072
-59.357136 -19.810072 10.514439
-60.137463 -19.661232 10.631117
-60.20813 -19.276228 10.622499
-60.192589 -18.864851 10.59913
-60.210094 -18.465378 10.582059
-60.207966 -18.061302 10.562005
-60.139748 -17.639353 10.530847
-60.15205 -17.242838 10.514273
-60.216835 -16.862257 10.507312
-60.299191 -16.486994 10.503832
-60.364914 -16.107542 10.497865
-65.899689 -17.151958 11.442063
-66.018028 -16.750921 11.44455
-66.126266 -16.347183 11.44571
-60.087181 -14.463634 10.384667
-60.08934 -14.074658 10.369917
-60.063995 -13.680507 10.350857
-60.068813 -13.294442 10.337433
-60.047058 -12.903655 10.319864
-60.183025 -12.547047 10.329808
-60.193146 -12.164251 10.318539
-65.864471 -12.890204 11.277156
-65.882248 -12.47445 11.266881
-65.952698 -12.069083 11.266052
-59.972439 -10.59485 10.233019
-59.976048 -10.216398 10.222743
-59.94418 -9.8328762 10.206833
-59.969292 -9.4595022 10.201032
-59.972576 -9.0832376 10.191916
-59.99107 -8.7098389 10.185784
-60.051197 -8.3426628 10.18711
-65.671638 -8.7130804 11.131474
-60.144157 -7.604495 10.186281
-60.170105 -7.2329602 10.182966
-60.191799 -6.8611703 10.17932
-59.884689 -6.4541979 10.120484
-59.871162 -6.0813489 10.1117
-59.880848 -5.7113442 10.107225
-59.865646 -5.3394346 10.098938
-59.864853 -4.9693127 10.093469
-59.903069 -4.6025758 10.09496
-59.939037 -4.2355561 10.096452
-59.950115 -3.8668087 10.094131
-59.934322 -3.496649 10.087668
-59.922142 -3.1271372 10.082199
-59.850559 -2.7552762 10.067117
-59.826923 -2.3864162 10.060488
-59.772434 -2.0169854 10.049051
-59.770866 -1.6498371 10.046897
-59.765076 -1.2827415 10.044411
-59.752102 -0.91570359 10.041097
-59.794071 -0.54939854 10.047395
-59.79533 -0.18249568 10.047229
-59.881123 0.18466985 10.061647
-59.881821 0.55211729 10.062145
-59.908855 0.92001951 10.067449
-59.745316 1.2842258 10.041097
-59.71265 1.6501381 10.037119
-59.70042 2.0164638 10.036953
-59.681011 2.3825047 10.035958
-59.69088 2.7498355 10.040268
-59.700462 3.1174803 10.044909
-59.692024 3.4844265 10.046897
-59.690182 3.8519578 10.050378
-59.686085 4.2195978 10.053858
-59.673817 4.5868793 10.056344
-59.653393 4.9536791 10.057836
-59.627773 5.320138 10.05883
-59.574368 5.6840334 10.055515
-59.609997 6.0567455 10.067615
-59.579556 6.4232373 10.06894
-59.590954 6.794611 10.077724
-65.238327 8.2507277 11.049269
-59.905392 8.3243608 10.162416
-59.516487 8.6428814 10.105236
-59.50621 9.0145512 10.112695
-59.485825 9.385191 10.118827
-59.471882 9.7573576 10.126451
-59.481861 10.134178 10.138549
-59.561317 10.524186 10.162912
-59.622696 10.912708 10.184624
-59.745499 11.314489 10.217274
-59.665268 11.678974 10.215616
-59.686245 12.063805 10.231693
-59.553177 12.417728 10.221748
-59.466221 12.780833 10.220091
-59.458897 13.161455 10.232522
-59.429905 13.538088 10.241637
-59.391804 13.913285 10.249593
-59.342709 14.286447 10.256056
-59.98917 14.832086 10.383342
-59.770859 15.167872 10.361465
-59.666164 15.531602 10.359641
-59.59642 15.904533 10.364282
-59.572861 16.290461 10.377375
-59.412907 16.639196 10.367099
-59.340023 17.012131 10.372403
-59.335777 17.405617 10.390137
-59.298706 17.790621 10.402567
-59.255367 18.174667 10.414334
-59.421276 18.625219 10.463392
-59.464603 19.040295 10.491402
-63.728695 20.837631 11.266218
-63.697861 21.261055 11.28362
-59.596947 20.299503 10.57891
-59.356693 20.624987 10.558524
-59.268059 21.00264 10.565485
-59.187233 21.383665 10.574269
-59.158558 21.784597 10.592832
-59.138268 22.190138 10.613383
-59.381439 22.698008 10.681832
-59.546154 23.180712 10.736856
-59.327625 23.938105 10.749619
-59.260818 24.33502 10.764369
-59.197742 24.73468 10.780279
-59.089329 25.116348 10.788401
-59.124195 25.560621 10.823205
-59.034859 25.953083 10.835801
-60.388855 26.991693 11.11457
-59.187786 26.891783 10.923641
-59.129105 27.304058 10.943529
-59.04884 27.707827 10.959937
-59.041508 28.147711 10.990433
-59.054962 28.600149 11.025403
-59.042957 29.042929 11.056231
-59.003914 29.474735 11.082582
-59.025112 29.939272 11.120867
-59.017403 30.392084 11.154346
-59.067524 30.877905 11.199426
-58.94664 31.276731 11.212685
-58.827427 31.677576 11.226772
-40.251278 23.958965 7.8702846
-40.237755 24.28652 7.8966365
-40.253685 24.634365 7.9292865
-40.156242 24.91469 7.9400592
-40.050194 25.190542 7.9495063
-39.161461 24.968203 7.8033271
-38.918896 25.150751 7.7855935
-39.318222 25.752184 7.8969679
-39.206299 26.024036 7.906415
-39.04752 26.265211 7.9067464
-34.774105 26.627474 7.3586569
-34.403557 26.680189 7.3147368
-34.113564 26.792105 7.2878876
-33.710808 26.811848 7.2368412
-33.92046 27.320061 7.3177204
-33.590172 27.39554 7.2825842
-33.439693 27.616199 7.286562
-33.047199 27.634871 7.2378354
-32.928188 27.880459 7.2491055
-33.470757 28.694311 7.407218
-50.698002 44.00584 11.280305
-50.058872 43.992542 11.197934
-49.46677 44.013058 11.125673
-48.843342 43.998272 11.045955
-15.740675 14.355021 3.5782161
-15.574044 14.379084 3.5603166
-15.378177 14.374035 3.5356219
-15.103451 14.291888 3.4925303
-14.929306 14.301744 3.4724762
-14.87596 14.426723 3.4805975
-14.899752 14.62827 3.5071151
-14.845387 14.754874 3.5155678
-14.608586 14.698796 3.4807632
-14.44558 14.714264 3.4633608
-14.178582 14.620678 3.4207666
-13.981503 14.595592 3.3947461
-13.780525 14.56363 3.3675654
-13.5468 14.49373 3.3320978
-13.371318 14.483108 3.3107178
-13.167242 14.438817 3.2820456
-12.985337 14.416021 3.2586768
-12.809455 14.397434 3.2366338
-12.601746 14.340197 3.2063041
-12.468916 14.365861 3.1948683
-12.202105 14.233953 3.1487937
-12.055275 14.23856 3.1333802
-11.83547 14.154144 3.0987413
-11.713235 14.183916 3.0894601
-11.534363 14.143175 3.0650969
-11.386745 14.138413 3.0488548
-11.261107 14.159389 3.0384135
-11.039407 14.056813 3.0017858
-10.884055 14.035444 2.9828918
-10.745572 14.033842 2.9684727
-10.606331 14.029498 2.9537222
-10.396763 13.929139 2.9190834
-10.226274 13.877553 2.8950517
-10.102061 13.886608 2.8839474
-9.9372826 13.83779 2.8610759
-9.821393 13.855058 2.8521261
-9.6887054 13.847186 2.8382041
-9.544157 13.820356 2.820636
-9.380311 13.762942 2.7971017
-9.2411995 13.739228 2.7806938
-9.1016417 13.712685 2.7639544
-8.969245 13.69485 2.7492039
-8.8379459 13.676737 2.7346191
-8.7098589 13.661689 2.7208631
-8.5675907 13.622212 2.7024662
-8.4360151 13.597429 2.6872187
-8.311245 13.581642 2.6739597
-8.1966696 13.58088 2.6638498
-8.066781 13.552955 2.648602
-7.9430375 13.533305 2.6351774
-7.8084784 13.493018 2.6179409
-7.6923094 13.48243 2.6066709
-7.5765643 13.470925 2.5954008
-7.4526453 13.442986 2.5811474
-7.3331385 13.420959 2.5682201
-7.2183914 13.405788 2.5567842
-7.0223002 13.235523 2.5160131
-6.9368448 13.270496 2.5145216
-6.8381324 13.279493 2.5082235
-6.7435861 13.295695 2.5034173
-6.6319127 13.276831 2.4921472
-6.5259485 13.267718 2.4828658
-6.4048738 13.225854 2.4676182
-6.3112946 13.239089 2.4628119
-6.2081599 13.23114 2.4541936
-6.1086683 13.229589 2.4469011
-5.9967856 13.199483 2.4344709
-5.8951607 13.190111 2.4260185
-5.7696695 13.124922 2.4074559
-5.6686802 13.113007 2.3988378
-5.5661259 13.095809 2.3893907
-5.465518 13.081488 2.3806067
-5.3596778 13.052743 2.3693366
-5.2621446 13.0424 2.361547
-5.163125 13.02677 2.3529289
-5.0655684 13.013174 2.3448076
-4.9697824 13.002557 2.3373497
-4.8736253 12.98941 2.32956
-4.7774763 12.974648 2.3216047
-4.6773367 12.947141 2.3114948
-4.5796909 12.924472 2.3023794
-4.4837956 12.90482 2.2939267
-4.3949909 12.904084 2.2889547
-4.297935 12.877488 2.2795076
-4.206275 12.865186 2.2727125
-4.1215429 12.872908 2.2695634
-4.0539808 12.934655 2.2760272
-4.0291877 13.137481 2.3073514
-3.995822 13.319702 2.3350294
-3.9423289 13.440493 2.3519344
-3.9331563 13.720387 2.3966832
-3.8956974 13.911399 2.4258528
-3.844337 14.059655 2.4475641
-3.8017266 14.246865 2.4760706
-3.7855279 14.54383 2.5236371
-3.7401159 14.739799 2.5536354
-3.7087703 15.001807 2.5950692
-3.6388066 15.116324 2.61098
-3.5893917 15.323683 2.642967
-3.5452325 15.564651 2.6807549
-3.5005939 15.816236 2.7203658
-3.4743395 16.167162 2.7770476
-3.4237812 16.421804 2.8171556
-3.3549902 16.60103 2.8443365
-3.329206 17.010365 2.9109623
-3.2500875 17.164188 2.9338338
-3.232934 17.665928 3.0162048
-3.1505539 17.833044 3.0413966
-3.0356083 17.819958 3.0359273
-2.9207826 17.805162 3.0302923
-2.7927313 17.703905 3.0100725
-2.6840496 17.720707 3.0100725
-2.6075721 17.959356 3.0478604
1.7612823 81.935921 13.771319
6.3566532 82.697075 13.937056
46.802971 75.434364 14.917385
48.785477 76.51741 15.248857
63.903519 48.929443 13.524207
78.070145 46.466675 15.266591
78.843605 45.626152 15.307196
78.790726 44.313885 15.190187
79.73719 42.933708 15.217698
80.554054 42.738052 15.323273
78.692764 41.133781 14.920865
48.822369 21.461586 8.9608278
18.760126 7.9735494 3.4237499
18.762291 7.838901 3.4152973
18.764421 7.7049017 3.4070106
18.845184 7.603272 3.4131429
18.943739 7.5082083 3.4225898
19.063892 7.4208055 3.4360144
18.946938 7.2417264 3.4068449
18.932846 7.1035104 3.3964036
18.939058 6.973577 3.3897741
18.883175 6.8217211 3.372206
18.841019 6.676085 3.3572898
18.838776 6.545465 3.3496659
18.55847 6.1939077 3.2860231
18.505201 6.0501928 3.2699468
18.387947 5.8872194 3.2427661
18.359734 5.7542267 3.2314961
18.325867 5.620358 3.2193973
18.292942 5.4876885 3.2076299
18.260029 5.3559127 3.1960285
18.211021 5.2204013 3.1817751
18.153444 5.0835652 3.1661959
18.092974 4.9471135 3.1502852
17.993402 4.8014264 3.1277452
17.987213 4.6817403 3.121613
17.868397 4.5339341 3.0960896
17.851841 4.4133239 3.0884657
17.83448 4.2930875 3.0808418
17.700136 4.146018 3.053164
17.659857 4.0224419 3.041894
17.660135 3.9086797 3.0377505
17.640398 3.7909222 3.0302923
17.675877 3.6852281 3.0324469
17.672058 3.5714271 3.027972
18.279163 3.5775166 3.1282425
18.520723 3.5069366 3.1658645
18.717474 3.4253597 3.1958628
18.999374 3.3565965 3.2404459
19.27821 3.284004 3.2845316
19.373903 3.1781044 3.2974589
19.469021 3.0711536 3.3103864
19.813166 3.0009596 3.3657422
17.509449 2.5422533 2.9714561
17.241449 2.395417 2.9233925
17.180546 2.2795932 2.9106309
17.125723 2.1654735 2.8990293
17.098545 2.0555255 2.8922341
17.080462 1.9471101 2.8870964
17.054827 1.8382541 2.8807983
17.013786 1.7282914 2.8720143
16.967131 1.6184337 2.8624017
16.947273 1.5116667 2.8574295
16.913971 1.4041438 2.8503029
16.881954 1.2972379 2.8435078
16.841394 1.1902217 2.8353868
16.76276 1.0813402 2.8209677
16.706074 0.9747898 2.8103604
16.642801 0.86866748 2.798759
16.630085 0.76571655 2.7957757
16.607866 0.66260064 2.7913008
16.58205 0.5596866 2.7863288
16.551655 0.45700544 2.7806938
16.522598 0.35476071 2.7753901
16.478119 0.2526632 2.7676005
16.434984 0.15114301 2.7601426
16.428791 0.026817134 2.4388433
16.392048 -0.073825255 2.4334064
16.362602 -0.17409959 2.4291449
3.1649201 -0.05365641 0.46844077
3.1773868 -0.073369026 0.47035107
3.1758878 -0.092835039 0.47020411
3.1722929 -0.11221591 0.46976328
3.1695681 -0.13159698 0.4694694
3.1696889 -0.1510895 0.46961632
3.1647513 -0.17032373 0.46902856
3.1606846 -0.18956207 0.46858773
3.1584749 -0.20888704 0.46844077
3.1571338 -0.22826314 0.46844077
3.1576459 -0.247785 0.46873465
3.1511381 -0.26673919 0.46799994
3.1425462 -0.28544435 0.46697131
3.1348283 -0.30414945 0.46608964
3.135855 -0.3236827 0.46653047
3.1318431 -0.3427031 0.46623656
3.1208377 -0.36089259 0.46491405
3.1067817 -0.37860164 0.46315071
3.0926263 -0.39615184 0.46138734
3.0970001 -0.41604075 0.46241596
3.0914502 -0.43462324 0.46197513
3.0857892 -0.45315337 0.46153429
3.0858841 -0.47252741 0.46197513
3.042876 -0.48507768 0.45595032
3.0398421 -0.5037393 0.45595032
15.512025 -2.6655455 2.3364217
15.577178 -2.7752454 2.3487654
15.573475 -2.8732848 2.3508224
16.267746 -3.1046782 2.4585342
17.76425 -3.5033221 2.6880643
17.722063 -3.6081123 2.6849782
19.943537 -4.3158407 3.0295675
19.983297 -4.4529734 3.0397067
20.006697 -4.5872192 3.0474949
19.988764 -4.712388 3.0491111
57.752022 -13.988401 8.8258629
57.106438 -14.203553 8.7403402
56.856243 -14.512343 8.7155066
56.69627 -14.842648 8.7047796
56.488533 -15.15923 8.6869993
52.613773 -14.466108 8.1045036
52.516403 -14.786524 8.1033287
52.412331 -15.104919 8.1014175
52.310123 -15.423714 8.1000957
52.20219 -15.740681 8.0981855
52.10368 -16.060398 8.0980387
51.999435 -16.378313 8.0973034
51.883839 -16.692522 8.0950994
51.756004 -17.002537 8.091279
51.655396 -17.321358 8.0920134
3.3091533 -1.1329614 0.5178147
3.3292222 -1.1626972 0.52207613
3.3220253 -1.183103 0.52207613
3.1259484 -1.1349752 0.49224606
3.0326459 -1.1222275 0.47858006
3.0053394 -1.1331414 0.47534725
3.018646 -1.1593583 0.47858006
3.047405 -1.1919025 0.48431095
3.0418723 -1.2113101 0.48460487
3.0618858 -1.2410933 0.48901325
3.0999372 -1.2787073 0.49636057
3.0646684 -1.2862259 0.49195218
3.0567183 -1.3050061 0.49195218
3.0468388 -1.3229496 0.49165827
3.0386639 -1.3416198 0.49165827
3.0249598 -1.3578103 0.4907766
3.0210714 -1.3783975 0.49151134
3.0143518 -1.3977404 0.49180523
2.9967697 -1.4119955 0.49033576
2.9612813 -1.41755 0.48592737
2.9356241 -1.4274783 0.4831354
2.9339058 -1.4489666 0.48431095
2.9399924 -1.4744768 0.48680905
2.9458761 -1.5001158 0.48930714
2.9471614 -1.5236119 0.49107048
2.9473927 -1.5467206 0.4926869
2.9561825 -1.5745376 0.49577278
2.9708328 -1.6058114 0.49988726
3.0311799 -1.6625252 0.51178992
3.0606852 -1.7032102 0.51854944
2.9959052 -1.6913334 0.50929183
3.0146585 -1.7263912 0.51428801
3.0074303 -1.7468429 0.51487577
2.9864271 -1.7592406 0.51311243
2.9704807 -1.7744892 0.51223075
2.949383 -1.7865348 0.51046741
2.9274068 -1.7978709 0.50855708
2.9104416 -1.8121407 0.50752848
2.8975945 -1.8289093 0.50723457
2.8854847 -1.8461212 0.50708765
2.8765931 -1.8654054 0.50752848
2.8692265 -1.8857362 0.50826323
2.8798325 -1.9181063 0.51223075
2.8548892 -1.9268892 0.50987959
2.8283141 -1.9343222 0.50723457
2.8017557 -1.9415021 0.50458956
2.7889805 -1.9580886 0.50444263
2.7881997 -1.9831889 0.50649983
2.7414653 -1.9754015 0.50018114
13.006083 -9.4902716 2.3900571
13.010448 -9.6163406 2.4016659
12.959909 -9.7025108 2.4032824
12.937177 -9.8099375 2.4101889
12.90263 -9.9090137 2.4150381
12.880628 -10.018358 2.4223855
12.854658 -10.125358 2.4291449
12.815487 -10.222545 2.4335532
12.764065 -10.310309 2.4357574
12.738078 -10.419119 2.4429579
15.264831 -12.642813 2.9427221
14.992181 -12.572896 2.9049568
14.682518 -12.467463 2.8596976
14.36797 -12.352909 2.8131156
14.083741 -12.259649 2.7721174
13.775233 -12.140484 2.7259765
13.467988 -12.017344 2.6796882
13.215631 -11.938636 2.6439803
12.879352 -11.77919 2.5910797
12.692152 -11.751819 2.5678623
12.456703 -11.6766 2.5346522
12.204724 -11.581918 2.4977689
12.067088 -11.592859 2.4841027
12.019838 -11.69013 2.489099
11.984536 -11.799747 2.4967401
11.939933 -11.900991 2.5026181
11.884789 -11.992295 2.5064387
11.879488 -12.134967 2.5209863
11.818558 -12.221849 2.5239253
11.783656 -12.336337 2.5325952
11.741004 -12.44366 2.5397954
11.680615 -12.532832 2.5433221
11.619576 -12.621732 2.5468488
11.616446 -12.774752 2.5633068
11.568249 -12.879639 2.5700665
11.536268 -13.003651 2.5806465
11.497985 -13.121802 2.5900512
11.452858 -13.23324 2.5981331
11.401011 -13.337851 2.6048927
11.362986 -13.459704 2.615032
11.311225 -13.566398 2.6222322
11.281845 -13.701213 2.6348696
11.249988 -13.834642 2.6472132
11.198953 -13.945827 2.6552951
11.131611 -14.037531 2.6597035
11.095887 -14.170207 2.6719
11.051086 -14.292797 2.6821864
11.010599 -14.422446 2.6937952
10.973699 -14.558453 2.7065794
10.914873 -14.666774 2.7142208
10.874456 -14.801224 2.726711
10.829314 -14.930925 2.7383199
10.797961 -15.081536 2.7537491
10.734907 -15.18951 2.7613904
10.691307 -15.326481 2.7743218
10.650916 -15.470005 2.7884285
10.596377 -15.59479 2.7991557
10.532994 -15.707984 2.8078253
10.47517 -15.830884 2.8182585
10.454629 -16.012468 2.8391249
10.392609 -16.132858 2.8491173
10.357625 -16.297333 2.8668978
10.320486 -16.461143 2.8845315
10.242702 -16.562016 2.891144
10.17334 -16.67775 2.9004016
10.145777 -16.86445 2.9220028
10.078448 -16.987635 2.9325829
10.024974 -17.136238 2.9475713
9.9982262 -17.333662 2.9709358
9.9210186 -17.446272 2.9797525
9.8819857 -17.628473 3.0004721
9.8080788 -17.751112 3.0110521
9.7652063 -17.932573 3.0316246
9.7129898 -18.100229 3.0498459
9.6396618 -18.231188 3.0618956
9.5687466 -18.368944 3.0751207
9.5231476 -18.558435 3.0970156
9.4586248 -18.714508 3.1133268
9.4000378 -18.885536 3.1321359
9.3497171 -19.076975 3.1543248
9.2759056 -19.223961 3.1691663
9.1980944 -19.365395 3.1831262
9.159111 -19.592613 3.2111928
9.0862637 -19.751785 3.2280917
9.0162916 -19.920706 3.2466071
8.9606819 -20.125654 3.2710001
8.866785 -20.248213 3.282021
8.8347101 -20.51664 3.3167005
8.7618752 -20.696161 3.3369789
8.6791878 -20.856379 3.3541718
8.5929909 -21.01178 3.3706295
8.5210714 -21.206371 3.3934064
8.4848557 -21.49655 3.4314654
8.3778229 -21.612768 3.4417517
8.2545519 -21.688725 3.4457192
8.0853138 -21.642601 3.4304368
7.904355 -21.560858 3.4097173
5.6331377 -15.969881 2.5139329
5.4739299 -15.827468 2.48616
5.225029 -15.730116 2.4605913
7.6624746 -23.54907 3.6771595
4.984755 -15.646028 2.4376678
4.8727551 -15.625327 2.4297326
4.7461839 -15.554648 2.4141564
4.6331129 -15.524713 2.4050457
4.5186491 -15.48733 2.3949065
5.9620938 -20.910109 3.2283857
5.7986455 -20.820518 3.2089887
5.6531339 -20.790802 3.1989963
5.501102 -20.733316 3.1848896
5.3450327 -20.6556 3.1678438
5.2036748 -20.630461 3.1590271
3.6880178 -15.010044 2.2943952
3.4557779 -14.848969 2.2630956
3.3580511 -14.840952 2.2586873
3.2781835 -14.912478 2.2664754
3.150486 -14.763025 2.2407598
3.058639 -14.776268 2.2398782
2.9640241 -14.77536 2.2369392
2.8480303 -14.663157 2.2172484
2.6491449 -14.59384 2.2016721
2.537353 -14.483161 2.182569
2.4314685 -14.397999 2.1674335
2.3497465 -14.453652 2.1736052
2.2316833 -14.280161 2.1453917
2.9747708 -19.830164 2.9771075
2.0544457 -14.293744 2.1434813
