# .PCD v0.7 - Point Cloud Data file format
VERSION 0.7
FIELDS x y z
SIZE 4 4 4
TYPE F F F
COUNT 1 1 1
WIDTH 1533
HEIGHT 1
VIEWPOINT 0 0 0 1 0 0 0
POINTS 1533
DATA ascii
-0.38584012 -2.8895028 0.38063946
-1.2897393 -9.223649 1.219575
-1.2625935 -8.642601 1.1436509
-1.3285948 -8.7199688 1.1549615
-1.3903095 -8.7635536 1.1618519
-1.387248 -8.4104996 1.1160893
-8.2093658 -47.931915 6.3747449
-11.50643 -62.55825 8.3386316
-11.546249 -60.679634 8.0974684
-12.727057 -60.771259 8.1395903
-13.095728 -60.673607 8.1371202
-5.9256601 -24.520329 3.3060584
-6.0750475 -24.479658 3.3055382
-6.2004199 -24.344879 3.2924075
-6.3847671 -24.44068 3.3106086
-6.4102111 -23.936529 3.247555
-6.6367226 -24.187422 3.2870772
-6.9998617 -24.910833 3.3912129
-19.356943 -67.297173 9.1801672
-6.9058561 -23.466677 3.2058229
-7.033999 -23.371643 3.1986725
-7.1775641 -23.328989 3.1988025
-10.540361 -33.525391 4.606389
-10.910803 -33.973629 4.6771126
-11.104225 -33.860821 4.6708722
-11.43768 -34.16814 4.7228751
-11.656732 -34.125465 4.7267756
-11.871123 -34.068279 4.7288556
-12.19647 -34.322731 4.774488
-12.462564 -34.401066 4.795939
-12.587208 -34.090485 4.7633076
-10.167828 -27.026562 3.7846143
-10.280599 -26.825712 3.7652433
-10.446807 -26.766745 3.7658932
-10.613778 -26.709513 3.7669332
-13.307248 -32.897854 4.6515012
-13.479037 -32.743153 4.6412306
-13.540642 -32.327858 4.594038
-13.660625 -32.060818 4.5679069
-13.441152 -31.016598 4.4307494
-8.4862194 -19.258108 2.7578185
-8.5835505 -19.159527 2.7511883
-9.7352676 -21.37771 3.0784159
-9.8970737 -21.384159 3.0880365
-9.9812584 -21.223434 3.0736058
-10.017251 -20.964973 3.0450041
-10.282515 -21.184982 3.0860863
-10.254479 -20.801336 3.0392838
-10.456047 -20.886089 3.0609951
-10.892673 -21.428759 3.1503098
-8.8417807 -17.133129 2.526406
-10.528605 -20.09812 2.9733703
-9.7188797 -18.278736 2.712836
-9.8963022 -18.340046 2.730907
-9.8576927 -18.003292 2.6896949
-9.9987907 -17.997938 2.6980152
-10.299389 -18.273979 2.748848
-10.461519 -18.298237 2.7621088
-9.7284698 -16.311752 2.488704
-10.450768 -17.28089 2.6464026
-10.633831 -17.342384 2.6657736
-10.726431 -17.254915 2.6623933
-14.842841 -23.55302 3.648757
-14.934772 -23.379618 3.6360161
-12.838332 -19.828562 3.0957069
-12.619222 -19.230482 3.0143225
-12.906091 -19.406979 3.0543647
-13.101395 -19.440889 3.0723057
-13.095184 -19.176722 3.043184
-15.679691 -22.661594 3.6117048
-13.65736 -19.482227 3.118068
-12.930955 -18.207317 2.9265678
-12.91735 -17.953785 2.8984861
-14.557942 -19.974323 3.2392347
-16.485825 -22.330292 3.6378362
-16.370762 -21.89204 3.5827134
-16.68318 -22.026714 3.6214554
-14.410087 -18.785004 3.1027272
-14.521427 -18.691534 3.1019473
-20.990196 -26.344048 4.4150186
-21.134012 -26.193153 4.4113784
-14.377285 -17.597034 2.9779205
-14.484355 -17.507721 2.9777904
-21.690931 -25.572847 4.3952575
-22.058416 -25.36834 4.4063082
-28.467312 -32.33596 5.6472254
-14.198461 -15.73456 2.7773197
-14.300757 -15.653731 2.7784896
-20.423649 -21.812119 3.9164414
-20.47047 -21.595003 3.8999305
-20.507164 -21.369555 3.8818595
-20.544626 -21.147314 3.8643086
-20.585005 -20.930372 3.8476677
-20.591316 -20.681414 3.8250465
-20.673485 -20.510685 3.8168559
-14.777564 -14.482435 2.711406
-20.753363 -20.090622 3.7857842
-14.871763 -14.221197 2.6964552
-23.691257 -22.37805 4.2714906
-14.842169 -13.848233 2.6600533
-14.962586 -13.789828 2.6664236
-24.588203 -22.383373 4.3582053
-20.821114 -18.721788 3.6698179
-15.331751 -13.616768 2.6870947
-15.31588 -13.435475 2.6698039
-20.931387 -18.135395 3.6297758
-20.99029 -17.962141 3.6208053
-21.038767 -17.781166 3.6102748
-21.088102 -17.602182 3.6001344
-21.084772 -17.381008 3.5812833
-21.134123 -17.204985 3.5716627
-21.156609 -17.008512 3.5577519
-21.173597 -16.809332 3.5431912
-21.178799 -16.602633 3.5269403
-21.22617 -16.430492 3.5179698
-21.262775 -16.251173 3.5074391
-21.291653 -16.067245 3.4958687
-21.339746 -15.898981 3.4876781
-21.30591 -15.671396 3.466357
-21.378397 -15.523476 3.4625869
-24.201931 -17.347897 3.9027908
-24.263403 -17.167572 3.8956404
-21.473547 -14.996767 3.4326851
-24.473881 -16.869656 3.8959002
-24.872881 -16.920494 3.9428329
-25.102186 -16.852114 3.962724
-21.565649 -14.28675 3.3903029
-21.650415 -14.152529 3.3899128
-25.350632 -16.350128 3.9537535
-21.606634 -13.748451 3.3563709
-21.630123 -13.577662 3.3470106
-21.66329 -13.413891 3.3393402
-21.696957 -13.251258 3.3319297
-21.705664 -13.074393 3.320879
-21.707903 -12.894884 3.3090484
-15.814864 -9.2635708 2.4015992
-21.766626 -12.570994 3.2942276
-21.795099 -12.409728 3.2869473
-21.691854 -12.175305 3.2600358
-16.021824 -8.8640261 2.3992591
-22.544754 -12.292662 3.3653414
-16.471771 -8.8507109 2.4502218
-16.104279 -8.5263243 2.3876884
-23.972462 -12.504268 3.5435812
-16.48638 -8.4712515 2.4287708
-16.061211 -8.1286116 2.3586969
-15.757598 -7.853879 2.3069541
-25.883192 -12.702854 3.7788939
-26.287399 -12.701677 3.8264766
-16.254066 -7.7311497 2.3584368
-17.516178 -8.200037 2.5343363
-16.140591 -7.435688 2.3285353
-16.564301 -7.5080171 2.3830082
-30.027952 -13.388955 4.3093228
-30.320206 -13.29684 4.3394842
-17.481779 -7.5391207 2.4946842
-17.592522 -7.4591918 2.5039148
-17.367058 -7.2382035 2.4654326
-23.749466 -9.7275677 3.3635213
-18.497652 -7.4443088 2.6128607
-18.54298 -7.3306689 2.6128607
-24.222851 -9.2339764 3.3974533
-23.504578 -8.795372 3.2890275
-23.046192 -8.463007 3.2175236
-12.992403 -4.6808848 1.809157
-23.913969 -8.450099 3.3239992
-25.000616 -8.6618776 3.4676571
-16.590485 -5.6343408 2.2957735
-16.633211 -5.535255 2.2969434
-24.228209 -7.8978577 3.33973
-22.250128 -7.1023321 3.0608649
-35.412197 -11.064635 4.8630228
-38.404587 -11.741438 5.2640948
-22.18045 -6.6327758 3.0339534
-38.529602 -11.264542 5.2618847
-36.216492 -10.347504 4.9371266
-37.35083 -10.424133 5.0829949
-39.249599 -10.436609 5.323638
-52.164219 -12.508378 7.0320606
-51.329441 -11.975635 6.9094639
-53.526245 -11.797482 7.1852088
-53.394989 -11.425469 7.1580372
-58.490021 -12.140852 7.8310838
-68.150627 -13.710449 9.1133432
-54.248302 -10.567727 7.245142
-54.315048 -10.235218 7.245532
-52.978397 -8.3094215 7.0298505
-86.693932 -9.2670193 11.430459
-82.13961 -7.2537518 10.810455
-10.467813 -0.73068708 1.3742834
-10.321694 -0.65687495 1.3545223
-9.9744825 -0.51197386 1.3079798
-9.9863501 -0.45116448 1.3091499
-9.8779659 -0.38555199 1.294589
-9.4688892 -0.3114177 1.2406361
-9.5102682 -0.2543714 1.2458365
-9.6633196 -0.19913509 1.2657275
-10.116442 -0.1463705 1.3250108
-46.442951 -0.38624617 6.0882092
-41.567204 -0.090656422 5.4487047
-47.264172 0.18695623 6.195725
-10.248025 0.16615863 1.3423017
-10.21311 0.22828223 1.3378814
-10.291797 0.29323325 1.348412
-10.106483 0.3500244 1.3243607
-10.586612 0.43171358 1.3876741
-9.985549 0.46858013 1.3091499
-9.8597107 0.52332252 1.293029
-10.212354 0.73076892 1.3408716
-10.616929 0.82523501 1.3946946
-10.478279 0.87916964 1.3771436
-10.477626 0.94389147 1.3777936
-10.470649 1.0080682 1.3776636
-10.39325 1.0650173 1.3683031
-10.077008 1.0951265 1.3274809
-10.058277 1.155579 1.3259208
-10.171084 1.2318197 1.3417816
-10.139729 1.2911987 1.3386614
-10.054958 1.3431492 1.3285209
-10.067149 1.4077039 1.331251
-10.075982 1.4720285 1.3335912
-10.798968 1.6454036 1.4307065
-40.877495 6.4858155 5.4253035
-40.591381 6.6960053 5.3926716
-40.290546 6.9005861 5.3582196
-39.875504 7.0816178 5.3086872
-39.417835 7.2501049 5.2535639
-39.017082 7.4241815 5.2061114
-38.736328 7.6173382 5.1747799
-38.334194 7.7828679 5.127327
-38.050869 7.9687514 5.0958652
-37.674637 8.1315784 5.052053
-37.189453 8.2659969 4.99368
-36.834534 8.4246149 4.9528575
-36.688526 8.6284504 4.9402471
-36.125057 8.7301922 4.8714733
-35.770569 8.8771744 4.8309112
-35.554005 9.055377 4.8090701
-35.295357 9.2204819 4.7816386
-34.971859 9.3655701 4.7454963
-34.54274 9.478179 4.6950536
-34.352207 9.652935 4.6771126
-34.252312 9.8520222 4.6716523
-29.838621 8.7810707 4.0767403
-34.475376 10.37591 4.7191052
-34.521938 10.621367 4.7343159
-34.727585 10.918338 4.7716279
-34.836468 11.187912 4.795939
-34.959362 11.464484 4.8224607
-34.966396 11.704899 4.833251
-5.2151299 1.7812309 0.72099793
-5.1928668 1.8092818 0.7194379
-5.2545409 1.8670065 0.72957844
-5.2001042 1.8836771 0.72359812
-5.1837974 1.9138318 0.72294807
-29.552336 11.325563 4.1481142
-30.585131 11.937118 4.3033423
-29.47563 11.712995 4.1572146
-36.365849 14.710081 5.1420178
-28.871244 11.885103 4.0922108
-28.768509 12.049772 4.0880508
-30.062273 12.809062 4.2830615
-28.183607 12.213446 4.0259075
-28.189796 12.422132 4.0376081
-29.24773 13.103224 4.2006369
-29.582764 13.471878 4.26057
-29.196308 13.512794 4.2167578
-27.567802 12.965043 3.9928856
-29.030972 13.871342 4.2171478
-28.852543 14.004184 4.2036271
-29.25164 14.420333 4.274611
-28.741468 14.388709 4.2128577
-28.65971 14.568387 4.2138977
-28.578592 14.748512 4.2151976
-39.240479 20.556736 5.8068743
-39.205528 20.846001 5.8205247
-39.22871 21.168097 5.8431458
-7.8063717 4.2742472 1.1653621
-39.815392 22.119797 5.9705529
-8.2206287 4.6331 1.2356958
-8.2118435 4.6947727 1.2386861
-7.9864631 4.6311669 1.2089144
-40.656208 23.911085 6.1828547
-40.854458 24.366299 6.2356372
-7.9677391 4.8184352 1.2193151
-41.198151 25.261793 6.3349628
-41.384247 25.726635 6.3877454
-7.7896199 4.9087725 1.2056643
-42.065613 26.871469 6.543364
-42.097191 27.25679 6.5741758
-7.7070646 5.0573063 1.2070943
-42.779995 28.449972 6.7348642
-42.762489 28.818321 6.7598257
-7.4800234 5.1077285 1.1860332
-7.4558802 5.1586065 1.1872033
-43.760883 30.677397 7.0057993
-43.900024 31.178427 7.0585818
-7.6622839 5.5127039 1.2360859
-7.6908135 5.6051674 1.2462264
-44.861397 33.120152 7.3100157
-44.827259 33.521862 7.3378372
-6.9224124 5.2429113 1.1370206
-6.8869653 5.2828741 1.1365005
-7.3440137 5.9253535 1.2356958
-7.0311041 5.744462 1.1888933
-9.3872166 8.8982353 1.6943609
-9.6833878 9.4072666 1.7685949
-9.6007423 9.4421721 1.7640445
-10.215041 10.1704 1.8884614
-9.5148754 9.5902481 1.7697649
-10.64466 10.861506 1.9924669
-10.553678 10.901683 1.9879167
-8.978446 9.5051546 1.7128218
-9.0146503 9.661561 1.7310228
-9.9846153 10.833678 1.9301935
-10.0856 11.216391 1.9762161
-9.4286289 10.61604 1.8601198
-9.3482742 10.65655 1.8571296
-8.0789795 9.3243752 1.6160965
-9.9072199 11.577293 1.9963672
-9.9130764 11.876118 2.0267889
-9.8538942 11.953551 2.029649
-8.1872711 10.05685 1.698781
-9.6225958 11.969252 2.0120981
-8.5311222 10.882391 1.8114972
-8.3295021 10.89803 1.7969364
-8.2815886 10.97426 1.8010966
-8.047596 10.940877 1.7792554
-8.9881649 12.378051 2.0041676
-8.0011072 11.162107 1.7991465
-12.527684 17.705631 2.8423231
-12.308341 17.856398 2.8420632
-12.194082 17.925026 2.841023
-12.51438 18.640793 2.9422987
-12.483548 18.843697 2.9621897
-13.818967 21.426046 3.3414202
-11.747083 18.461294 2.8675444
-12.071108 19.23004 2.9754503
-13.567351 21.911131 3.3775623
-11.710705 19.174484 2.9443786
-11.619945 19.290995 2.9512691
-11.521614 19.396029 2.9564693
-12.896248 22.01676 3.3440204
-11.307521 19.578888 2.9629698
-16.103285 28.690178 4.3123131
-18.857704 34.085964 5.1061358
-18.678579 34.256748 5.1144567
-12.11937 22.555122 3.355721
-12.089769 22.834988 3.3862727
-21.72106 58.047752 8.1250296
-21.643368 58.939423 8.2311153
-21.500427 59.679317 8.3158798
-21.185038 59.955021 8.336031
-20.050636 60.252964 8.3247204
-1.8524222 6.4829288 0.88246673
-17.479666 62.632088 8.5245419
-1.8530114 6.7998161 0.9225089
-1.8028457 6.7794371 0.91821867
-1.7716677 6.8306813 0.92367893
-1.701533 6.7299161 0.90859812
-1.6010164 6.6760478 0.89858758
-1.5546161 6.6625719 0.8954674
-1.5213832 6.7058287 0.90001768
-1.4703916 6.6704965 0.89403737
-1.6592489 8.5167084 1.1361105
-0.069615334 0.40967292 0.052891683
-1.6173633 9.9130554 1.3153902
-1.0083469 6.4278002 0.85152507
-1.4583931 9.6850796 1.2826284
-0.81200522 5.6261511 0.7437492
-1.3452622 9.7444811 1.2882187
-0.84641069 6.4211192 0.84762484
-0.8044017 6.4055324 0.84489471
-0.76813728 6.4359455 0.84827489
-0.72673827 6.423789 0.84606475
-0.69226205 6.4744644 0.85217506
-0.84910125 8.4309225 1.109459
-0.80379021 8.5040846 1.1184295
-0.72856927 8.2481117 1.0841076
-0.66642177 8.1121044 1.0656466
-0.62399334 8.2129307 1.0783874
-0.49455529 7.0840764 0.92952925
-0.4578779 7.1938453 0.94357002
-0.36128429 6.2838497 0.82370353
-0.4476023 8.7198858 1.1432608
-0.39565521 8.7571344 1.1478112
-0.34230149 8.7693062 1.1491112
-0.33793059 10.275546 1.3464619
-0.1919875 7.1760883 0.93966985
-0.10832021 5.2520208 0.68719614
-0.07849896 5.4191432 0.7090373
-0.056767847 6.8056107 0.89078718
-0.018406773 8.3674603 1.0955483
0.033123795 8.4150085 1.1017886
0.096758425 9.6034098 1.2576671
0.11654361 7.1915927 0.94148993
0.22475627 10.055499 1.3172103
0.18591061 6.5275598 0.85464519
0.22201054 6.4123406 0.83969438
0.25391483 6.2285709 0.81577307
0.29463863 6.2803788 0.82279348
0.4055607 7.6418457 1.0018132
0.44980347 7.5946732 0.99596286
0.49497122 7.5700035 0.99310273
0.48350585 6.7578359 0.88675696
0.50290465 6.471034 0.84944493
0.49724391 5.9273682 0.77833104
0.52123594 5.7869415 0.76026011
1.0012255 10.399589 1.3683031
0.76214659 7.4381566 0.97880197
0.79459339 7.312099 0.96281105
0.85200852 7.4164238 0.97724187
0.72020382 5.9473753 0.78392136
0.97489852 7.65622 1.0103936
1.0322306 7.7277336 1.0206642
0.91771799 6.5635276 0.86738592
0.94836926 6.4920392 0.85867542
0.83418787 5.4755144 0.72463816
1.0072998 6.3496709 0.84138447
1.0322012 6.2582593 0.83007389
0.9920783 5.7934623 0.76910055
1.113083 6.2685509 0.83319402
1.084622 5.8978705 0.78470141
1.2440447 6.5388379 0.8711561
1.2466445 6.3403969 0.84567469
1.2843412 6.3267984 0.84489471
1.3381776 6.3906131 0.85451519
1.4694092 6.8087268 0.91171831
1.4978207 6.7395735 0.90365785
3.2993112 14.425956 1.9387741
1.5043689 6.3973503 0.86010551
1.5042312 6.2251225 0.83813429
1.6976354 6.8412838 0.92263889
3.6097658 14.173456 1.9161528
3.6921537 14.133773 1.9138128
1.8430237 6.8826246 0.93264943
1.6845078 6.1397166 0.83319402
1.8790638 6.6876721 0.90924817
1.6443359 5.7174211 0.7784611
2.0119364 6.837224 0.93290943
2.065567 6.8636775 0.93823975
1.94611 6.3258638 0.86621583
1.7752315 5.6469693 0.77456087
4.4702806 13.919765 1.9153728
4.5556064 13.892075 1.9153728
2.3802619 7.1111236 0.98166209
2.1510975 6.2979069 0.8710261
4.8412108 13.893879 1.9275935
4.9891186 14.040491 1.9521648
2.4368701 6.7270861 0.93654966
2.6017387 7.0468545 0.98335218
2.3771389 6.3189759 0.88363677
2.5808609 6.7347903 0.94409007
2.4285474 6.2228255 0.87427628
3.3623154 8.4616127 1.1922735
3.3933501 8.389349 1.1849931
2.5351288 6.1587329 0.87167615
3.4450979 8.2254438 1.1677022
3.5091066 8.2360764 1.1722524
3.5769234 8.2544184 1.1779728
3.6279039 8.233223 1.1781027
3.6682191 8.1881866 1.1748526
3.7142825 8.1565008 1.1735525
3.7730057 8.1524534 1.1762826
3.8191593 8.1210737 1.1751126
3.8736196 8.1073275 1.1765426
3.9349818 8.1074905 1.1800529
3.9929845 8.100091 1.182523
4.0572581 8.1046963 1.1868132
4.125782 8.1167707 1.1922735
4.198698 8.1362391 1.1989039
4.2867312 8.1832209 1.2096945
4.3694463 8.2180462 1.2187949
3.3099267 5.7896624 0.87284619
3.3424046 5.7640982 0.87206614
3.374191 5.7374983 0.8711561
3.4250767 5.7430849 0.87518632
3.4356225 5.6812363 0.86894596
4.536665 5.8396769 0.96801138
11.507654 13.399719 2.3143644
11.562982 13.298181 2.3090341
11.620118 13.199446 2.304224
11.631618 13.050179 2.2905731
11.67959 12.943231 2.2843328
11.713981 12.822277 2.2756224
11.750695 12.705029 2.2675619
11.79048 12.592159 2.2602816
11.816362 12.465609 2.250531
11.844571 12.342793 2.2414305
11.890372 12.239304 2.2358401
11.920752 12.120872 2.2275198
11.953625 12.006044 2.2198493
11.998913 11.90454 2.214649
12.01862 11.778643 2.2048986
12.067157 11.681918 2.2006083
12.107079 11.577504 2.1948879
12.119503 11.447851 2.1843574
12.142395 11.329305 2.1759069
12.188351 11.233086 2.1717467
12.207921 11.113368 2.1630363
12.251551 11.016376 2.158746
12.281107 10.907415 2.1521156
12.309789 10.798509 2.1454854
12.336847 10.689012 2.1387248
12.374329 10.589261 2.1339147
12.392118 10.473454 2.1258543
12.422656 10.369264 2.1201339
12.453148 10.265725 2.1145437
12.476688 10.157196 2.1079133
12.510957 10.058084 2.1032331
12.52895 9.9466066 2.0959525
12.566335 9.8511925 2.0920525
4.1821628 3.2374778 0.69187635
3.9553754 3.0233018 0.65118414
3.9857237 3.0079339 0.65313429
4.0168266 2.9928992 0.65521437
4.0079584 2.9482217 0.65079415
4.0051126 2.9084268 0.64741397
4.0664001 2.9149897 0.65443432
4.080163 2.8871205 0.65378428
4.1010528 2.8643017 0.65430433
4.1234488 2.8424604 0.65508437
4.1326141 2.8115289 0.65378428
4.1456714 2.7833555 0.65313429
4.1593652 2.7556756 0.65261424
4.1662364 2.7235923 0.65105414
4.1753702 2.6931407 0.6498841
4.1926532 2.6680026 0.6500141
4.2114639 2.6438081 0.6504041
4.2200198 2.6132197 0.64923406
4.2351284 2.5867603 0.64910406
4.2526197 2.5617483 0.64936405
4.2520614 2.5259855 0.64689392
4.2666249 2.4993465 0.64676392
4.2913251 2.4785745 0.64819402
4.3142076 2.4566123 0.64936405
4.3724313 2.4543593 0.65586442
4.3943491 2.4313242 0.65690446
4.4126668 2.4062138 0.65742451
4.4299684 2.3805008 0.6578145
4.449749 2.3560576 0.65859455
4.467638 2.3305445 0.6591146
4.4836183 2.3039939 0.65937459
4.4950166 2.2750964 0.6589846
4.4973555 2.2417231 0.65729451
4.4976745 2.2075331 0.65534437
4.5057783 2.1773062 0.65456432
4.5342746 2.1568582 0.65677446
4.583343 2.1458106 0.66197473
4.611733 2.1247001 0.66418487
4.6436477 2.1049588 0.666915
4.6782098 2.0861168 0.67003518
4.7081747 2.0649385 0.67250532
4.718935 2.0352256 0.67224532
4.7422886 2.0108769 0.67380542
4.7554531 1.9821224 0.67393541
4.7730303 1.9551609 0.67471546
4.7950554 1.9299092 0.67614549
4.8215599 1.9062833 0.67822564
4.8470306 1.8820456 0.68017572
4.87887 1.8600392 0.68303591
4.9041204 1.8352802 0.684986
4.9264579 1.809256 0.68654609
4.9449291 1.7816821 0.68758613
4.9286571 1.7417275 0.68381596
4.9673576 1.7211908 0.68771613
5.0012965 1.69865 0.69096631
15.468512 5.1476774 2.1359947
15.524317 5.060657 2.139375
1.2629155 0.40332329 0.17223816
1.2540097 0.3920182 0.17067808
1.253547 0.38344672 0.17028806
1.2425768 0.37177101 0.16846795
1.2391245 0.36247036 0.16768791
1.2317916 0.35213658 0.16638784
1.2348841 0.34483835 0.16651785
1.2331502 0.33621207 0.16599782
1.2342317 0.32838452 0.16586782
1.238143 0.32130301 0.16612783
1.242975 0.3144289 0.16651785
1.2554711 0.30940443 0.16794793
1.2583101 0.30192637 0.16807793
1.260139 0.29419985 0.16807793
1.2677221 0.28777832 0.16885798
1.2723688 0.28063452 0.169248
1.2730973 0.27261466 0.16911799
1.2737752 0.26459646 0.16898799
1.2714866 0.25599355 0.16846795
1.2701138 0.24761827 0.16807793
1.2677118 0.23908591 0.16755791
1.2662284 0.23076999 0.16716789
1.2656676 0.22265294 0.16690788
1.2699426 0.2153797 0.1672979
1.2771118 0.20854126 0.16807793
1.2822855 0.20131564 0.16859797
1.284477 0.19359154 0.16872796
1.286622 0.18584807 0.16885798
1.2906847 0.17835675 0.169248
1.2897887 0.17017479 0.16898799
1.2868735 0.16176355 0.16846795
1.2848883 0.15351197 0.16807793
1.2818651 0.14517944 0.16755791
1.28076 0.13710056 0.1672979
1.2865098 0.12973604 0.16794793
1.2793846 0.1210935 0.16690788
1.2830665 0.11350273 0.1672979
1.2916443 0.1062771 0.16833796
1.2962269 0.098650083 0.16885798
1.2987859 0.090832777 0.16911799
1.2923923 0.082421184 0.16820794
1.3007927 0.07494472 0.169248
1.2933064 0.066555344 0.16820794
1.2837852 0.058171216 0.16690788
1.2860997 0.050370265 0.16716789
1.2774657 0.042184819 0.16599782
1.2836474 0.034504581 0.16677786
1.2441828 0.025811305 0.16157758
1.2264724 0.017918808 0.15923746
19.017654 0.15827829 2.492084
1.2184635 8.5297186e-05 0.13488403
1.15782 -0.0070571089 0.1281056
19.085806 -0.222936 2.1328583
19.093023 -0.34019914 2.1338582
19.12833 -0.45824844 2.1380808
19.154957 -0.57650489 2.1414146
19.183836 -0.6952132 2.1450815
19.243748 -0.81564313 2.1523046
19.26816 -0.93514943 2.1556382
19.308697 -1.055908 2.160861
19.33856 -1.1765957 2.1649725
19.354774 -1.2968265 2.1676395
43.294853 -3.1669989 4.8525701
43.319187 -3.4361269 4.8575706
43.353729 -3.7066884 4.8639045
43.369755 -3.9762609 4.8683491
43.646214 -4.2718186 4.9022417
43.569752 -4.5344033 4.8966856
43.637917 -4.8123312 4.9075756
43.659889 -5.086092 4.913465
43.652519 -5.356914 4.9162431
43.68388 -5.6330476 4.9235768
43.691826 -5.9068384 4.9284663
44.208759 -6.2531676 4.9910278
44.197086 -6.5283756 4.9941397
44.289997 -7.3775311 5.0191417
44.48774 -7.6913028 5.0468111
44.464165 -7.9685121 5.0495892
44.563938 -8.2689276 5.0665908
44.661873 -8.8553734 5.0897045
44.759556 -9.1605291 5.1071506
44.731678 -9.4411526 5.1104841
50.013039 -10.876729 5.7215443
45.267063 -10.135935 5.1854916
45.275684 -10.430005 5.1937146
47.802547 -11.32139 5.4915218
45.331615 -11.030403 5.2152724
45.712688 -11.719123 5.2752781
45.674522 -12.008487 5.2792788
45.799572 -12.342299 5.302392
45.818775 -12.649533 5.3135042
45.771854 -12.939355 5.3171711
46.003773 -13.310278 5.353508
46.096577 -13.644198 5.3739548
46.348713 -14.028698 5.4132919
46.367149 -14.345428 5.4256263
46.351215 -14.652724 5.4341826
46.50349 -15.01533 5.4627409
46.781414 -15.422668 5.506412
46.664238 -15.702133 5.5038562
46.711765 -16.037861 5.5209689
46.819767 -16.396769 5.545527
46.836205 -16.725853 5.5595284
46.649788 -17.307642 5.5621953
46.754662 -17.67367 5.5875311
46.614754 -18.277651 5.5971985
46.46019 -18.546749 5.5921984
35.565292 -17.331501 4.4224167
35.199085 -17.421124 4.39008
34.233746 -17.205675 4.2827363
33.977043 -17.338615 4.2638454
33.635292 -17.425171 4.2342868
33.405472 -17.566933 4.2188411
33.172558 -17.705128 4.2030616
32.740837 -17.73369 4.1620579
32.217712 -17.706892 4.1092749
32.041622 -17.866976 4.1007185
31.833645 -18.007952 4.0881615
31.879433 -18.292957 4.1083856
31.795792 -18.505219 4.112164
31.60462 -18.654503 4.1021628
31.261032 -18.71129 4.072382
31.02669 -18.830566 4.0568252
30.662565 -18.86799 4.0242662
30.447561 -18.994236 4.0112653
30.078457 -19.021355 3.9779284
29.86747 -19.145489 3.9654827
29.560257 -19.205488 3.940258
29.335613 -19.316549 3.9260345
28.998295 -19.350561 3.8966982
28.78599 -19.465221 3.8841414
28.552053 -19.563406 3.8686955
28.241262 -19.60618 3.842804
27.978176 -19.679043 3.8233576
27.752493 -19.775948 3.8090229
27.454157 -19.818476 3.7846873
26.95014 -19.96224 3.7486837
26.742085 -20.063412 3.7367935
5.7281256 -4.6958194 0.82684094
5.748148 -4.7714982 0.83395272
5.737783 -4.8226624 0.83673078
5.7095976 -4.859066 0.83695304
5.7888498 -4.9880629 0.85306573
5.7843471 -5.0463529 0.85695499
5.7778563 -5.1034589 0.86062205
5.7197623 -5.1149688 0.85662162
5.7398443 -5.1966538 0.86440021
5.7422862 -5.2633333 0.86962295
5.5408616 -5.1416526 0.84384263
25.746204 -24.183514 3.9482589
25.950947 -24.67728 4.00282
25.903576 -24.936674 4.0190434
55.498898 -56.807686 8.8787432
55.128582 -57.125694 8.8754101
54.766743 -57.452091 8.8737431
54.443848 -57.819611 8.8787432
54.143555 -58.212257 8.8878555
53.701977 -58.452633 8.8740759
52.37965 -58.436771 8.7733994
50.800938 -58.094372 8.6277189
8.1572065 -9.6832237 1.4143431
8.1109858 -9.749136 1.4166766
43.401764 -53.484375 7.7002945
43.272888 -53.99939 7.7360754
42.716877 -53.980999 7.6957383
42.08012 -53.852116 7.6403995
1.559127 -2.0218005 0.28412092
1.5382605 -2.0202618 0.28256521
1.514485 -2.0145721 0.28045389
1.48906 -2.0062742 0.27800921
1.4743714 -2.0121672 0.27756473
1.4526743 -2.0082946 0.27578679
1.4368579 -2.0123184 0.27512005
1.4233382 -2.0194726 0.27489778
1.41092 -2.028168 0.27489778
1.4001372 -2.0392447 0.27523115
1.3892713 -2.0502651 0.27556452
1.3976655 -2.0901377 0.27978715
1.4121928 -2.1401417 0.28534326
1.3968648 -2.1454358 0.28489879
1.3825996 -2.1522944 0.28467655
1.3693674 -2.1607373 0.28467655
1.361354 -2.1775243 0.28578776
1.3464018 -2.1832991 0.28545439
1.3562303 -2.2297218 0.29045489
1.3312714 -2.2192554 0.28801021
1.3363593 -2.2590251 0.29212171
1.3059412 -2.2388582 0.28845468
1.2941622 -2.2502747 0.28889918
1.2857246 -2.2676814 0.29012153
1.2785772 -2.2876711 0.29167724
1.2693136 -2.3041768 0.29278845
1.2594211 -2.3197811 0.29378855
1.2493848 -2.3353505 0.29478863
1.2535775 -2.3781338 0.29923353
1.2481266 -2.4034181 0.30145597
1.2057341 -2.3570673 0.29467753
1.1908013 -2.363534 0.29456639
1.1678798 -2.3538833 0.29245508
24.250713 -50.390827 6.2515965
23.878521 -50.406654 6.2352614
23.538126 -50.486469 6.2271495
15.154875 -33.575745 4.117609
22.000109 -50.380424 6.145586
20.53694 -49.494503 5.9903483
20.221979 -49.592899 5.9871259
9.0916634 -34.409424 3.9781506
8.6851845 -34.583946 3.985707
8.4128332 -34.391392 3.9574821
8.1127825 -34.069191 3.9145889
7.8997722 -34.101868 3.9126997
7.6936536 -34.164242 3.9143667
7.00456 -34.013897 3.8816967
3.6185613 -20.052193 2.2769835
3.4357171 -20.473406 2.3198767
3.2992527 -20.427387 2.3123202
3.1522002 -20.307798 2.296541
3.0262165 -20.317913 2.2955408
2.8906801 -20.260342 2.2869844
2.7602642 -20.233387 2.2819839
2.6397839 -20.278522 2.2852066
2.5299799 -20.412689 2.2985411
2.3974769 -20.366634 2.2916515
2.2207999 -19.917738 2.2395353
2.0695021 -19.655243 2.2085323
1.9668005 -19.848551 2.2288675
1.849757 -19.911701 2.2346461
1.7072768 -19.689016 2.2084212
1.5869141 -19.705065 2.2090878
1.4684831 -19.748127 2.2128661
0.18907948 -2.7812648 0.31034574
0.17262602 -2.7922916 0.31145695
0.15654364 -2.812151 0.31356826
0.13963136 -2.8200068 0.31434613
0.12210902 -2.815846 0.3137905
0.10501503 -2.8215079 0.31434613
0.088167213 -2.8369989 0.31601295
0.07095816 -2.8454344 0.31690192
0.053535402 -2.8478036 0.31712416
0.035855494 -2.8321788 0.31534621
0.018376082 -2.8174388 0.3136794
0.0010845162 -2.8115354 0.31301266
-0.016150339 -2.8085082 0.31267929
-0.033324856 -2.8033872 0.31212369
-0.050401803 -2.7961745 0.31134582
-0.067510322 -2.7938256 0.31112358
-0.08462178 -2.7923653 0.31101245
-0.10178977 -2.7927868 0.31112358
-0.11883998 -2.7901237 0.31090134
-0.13576506 -2.7853713 0.31045684
-0.15263629 -2.7805166 0.31001237
-0.16957371 -2.777544 0.3097901
-0.18661322 -2.7764511 0.3097901
-0.20415309 -2.782192 0.31056798
-0.22255611 -2.7977288 0.31245705
-0.24005704 -2.8002713 0.31290153
-0.25777897 -2.8046834 0.31356826
-0.2763384 -2.8168962 0.31512398
-0.30143446 -2.8902712 0.32356924
-0.3173115 -2.8715744 0.32168019
-0.33527011 -2.8725348 0.32201353
-0.35180005 -2.8615458 0.32101345
-0.37125778 -2.8741181 0.32268026
-0.38369402 -2.8333766 0.3183465
-8.6763945 -61.342411 6.9258847
-10.002443 -64.958893 7.3475928
-9.9657001 -62.18108 7.0401182
-1.4933568 -8.9618673 1.014526
-8.2824602 -47.907394 5.4348493
-10.959211 -61.15366 6.9454422
-11.341308 -61.123375 6.9497762
-12.067919 -60.865536 6.9367747
-16.891726 -67.612656 7.791081
-18.870735 -66.754745 7.7552996
-19.266445 -66.590919 7.7498546
-10.398113 -34.353199 4.0119319
-8.1772795 -26.429535 3.0920637
-10.806615 -34.184158 4.0073757
-8.4994678 -26.322468 3.0915079
-11.1808 -33.914001 3.9914854
-8.590167 -25.527643 3.0102777
-11.816543 -34.416233 4.0673819
-11.827457 -33.771862 3.9997084
-12.172153 -34.084255 4.0454907
-12.427295 -34.135933 4.0606031
-12.604367 -33.972385 4.0502687
-12.858612 -34.016186 4.064826
-10.344677 -26.865854 3.2176316
-10.510779 -26.805574 3.218076
-10.682426 -26.759037 3.2202985
-13.373054 -32.911453 3.9708166
-13.543604 -32.753471 3.9617047
-13.571292 -32.258446 3.9118109
-13.709933 -32.036602 3.8950315
-13.889988 -31.914516 3.8904755
-14.200971 -32.089516 3.9223673
-14.563547 -32.370644 3.9675941
-14.771813 -32.302368 3.9702611
-13.774841 -29.639872 3.65323
-13.986154 -29.617699 3.6610084
-14.222642 -29.646017 3.6752319
-14.43867 -29.628767 3.6840107
-14.717617 -29.736458 3.7085686
-14.935946 -29.717518 3.7175696
-9.7110405 -19.029261 2.3874388
-9.780077 -18.877544 2.3758821
-9.9355021 -18.892826 2.3854387
-9.9833889 -18.704378 2.3693259
-10.041174 -18.537905 2.3559911
-10.167176 -18.498589 2.3588805
-10.093671 -18.100811 2.3159873
-10.337636 -18.273819 2.3462124
-10.472814 -18.250559 2.3514352
-15.060482 -23.49448 3.1190662
-15.203816 -23.400795 3.1189551
-12.8462 -19.508825 2.6104608
-12.873544 -19.29158 2.5919032
-13.131953 -19.419691 2.6199062
-13.362644 -19.501896 2.6420193
-13.497356 -19.441578 2.6450198
-13.658702 -19.418549 2.6532426
-13.992706 -19.636263 2.6946912
-13.13108 -18.18984 2.5071173
-13.226019 -18.086466 2.5040059
-16.144049 -21.795149 3.0313909
-16.273302 -21.690115 3.0306132
-16.627346 -21.604559 3.046948
-14.09458 -17.855745 2.5422318
-14.24731 -17.823269 2.5500102
-14.357028 -17.736284 2.5501215
-21.355074 -26.053469 3.765352
-21.76333 -26.221724 3.8089118
-21.775478 -25.91118 3.7831316
-22.204546 -26.094975 3.8298028
-22.01981 -25.558435 3.770797
-22.221947 -25.475267 3.7785754
-28.44976 -32.213951 4.8042321
-14.26034 -15.752694 2.3745487
-45.999294 -50.192921 7.6112857
-20.468603 -21.791092 3.3415325
-20.51016 -21.568583 3.3266423
-20.56699 -21.364288 3.3145299
-20.572844 -21.109575 3.294528
-20.620319 -20.900173 3.2815266
-20.656876 -20.681845 3.2670808
-20.760071 -20.531647 3.2634137
-20.809599 -20.329567 3.2515237
-20.770185 -20.043459 3.2260768
-20.852495 -19.877239 3.2198539
-20.873497 -19.654215 3.2044079
-20.929665 -19.466208 3.1946292
-15.063793 -13.83882 2.2858732
-20.87112 -18.939421 3.1499581
-15.298346 -13.711959 2.295763
-15.333082 -13.574352 2.288429
-20.9566 -18.325035 3.1113989
-21.010735 -18.146084 3.1028423
-21.032463 -17.940716 3.08973
-21.072227 -17.752417 3.0795069
-21.073805 -17.533794 3.0639498
-21.101908 -17.33917 3.0525041
-21.136135 -17.151127 3.0421698
-21.123096 -16.926651 3.0252793
-21.194607 -16.771439 3.0207233
-21.233686 -16.591511 3.0117223
-21.24618 -16.392307 2.9991655
-21.283909 -16.214058 2.990387
-21.29722 -16.018639 2.9783857
-21.324898 -15.835519 2.9686069
-21.367962 -15.665004 2.9611619
-21.395247 -15.484069 2.9517164
-21.40818 -15.294149 2.9404931
-21.432587 -15.11382 2.9310477
-21.489845 -14.957613 2.9262695
-21.475554 -14.752879 2.9119349
-21.513027 -14.585136 2.9048231
-21.564943 -14.427991 2.8998225
-21.581743 -14.248308 2.8902659
-21.609642 -14.077103 2.8823764
-21.632072 -13.903404 2.8739309
-21.656548 -13.732092 2.8659303
-21.690689 -13.567855 2.859374
-21.700796 -13.389627 2.8498175
-21.705292 -13.209205 2.8397055
-21.7314 -13.043042 2.8325937
-21.76997 -12.885157 2.8272598
-21.779099 -12.710758 2.818259
-21.809305 -12.549623 2.8121471
-21.790815 -12.361625 2.7999237
-21.774311 -12.176268 2.7881448
-16.101734 -8.8746872 2.0544059
-16.168112 -8.7823629 2.0559618
-16.314568 -8.7327089 2.0677407
-16.375755 -8.6366129 2.0687408
-16.39934 -8.5208492 2.0650737
-24.450319 -12.514463 3.0698392
-16.388193 -8.2612495 2.050739
-16.122574 -8.0036526 2.0112908
-26.05328 -12.735313 3.2411895
-16.267038 -7.8280435 2.0171802
-16.398291 -7.767652 2.0275145
-16.380791 -7.6366515 2.0195136
-28.880827 -13.249566 3.5515532
-29.171728 -13.166965 3.5773335
-29.994955 -13.317623 3.6682312
-46.992424 -20.520588 5.7322121
-17.598131 -7.5560355 2.1400812
-17.439991 -7.3617206 2.1153009
-45.041679 -18.689247 5.4512954
-23.751673 -9.6845903 2.866708
-45.247337 -18.126978 5.4488506
-24.183821 -9.1752815 2.8908217
-23.50206 -8.752018 2.8028131
-23.274359 -8.5049696 2.7693653
-12.97664 -4.6515779 1.5400221
-24.927671 -8.7639475 2.953161
-38.009689 -13.102142 4.4940901
-37.258949 -12.588096 4.3960805
-50.173035 -16.609129 5.9081182
-38.515732 -12.488264 4.5259824
-38.029938 -12.073368 4.4600868
-36.685436 -11.399195 4.2940707
-38.315956 -11.648557 4.4765329
-38.287636 -11.383779 4.4649763
-37.854801 -11.002727 4.4065261
-22.117128 -6.2812696 2.5694566
-22.164831 -6.1480999 2.5705678
-51.22625 -13.872167 5.9327874
-51.747738 -13.334005 5.9737911
-52.766548 -11.543472 6.0382419
-53.129967 -11.28183 6.0718007
-53.100853 -10.935571 6.0606885
-9.8303862 -0.97375226 1.1032014
-9.8411236 -0.91387564 1.103757
-4.5337305 -0.39260492 0.50747621
-4.3805304 -0.35224888 0.49003005
-4.423243 -0.32838678 0.49458605
-4.4380641 -0.30211952 0.49603066
-4.4695911 -0.27672926 0.49936432
-4.4692202 -0.2491882 0.49914205
-4.4766212 -0.22205721 0.49980879
-4.4659848 -0.19406547 0.49847534
-4.4641123 -0.16654743 0.49814197
-4.4849162 -0.13977517 0.50036442
-4.5125141 -0.11292896 0.50336468
-4.521071 -0.08538989 0.50425369
-4.5344281 -0.057814155 0.50569826
-4.5267472 -0.029936571 0.50480926
-4.5119386 -0.0021510562 0.50314248
-4.5923643 0.025977157 0.51214331
-4.6437926 0.054756641 0.51792169
-10.164087 0.18142109 1.1353157
-10.131984 0.24304658 1.1318709
-10.084606 0.30383703 1.1267593
-9.9649401 0.42269003 1.1138692
-9.845027 0.47814515 1.1007568
-9.9054165 0.5420149 1.1078686
-9.8552828 0.59994823 1.1026459
-9.8861208 0.66273195 1.1065351
-9.9889145 0.73120821 1.1185362
-10.21309 0.81063437 1.1442055
-10.166336 0.86973035 1.1395383
-10.161798 0.93218416 1.1396495
-10.093575 0.98842049 1.1326488
-10.039872 1.0453978 1.1273149
-10.018452 1.1053478 1.1256481
-10.04998 1.1712832 1.1299819
-10.022876 1.2305061 1.1277595
-10.046677 1.2960486 1.1313154
-10.048384 1.3590009 1.1324265
-10.063472 1.4239711 1.1350935
-10.088956 1.4907748 1.1389828
-10.152304 1.5638428 1.1472057
-10.193544 1.6342841 1.1529841
-10.202929 1.7000654 1.1552066
-10.25596 1.773641 1.1624295
-10.231189 1.834083 1.1608738
-10.280325 1.908066 1.1677634
-10.347479 1.9862791 1.1767642
-10.398461 2.0622952 1.1839871
-29.398624 6.0169849 3.3539782
-30.027235 6.3378329 3.4300969
-10.721934 2.3323293 1.2255468
-10.644384 2.3839602 1.2183238
-28.765631 6.6268945 3.2993062
-28.781483 6.8167844 3.3058624
-28.923552 7.0381317 3.3270867
-27.572401 6.8888497 3.1764052
-27.455486 7.0388994 3.1678488
-27.283945 7.1736231 3.1530695
-27.410221 7.3869262 3.1728494
-27.474546 7.5853863 3.1856284
-27.666569 7.8214073 3.2134089
-27.556959 7.9733424 3.2062972
-29.885111 8.8459892 3.4835465
-34.519657 10.448494 4.0313783
-34.615349 10.709744 4.0501575
-34.70723 10.971962 4.0687151
-34.819889 11.243037 4.0899396
-34.985264 11.533952 4.117609
-35.018387 11.783579 4.1299434
-5.194016 1.7839342 0.61270881
-5.2007933 1.8220114 0.61482012
-5.211978 1.8619099 0.61748701
-5.1929851 1.8911352 0.61659807
-5.1710339 1.9191607 0.6153757
-29.087379 10.995558 3.4756567
-29.141788 11.220963 3.490325
-29.555359 11.588927 3.5483305
-32.71138 13.058487 3.9369245
-28.947802 11.762574 3.4924362
-28.861309 11.934277 3.4907694
-28.635473 12.047172 3.4723232
-29.90045 12.795824 3.6352282
-27.897219 12.345798 3.4097614
-27.670492 12.449058 3.3913152
-27.612566 12.627285 3.3936489
-27.542677 12.800244 3.3946488
-27.460024 12.967304 3.3942044
-28.236551 13.546488 3.500437
-29.651102 14.449553 3.6867888
-29.3018 14.502501 3.654341
-29.182959 14.667293 3.6506741
-28.846323 14.720505 3.6197822
-28.754576 14.896769 3.6196711
-28.579945 15.029444 3.6092255
-39.267742 20.958158 4.9755821
-39.288712 21.280115 4.9946952
-39.781868 21.863977 5.0743694
-40.251953 22.445002 5.1518216
-8.2881966 4.6891208 1.0634197
-40.687214 23.346794 5.2438307
-40.757927 23.72098 5.2716112
-40.811882 24.088821 5.2976136
-7.9958129 4.7864828 1.0406398
-40.979626 24.870899 5.3586197
-41.693821 25.655706 5.4725199
-7.8785286 4.9154906 1.0369728
-42.012531 26.568041 5.5567503
-41.99765 26.920788 5.57653
-42.145023 27.38155 5.6183119
-7.6658802 5.0483336 1.0249715
-7.5603595 5.0456309 1.0149705
-42.983212 29.065046 5.8004408
-7.4716382 5.1200533 1.0114146
-7.4643335 5.2508059 1.0190821
-7.5760398 5.3991613 1.0388618
-7.8086834 5.6374946 1.0755321
-7.7450657 5.6641846 1.0715317
-44.997799 33.329758 6.2599306
-6.9571257 5.2202539 0.97118849
-6.886982 5.233983 0.96585459
-6.8571 5.2779608 0.96618795
-46.266216 36.060703 6.5576262
-46.465328 36.676399 6.6176324
-46.713726 37.339943 6.6855278
-47.147282 38.162964 6.7809815
-47.491001 38.925911 6.8646564
-47.914291 39.766853 6.9609995
-6.1220021 5.1455426 0.89284742
-48.673828 41.416409 7.1446843
-7.2013392 6.2049408 1.0615307
-49.461311 43.144005 7.337481
-10.60636 9.3676176 1.5809151
-11.241225 10.559452 1.7231512
-11.030609 10.619411 1.7107056
-10.726841 10.583673 1.6835918
-10.261597 10.249691 1.6203634
-10.553526 10.671409 1.6768134
-10.753035 11.143366 1.7301519
-10.206701 10.840367 1.6634787
-10.429007 11.213515 1.7109278
-10.360071 11.41719 1.7224846
-10.352839 11.550845 1.7330412
-10.29758 11.63201 1.735708
-9.9008751 11.323163 1.6804804
-10.05922 11.647692 1.7194842
-9.9888525 11.710708 1.7197065
-9.9033623 11.755816 1.7173729
-8.8839312 10.678089 1.5518011
-8.7469473 10.645635 1.5392443
-8.9260817 11.424039 1.6196966
-8.7532396 11.788057 1.6403654
-12.944545 18.119471 2.4885597
-8.7963696 12.474437 1.7053717
-14.926766 21.728664 2.9462714
-14.449056 21.312321 2.8777092
-12.512515 18.70212 2.5146735
-12.372884 18.741222 2.5096731
-14.003869 21.497229 2.8673749
-12.355835 19.224375 2.5538995
-12.043387 18.993488 2.51334
-13.64006 21.806116 2.8745978
-13.518008 21.908852 2.8771536
-13.398824 22.016853 2.8804872
-12.924642 21.836676 2.8359272
-16.631258 28.496218 3.6878998
-12.803907 22.251186 2.8691528
-12.639674 22.280924 2.8629301
-12.569663 22.47776 2.8782649
-12.419991 22.533575 2.875598
-12.219823 22.495832 2.8611519
-21.153481 39.517178 5.0104742
-18.082855 34.285046 4.3327413
-27.161581 52.27232 6.5854068
-23.384483 58.370239 7.0295615
-23.042995 58.556095 7.0347843
-22.776413 58.937397 7.0636764
-21.26503 60.482113 7.1672421
-17.689169 62.281246 7.2380266
-1.9123904 6.8962069 0.7988382
-1.8690009 6.9039741 0.79839373
-1.8250804 6.9095469 0.79772699
-16.075283 62.385757 7.2021341
-1.9357405 9.1187668 1.0409731
-1.8036605 9.0414524 1.0295275
-1.7545587 9.0855255 1.0333056
-1.5483177 8.5821619 0.97374427
-1.5038142 8.6384964 0.97907811
-1.4239664 8.4878044 0.96096522
-1.4040329 8.6955433 0.98352301
-1.3491269 8.6941738 0.9824118
-1.2831614 8.6177549 0.97285527
-1.2259071 8.5949669 0.96941048
-1.3243068 9.7100935 1.0944228
-1.1424125 8.7788668 0.98852348
-1.1863418 9.5747166 1.0774211
-1.1255944 9.5650368 1.0755321
-1.1398087 10.22561 1.1490948
-0.60829645 5.7819157 0.64871234
-1.0157093 10.253661 1.1507617
-0.94624567 10.189443 1.142872
-0.90930098 10.490103 1.1759864
-0.63214356 7.8545537 0.87973505
-0.5298925 7.1318316 0.79828256
-0.44045994 6.4656854 0.72327518
-0.40164083 6.4821525 0.72483093
-0.36319095 6.5083089 0.72749782
-0.31248367 6.2940331 0.70327324
-0.27333876 6.283917 0.70193976
-0.30791572 8.2379313 0.92040569
-0.3059223 9.7902374 1.0938672
-0.17691065 7.0538664 0.78761488
-0.12053575 6.3672295 0.71071839
-0.06016 4.7162795 0.52603358
-0.047935981 7.1881008 0.80239409
-0.0034195594 6.5343347 0.72927582
0.038174458 6.8065324 0.75972325
0.081858829 6.9711299 0.77816951
0.17309876 9.6960783 1.0829772
0.17117795 7.1275711 0.79583788
0.21562538 7.1502266 0.79850483
0.24241501 6.6770201 0.74572188
0.27118552 6.3874612 0.71349645
0.30864003 6.3499417 0.70949608
0.35198948 6.4283066 0.71849698
0.43757004 7.1848869 0.8035053
0.49579158 7.3932743 0.82717431
0.50910717 6.9520006 0.77805835
0.51663452 6.5059047 0.72838682
0.53225118 6.2184262 0.69649482
0.54163879 5.9013219 0.66126913
1.6018739 16.362377 1.8369402
0.74762726 7.1782527 0.80561662
0.80102527 7.2584829 0.81517315
0.87348729 7.4933052 0.84217578
0.6332038 5.1549468 0.57937217
0.98545516 7.637754 0.85973305
0.82208955 6.0764856 0.6842714
0.93033534 6.5731745 0.74094361
0.9723925 6.5791402 0.74227709
1.0631043 6.9001331 0.77928072
0.98700672 6.154572 0.69560581
0.97903442 5.8739152 0.66449165
1.0572106 6.1116385 0.69216102
1.1630558 6.4865441 0.73549861
1.2737204 6.8613443 0.77894735
1.1753325 6.1213994 0.69560581
1.2151899 6.1257706 0.69693929
1.2932016 6.3158455 0.71949703
1.3300835 6.2990398 0.71849698
1.4172803 6.5141158 0.74405503
3.2377391 14.457622 1.6552557
3.3150113 14.388093 1.6495885
1.5406082 6.5023971 0.74583298
3.4633667 14.231419 1.6363649
1.6337752 6.5369959 0.75205582
1.7752823 6.9225092 0.79772699
1.6926458 6.4357185 0.74272156
4.315547 16.012354 1.8529418
1.7043216 6.1711373 0.71449655
3.1543756 11.156445 1.294998
2.0737953 7.1655116 0.83273041
1.8700844 6.3159685 0.73516524
1.8952724 6.2596688 0.7299425
1.8972239 6.1301947 0.7161634
4.6872869 14.825843 1.7372638
4.3442664 13.452915 1.5793593
5.0396895 15.285377 1.7982697
5.1688805 15.35966 1.8107154
5.3327327 15.530685 1.8347178
5.3579631 15.297887 1.8110487
2.279012 6.3800097 0.75616735
2.3130167 6.3518982 0.75450051
5.020916 13.531634 1.6124737
5.7518077 15.214776 1.8173827
3.3197541 8.6203518 1.0315278
3.3453774 8.530427 1.0231936
3.3854978 8.4792814 1.0195266
3.4243686 8.4261236 1.0156373
3.4573987 8.359952 1.0101923
3.492444 8.300107 1.0055251
3.5296226 8.2465429 1.0016359
3.5686553 8.1983042 0.99841338
3.6241198 8.1880674 0.99985796
3.6885633 8.1973963 1.0037472
3.7325928 8.1610527 1.0020804
3.7851107 8.143404 1.0027471
3.8358552 8.1218233 1.0029694
3.8937848 8.115159 1.0050807
3.9500351 8.1045151 1.0067475
4.0080647 8.0970488 1.0088588
4.072845 8.1024942 1.012637
4.1432629 8.1180706 1.0177486
4.2108245 8.1269102 1.0220823
4.3207412 8.2152691 1.0365282
4.4258151 8.2911835 1.0495296
3.2417624 5.7295108 0.73472077
3.3218656 5.7879524 0.74483287
3.3568177 5.766602 0.74472177
3.3921378 5.7458963 0.74472177
3.4058938 5.6891599 0.74005461
3.4438314 5.6732516 0.74072134
4.4865851 6.0562558 0.84139794
4.5886683 6.115263 0.8535102
4.6020541 6.0553408 0.84906536
4.6379099 6.0254145 0.8488431
4.6864018 6.0117364 0.85095441
4.7096548 5.9657059 0.84850973
31.848797 37.429436 5.493855
11.538835 13.392653 1.9752872
11.564612 13.257191 1.9657307
11.597058 13.130858 1.9575076
11.631042 13.007593 1.9497291
11.673287 12.894722 1.9435062
11.708544 12.77523 1.9362833
11.750887 12.664535 1.9303938
11.801158 12.563218 1.925949
11.815704 12.425035 1.9158368
11.862083 12.321514 1.9110587
11.89446 12.20437 1.9041691
11.930035 12.091539 1.8979462
11.946415 11.96045 1.8888342
11.989902 11.857572 1.8841671
12.018359 11.740722 1.8772775
12.052986 11.63087 1.8714992
12.081685 11.516238 1.864943
12.123178 11.414638 1.8604981
12.147145 11.297396 1.8534974
12.183303 11.192392 1.8484969
12.223783 11.092048 1.8442743
12.247211 10.977036 1.8376069
12.283083 10.874012 1.8329399
12.327129 10.778814 1.8296062
12.340387 10.657501 1.8218277
12.363964 10.546108 1.8157159
12.381319 10.430346 1.8088263
12.418347 10.331931 1.8049371
6.6544671 5.4672899 0.96163195
3.8121116 3.0540607 0.54481322
6.7765746 5.3617611 0.96485448
12.542277 9.7998924 1.778379
4.0289793 3.1078293 0.56759322
4.0297904 3.0691977 0.56503743
4.001688 3.0091672 0.55848122
4.0224705 2.9863343 0.55881459
4.0030489 2.9339793 0.55359185
4.0201712 2.9087789 0.55348074
4.0371346 2.8834791 0.55336964
4.064497 2.8655267 0.55470306
4.1032104 2.8552949 0.55759227
4.1345782 2.8396311 0.55948132
4.1617947 2.8209007 0.5608148
4.119555 2.7555208 0.55281401
4.1538014 2.7416906 0.55514759
4.1638842 2.7118123 0.55425858
4.1996732 2.6985712 0.55681437
4.2211881 2.675945 0.55748111
4.2223625 2.6405067 0.55548096
4.2790809 2.6395991 0.5608148
4.2544475 2.5884931 0.55548096
4.3085947 2.585355 0.56048143
4.3474674 2.5725372 0.56348175
4.2807732 2.497721 0.55281401
4.2960181 2.4714079 0.55281401
4.349999 2.4670689 0.55781448
4.3459725 2.4296596 0.55536979
4.3825574 2.4149411 0.55814785
4.4365897 2.4093525 0.56314838
4.4512897 2.3820848 0.56314838
4.4552741 2.3491635 0.5618149
4.4502034 2.3117011 0.55937022
4.4581113 2.2811818 0.55859238
4.4711375 2.2533371 0.55848122
4.4902201 2.2285118 0.55914795
4.5109525 2.2044101 0.56003696
4.5055881 2.1676395 0.55770338
4.5646076 2.1616518 0.56337059
4.6003036 2.1441021 0.56614864
4.6187925 2.1183214 0.56681538
4.6389499 2.0932119 0.56770438
4.6517057 2.0647085 0.56770438
4.6724839 2.0397067 0.56870443
4.6949563 2.015312 0.5699268
4.7227983 1.9930371 0.57181585
4.7505431 1.9704961 0.57370496
4.7717471 1.9450628 0.57481617
4.7992744 1.9220303 0.57670522
4.8220749 1.8969135 0.57803869
4.8336234 1.8672901 0.57803869
4.8589272 1.8428847 0.57970554
4.8887701 1.819973 0.58192796
4.9147797 1.7953999 0.5837059
4.8667674 1.7440799 0.57670522
4.9413576 1.7026874 0.58303922
5.0439606 1.669094 0.5927068
15.52859 5.034533 1.823939
15.509934 4.9235187 1.8181607
1.2406518 0.38481843 0.14388493
1.2325306 0.37401876 0.14266258
1.2338496 0.36616585 0.14255145
1.2332103 0.35775602 0.14221808
1.2325141 0.34936783 0.14188473
1.2384653 0.34286135 0.14232922
1.2443827 0.33629492 0.1427737
1.2454619 0.3283993 0.14266258
1.2503406 0.32149509 0.14299594
1.2551813 0.31454334 0.14332931
1.2599838 0.30754426 0.14366268
1.2589468 0.29911664 0.14332931
1.2636629 0.29205915 0.14366268
1.2537969 0.28167972 0.14232922
1.2496766 0.2727069 0.14166248
1.2639641 0.26771757 0.14310707
1.2665563 0.26015747 0.14321819
1.2603321 0.25082517 0.14232922
1.2706293 0.2447838 0.14332931
1.2662458 0.23588765 0.14266258
1.2666913 0.22793713 0.14255145
1.2690452 0.2203311 0.14266258
1.2644926 0.21155319 0.14199585
1.2696912 0.20442438 0.14244033
1.2719038 0.19678234 0.14255145
1.2721044 0.18882793 0.14244033
1.2752067 0.1812997 0.14266258
1.2762951 0.17347176 0.14266258
1.2773355 0.1656373 0.14266258
1.2822728 0.15828568 0.14310707
1.2743369 0.14936887 0.14210697
1.2742418 0.14143671 0.14199585
1.2760739 0.13371955 0.14210697
1.2758815 0.12578915 0.14199585
1.2786084 0.11814205 0.14221808
1.2832696 0.11063798 0.14266258
1.2819432 0.10260228 0.14244033
1.2855217 0.09495569 0.1427737
1.2801312 0.086660199 0.14210697
1.2756793 0.078496017 0.14155136
1.2572839 0.069613077 0.13944004
1.2566949 0.061847828 0.13932891
1.2600293 0.054265615 0.13966228
1.2583524 0.046458792 0.13944004
1.2606004 0.038799025 0.13966228
1.2558473 0.030938338 0.13910668
1.2560135 0.023232022 0.13910668
1.232283 0.015217178 0.13643974
1.2383159 0.0076960726 0.13710648
1.2674003 0.0025173833 0.11865524
1.2305564 -0.0051005688 0.11517324
1.1667894 -0.011985542 0.10915031
19.151041 -0.31736368 1.8094052
19.162666 -0.43518287 1.8107227
19.195461 -0.55378848 1.8141106
19.216574 -0.67242986 1.8164634
19.233971 -0.79122835 1.8185337
19.268534 -0.91111219 1.822298
19.309303 -1.0318218 1.8267211
19.355282 -1.1534214 1.8317089
19.378635 -1.2741867 1.8346262
0.91660249 -0.065726832 0.085717335
0.94000292 -0.073210135 0.087975934
43.183804 -3.6390886 4.0953903
43.235027 -3.9107177 4.1024485
43.422276 -4.1964245 4.1225877
43.463055 -4.4697056 4.1289868
43.43679 -4.7365212 4.1291752
43.578007 -5.0226765 4.1454558
43.656071 -5.3032985 4.1559019
43.651348 -5.5747247 4.1586308
43.669605 -5.849597 4.163713
44.04895 -6.1757736 4.2034264
44.076221 -6.4556031 4.2097316
44.071209 -6.7313395 4.2131195
44.523628 -7.080276 4.2604561
44.236736 -7.3132253 4.2372112
44.278362 -7.5995078 4.2455869
44.657272 -7.9469275 4.2865243
44.623329 -8.2236767 4.2880301
44.773491 -8.5357332 4.3074164
44.724182 -8.8110676 4.3077927
44.706348 -9.092864 4.3113689
44.732533 -9.3843813 4.3193679
45.147999 -9.7611361 4.3651986
45.303959 -10.086223 4.3861847
45.319824 -10.38202 4.3938079
45.383179 -10.690032 4.40623
45.390274 -10.986096 4.4133821
45.410896 -11.286491 4.42204
45.382626 -11.872636 4.433145
45.82774 -12.591934 4.4913979
45.801365 -12.887452 4.49648
45.757782 -13.178712 4.5000558
46.467724 -13.692511 4.5780716
46.294182 -13.950657 4.5693197
46.497902 -14.323846 4.5980229
46.397739 -14.605294 4.5968933
46.475006 -14.943653 4.6135507
46.787277 -15.361456 4.6538291
46.857124 -16.02401 4.6799912
46.860378 -16.34696 4.690249
46.809845 -16.652201 4.6953306
46.411037 -16.831846 4.6655927
47.382637 -17.513935 4.7740054
47.636707 -17.940836 4.8106132
47.554539 -18.243847 4.8135309
42.141338 -17.668407 4.3183327
42.010155 -17.917276 4.3160744
40.975132 -17.773773 4.2208366
40.428986 -17.832405 4.1757588
39.79829 -17.846718 4.1218348
39.238716 -17.885767 4.0751567
38.350456 -17.765886 3.9941297
37.613804 -17.705753 3.9286304
36.044086 -17.237797 3.7756102
35.821224 -17.402079 3.763376
35.411118 -17.47221 3.7314734
35.07093 -17.572756 3.7069111
34.739731 -17.674305 3.68329
34.432491 -17.78479 3.6622097
34.11375 -17.886164 3.6399059
33.820557 -17.997864 3.6203315
33.522903 -18.104277 3.6002865
33.128319 -18.154612 3.5697954
32.797031 -18.235624 3.5460799
32.579601 -18.377337 3.5346928
32.209587 -18.430046 3.5067427
31.919382 -18.524889 3.4874506
31.589764 -18.593636 3.4638293
31.34429 -18.709049 3.4494307
31.029602 -18.780396 3.4274094
30.762745 -18.877748 3.4106581
30.456982 -18.948347 3.3895779
30.204571 -19.049366 3.3744264
29.900904 -19.115294 3.3535345
