# .PCD v0.7 - Point Cloud Data file format
VERSION 0.7
FIELDS x y z
SIZE 4 4 4
TYPE F F F
COUNT 1 1 1
WIDTH 1450
HEIGHT 1
VIEWPOINT 0 0 0 1 0 0 0
POINTS 1450
DATA ascii
8.0366869 0.9949668 0.17784649
8.0535631 0.94691974 0.17808837
8.064189 0.89803934 0.17819831
8.108325 0.85261792 0.1790559
8.117383 0.80324388 0.17914386
8.1012535 0.75148278 0.17868207
8.1196575 0.70296711 0.17898993
8.1148481 0.65241182 0.17879203
8.0818081 0.59987062 0.17797843
8.0584059 0.54843813 0.1773847
8.0626183 0.49904409 0.1774067
8.0775061 0.45023075 0.17767057
8.0950947 0.40140191 0.17800041
8.1063957 0.35211399 0.17819831
8.067441 0.30084109 0.17729674
8.087122 0.25189433 0.17769256
8.0845175 0.20216806 0.1776046
8.0816078 0.15248324 0.17751664
8.0573997 0.10257509 0.17696691
8.0118885 0.052831884 0.1759554
6.6479487 -0.010407182 0.018530728
6.6367598 -0.051114399 0.018500011
2.4377339 -0.034147751 0.0067742062
2.445477 -0.049263749 0.0067965463
2.4531257 -0.06447605 0.0068188864
2.4636784 -0.079880483 0.0068496042
2.4671388 -0.095148921 0.0068607745
2.4804945 -0.11090686 0.0068998695
2.4887562 -0.1265796 0.0069250022
2.4889309 -0.14190459 0.0069277948
2.6297326 -0.16608918 0.0073243333
2.7503734 -0.19062848 0.0076650209
6.4865737 -0.48870349 0.018131398
6.4754791 -0.52784598 0.018109057
6.4601641 -0.56652176 0.018075548
6.4456148 -0.60512286 0.018044829
6.4397902 -0.64446205 0.018039245
6.4406867 -0.68449163 0.018053208
6.4145031 -0.72154111 0.017991772
6.4169064 -0.76171064 0.01801132
6.4260039 -0.80280381 0.018050415
6.4159994 -0.84156817 0.018036453
6.4027891 -0.87983185 0.018014112
6.4091482 -0.92080742 0.018047621
6.4083228 -0.9608568 0.018061586
6.4032946 -1.0003136 0.018064378
6.3763075 -1.0362183 0.018005734
6.3639135 -1.0743248 0.01798898
6.363112 -1.1143873 0.018005734
6.3433633 -1.1510898 0.017969431
6.3155408 -1.1861162 0.017910788
6.3071628 -1.2246548 0.017907996
6.3809104 -1.2796437 0.018139776
6.3611875 -1.3163415 0.018106265
6.3197384 -1.3482578 0.01801132
6.3045096 -1.3855077 0.017991772
6.3066187 -1.4265913 0.018022489
6.2889805 -1.4632225 0.017997356
6.2682128 -1.4989936 0.017963847
6.2482147 -1.5348035 0.017933128
6.2619519 -1.5789785 0.01800015
6.2656999 -1.6208763 0.018039245
6.2488699 -1.6574974 0.018019697
6.2163868 -1.6897779 0.017955469
6.1904879 -1.723599 0.017910788
6.1749864 -1.7601806 0.017896825
6.1727099 -1.8005558 0.017921958
6.1653795 -1.83954 0.017933128
6.1759753 -1.8840444 0.017997356
6.2091699 -1.9358888 0.018128606
6.2038445 -1.9760749 0.018148154
6.1849461 -2.0119393 0.018128606
6.1601467 -2.0457554 0.018092303
6.1446371 -2.0825522 0.018083924
6.1402493 -2.1231561 0.018109057
6.1384234 -2.1647818 0.018142568
6.1363177 -2.206465 0.018176079
6.1301751 -2.2468274 0.018198419
6.0750532 -2.2690084 0.018075548
6.1236386 -2.3300622 0.018262647
6.1213484 -2.3722887 0.01829895
6.1178398 -2.4142077 0.018332459
6.108479 -2.4539366 0.018349215
6.0849762 -2.4879661 0.018324083
6.0834455 -2.5310166 0.01836597
6.0825357 -2.5745313 0.018410651
6.0804024 -2.6177347 0.018452538
6.0871277 -2.6650183 0.018522352
6.0980697 -2.7145154 0.018606126
5.882679 -2.6620264 0.017997356
5.8280754 -2.6805258 0.017880071
5.779809 -2.7014191 0.017782332
5.7459612 -2.7286837 0.017729275
5.7174006 -2.7582417 0.017692972
5.7183294 -2.8020697 0.017748822
5.7475848 -2.8602667 0.017894033
6.0619588 -3.0632212 0.018932853
6.0483875 -3.1030974 0.018949607
6.0221381 -3.1364565 0.018927267
5.9992433 -3.1714797 0.018916097
5.9787893 -3.2077579 0.018913304
5.9800735 -3.2558565 0.018980324
5.9293456 -3.2755671 0.018882588
5.9658403 -3.3436611 0.0190641
5.9434729 -3.3792152 0.019058516
5.9390864 -3.4251108 0.019111574
5.8773866 -3.4377623 0.018980324
4.202179 -2.4928558 0.013610303
4.1962309 -2.5242622 0.01364102
4.3138547 -2.6311769 0.014076655
5.8218703 -3.599895 0.019080857
4.2964931 -2.6934752 0.01412692
4.2419028 -2.6956565 0.014001256
4.2294865 -2.7243409 0.014015219
3.5109322 -2.2922306 0.011675084
3.4751158 -2.2993865 0.011602479
3.4609418 -2.3206661 0.011602479
3.4325745 -2.3323064 0.011555006
3.421494 -2.355592 0.011566176
3.3963127 -2.3691058 0.011529873
3.3784454 -2.3875928 0.011518703
3.7817061 -2.7074282 0.01295406
4.0742874 -2.9548094 0.014020804
4.0617223 -2.9838967 0.014040352
4.0497556 -3.0135379 0.014062691
4.0208058 -3.0305066 0.014026389
4.0132647 -3.0636141 0.014065485
3.9983473 -3.0912392 0.014079447
3.9793046 -3.1157143 0.014079447
3.9624629 -3.1419358 0.014087824
3.9540272 -3.1749542 0.01412692
3.9523184 -3.2136636 0.014191148
3.9471948 -3.2499292 0.014244205
3.9287157 -3.2753677 0.01424979
3.9108372 -3.301347 0.014258169
3.9102733 -3.3421719 0.014330774
3.9085989 -3.3824589 0.014400587
3.8870187 -3.405719 0.014397794
3.9034564 -3.4626806 0.014537421
3.9014821 -3.503937 0.014610026
3.9065475 -3.5520253 0.014710557
3.9082255 -3.5975978 0.014799918
3.8853459 -3.6208291 0.014797125
3.8703303 -3.6514626 0.014825051
3.8637636 -3.6903348 0.014886486
3.8654926 -3.7376039 0.014981432
3.8817952 -3.7997198 0.015135021
3.8733258 -3.8382463 0.015193664
3.8814745 -3.8938067 0.015319327
3.8911915 -3.9517477 0.015453368
3.9156835 -4.025722 0.015648846
3.9075382 -4.0669765 0.015715865
3.9375882 -4.1488967 0.015939267
3.9250534 -4.1868391 0.015992325
3.945497 -4.2607322 0.016182218
3.9510045 -4.3195376 0.016313465
3.9599607 -4.3830218 0.016461469
4.0994687 -4.5937452 0.0171596
4.2424846 -4.8130898 0.017882863
4.2384834 -4.8684425 0.017991772
4.2470031 -4.9390893 0.01815653
4.2386289 -4.9909687 0.018251477
4.2130666 -5.0230107 0.018273817
4.1209197 -4.974844 0.018005734
3.9098389 -4.7794638 0.017209865
3.8634698 -4.7823629 0.017134467
3.8309345 -4.8020706 0.017120505
3.7766414 -4.7940679 0.017008804
3.9743609 -5.1091714 0.018042037
4.0586882 -5.2841311 0.018572617
4.0334411 -5.3184958 0.018606126
3.9959357 -5.336741 0.018583788
3.9601424 -5.3571391 0.018569823
3.9348617 -5.3918371 0.018606126
3.909888 -5.427238 0.018645223
3.8770933 -5.4519415 0.018648015
3.8395455 -5.4698992 0.018628467
3.8138845 -5.5048623 0.018667562
3.7738261 -5.5190806 0.018636845
3.7275827 -5.5238976 0.018575409
3.6753252 -5.5192003 0.018483257
3.6397431 -5.5391407 0.018474879
3.629627 -5.5982862 0.01859775
3.6226938 -5.6634116 0.018740168
3.6215022 -5.7388082 0.018916097
3.5735359 -5.7405477 0.018849077
3.5345819 -5.756402 0.018829528
3.5002313 -5.7796917 0.018835114
3.4600861 -5.7933335 0.018809982
3.4437613 -5.8471966 0.018916097
3.4726114 -5.9797645 0.019276332
3.4502664 -6.0261245 0.019357316
3.45698 -6.1246834 0.019605851
3.4144719 -6.1370416 0.019577926
3.3637671 -6.1342039 0.019502526
3.32131 -6.1459312 0.019474601
3.307982 -6.21209 0.019619813
3.4027004 -6.485517 0.020418474
3.4712212 -6.7159147 0.02107751
3.5275095 -6.9286766 0.021677902
3.4678941 -6.916223 0.021571787
3.4497461 -6.9866853 0.021725375
2.9196644 -6.0058861 0.018614504
2.8361268 -5.9262738 0.018312912
2.7860713 -5.9146166 0.018223552
2.7413142 -5.913456 0.018167701
2.6937706 -5.9056015 0.018092303
2.6337326 -5.8691049 0.017930336
2.5992866 -5.888814 0.017941507
2.5603166 -5.8982315 0.017921958
2.5358567 -5.9414206 0.018005734
2.4823256 -5.916297 0.017882863
2.4379692 -5.9120035 0.017824221
2.3990185 -5.9203639 0.017804673
2.3730054 -5.9609861 0.017882863
2.3210864 -5.9363203 0.017765578
2.276372 -5.9289794 0.01770135
2.2491224 -5.9671631 0.017773954
2.2135072 -5.983665 0.017782332
2.1583214 -5.9463763 0.017631536
2.1167617 -5.9453773 0.017589649
2.0957386 -6.002625 0.017720897
2.0578961 -6.0125327 0.01771252
2.0047414 -5.9766965 0.017570101
1.9683436 -5.9898343 0.017572893
1.9413601 -6.0322595 0.017662255
1.9025066 -6.0383353 0.017645499
1.8586413 -6.0279169 0.017581271
1.825086 -6.0506964 0.017614782
1.7828313 -6.044517 0.017564517
1.7432154 -6.0466952 0.017539384
1.7098776 -6.0707526 0.017578479
1.6723307 -6.0801659 0.017575687
1.632917 -6.0825863 0.017553346
1.5937901 -6.0857201 0.017533798
1.5492412 -6.067287 0.017452816
1.5086021 -6.0630937 0.01741372
1.4770256 -6.0955601 0.01748074
1.4409739 -6.1103477 0.017497495
1.3980867 -6.0956826 0.017430475
1.360005 -6.1012182 0.017422097
1.3291049 -6.1397457 0.017508665
1.2934639 -6.1575718 0.01753659
1.2516642 -6.1457949 0.01748074
1.211026 -6.1386433 0.017438853
1.1744629 -6.1518517 0.017455608
1.1383281 -6.1677928 0.01748074
1.1006373 -6.1756458 0.017483532
1.0610284 -6.1724277 0.017455608
1.0223178 -6.1738887 0.017441645
0.98362923 -6.1751075 0.017427683
0.94617504 -6.1839924 0.017436059
0.90690541 -6.1807771 0.017410927
0.87077343 -6.1990995 0.017447229
0.8353827 -6.2241473 0.017503081
0.79679513 -6.2261801 0.017494703
0.75821418 -6.2279744 0.017486325
0.71929657 -6.2265487 0.01746957
0.68140399 -6.2338271 0.017477948
0.64262778 -6.2329173 0.017463986
0.60446775 -6.2377381 0.017466778
0.56690592 -6.2492976 0.017489119
0.52922499 -6.2606297 0.017511457
0.49056584 -6.2607684 0.017503081
0.45242968 -6.2676497 0.017514251
0.41343576 -6.2623253 0.017491911
0.37536219 -6.2707334 0.017508665
0.33746964 -6.2839031 0.017539384
0.29881078 -6.2838573 0.017533798
0.259709 -6.272584 0.017497495
0.22100422 -6.2680631 0.01748074
0.18242311 -6.2653027 0.01746957
0.14483026 -6.3032942 0.017572893
0.10615125 -6.3040648 0.017572893
0.067986853 -6.3525944 0.017706934
0.029020792 -6.3558912 0.017715313
-0.0099699683 -6.3499498 0.017698556
-0.049023576 -6.3617687 0.017732067
-0.091464885 -6.6093235 0.018424613
-0.13197747 -6.6066389 0.018419027
-0.17253856 -6.6067038 0.018421821
-0.21355541 -6.6205134 0.018463708
-0.25616431 -6.6710396 0.01860892
-0.29735863 -6.6753364 0.018625675
-0.33679613 -6.6434255 0.018541899
-0.37421015 -6.5823288 0.01837714
-0.41321027 -6.5579519 0.018315705
-0.45378587 -6.5602808 0.018329667
-0.48375168 -6.4207597 0.017947091
-0.52492481 -6.4395976 0.018008526
-0.56407851 -6.432271 0.017997356
-0.60596317 -6.4545751 0.018069962
-0.65003276 -6.4955125 0.018195625
-0.68649763 -6.4595804 0.018106265
-1.3778838 -12.254715 0.034403432
-1.4632978 -12.332423 0.034646381
-1.5498408 -12.410535 0.034892123
-1.6318091 -12.44541 0.035017785
-1.7090942 -12.442098 0.035037335
-1.7841264 -12.422468 0.0350122
-1.859723 -12.407331 0.035001032
-1.9395198 -12.4194 0.03506805
-2.0285115 -12.48623 0.035291452
-2.1125736 -12.517922 0.035417117
-2.1967559 -12.547079 0.035537194
-2.2785201 -12.559931 0.035612594
-2.357204 -12.554559 0.035637725
-2.4261913 -12.498629 0.035520442
-2.5022461 -12.480565 0.035512064
-2.5799937 -12.470852 0.035528816
-2.6616786 -12.479237 0.035598632
-2.7435632 -12.487087 0.035668444
-2.8302753 -12.514886 0.035796899
-2.9090505 -12.50605 0.035822034
-2.9787569 -12.458787 0.035738256
-3.0491855 -12.415997 0.035668444
-3.1683257 -12.567716 0.036159929
-3.2503872 -12.567402 0.036215778
-3.3579357 -12.662246 0.036548089
-3.4465795 -12.681933 0.036665376
-3.5436344 -12.729911 0.036866438
-3.6493545 -12.805061 0.037148479
-3.7365339 -12.812188 0.037235048
-3.8222227 -12.812978 0.037304863
-3.9316888 -12.890674 0.037600871
-4.0116029 -12.86917 0.037609249
-4.1099091 -12.905296 0.03778797
-4.192728 -12.891247 0.037821479
-4.2871871 -12.911782 0.037958313
-4.3762794 -12.914595 0.038044881
-4.4897418 -12.986737 0.038338095
-4.5896244 -13.016474 0.038508441
-4.7292795 -13.154633 0.039002717
-4.8604789 -13.263391 0.039413217
-4.9732518 -13.317633 0.039664544
-5.0978928 -13.399961 0.040002439
-5.2302332 -13.49804 0.0403906
-5.3052506 -13.44616 0.040331956
-5.4062886 -13.459751 0.040471584
-5.4339118 -13.292107 0.040066667
-5.5180564 -13.264977 0.040086217
-5.6441598 -13.336778 0.040407356
-5.7503977 -13.358844 0.040580492
-5.8567166 -13.379189 0.040750835
-6.0208287 -13.527552 0.041314926
-6.1226792 -13.532264 0.041443381
-6.3789673 -13.87149 0.042602278
-6.5532832 -14.023249 0.0431915
-6.643065 -13.990905 0.043216635
-6.7283516 -13.94898 0.043213841
-6.811615 -13.902943 0.043199878
-6.9333196 -13.934301 0.043428864
-7.1043625 -14.061084 0.043959446
-7.2005467 -14.036802 0.04402088
-7.3179445 -14.05267 0.044210773
-7.4203868 -14.038446 0.04430851
-7.5943055 -14.15656 0.044827919
-7.7011046 -14.146585 0.044945206
-7.82934 -14.174346 0.045185365
-7.9894891 -14.256895 0.04560424
-8.1030083 -14.25368 0.045752246
-8.2147903 -14.246142 0.04588908
-8.3560629 -14.287834 0.046187878
-8.5629339 -14.43756 0.046841331
-9.0682859 -15.078037 0.049100481
-9.1882238 -15.067362 0.049248483
-9.2841835 -15.016654 0.049268033
-9.3724318 -14.953473 0.049248483
-9.5326462 -15.003725 0.049605928
-9.6640511 -15.006326 0.04980978
-9.940134 -15.228956 0.050750863
-10.084696 -15.245245 0.051010568
-10.211456 -15.232919 0.051178116
-11.060452 -16.282585 0.054934062
-11.162419 -16.217707 0.05494523
-11.262863 -16.150551 0.054950818
-11.374443 -16.099108 0.055012252
-11.441583 -15.9851 0.054861456
-11.683262 -16.112946 0.055545624
-11.894378 -16.194092 0.056076203
-12.06992 -16.223501 0.056433648
-12.275753 -16.290497 0.056927923
-12.429473 -16.28562 0.05717646
-13.488675 -17.450451 0.061557926
-13.695349 -17.494923 0.062010314
-13.82915 -17.444258 0.062130395
-13.996648 -17.434717 0.062401269
-14.240871 -17.517666 0.063010037
-14.47583 -17.585142 0.063571334
-14.659646 -17.5874 0.063903645
-14.882087 -17.63315 0.064400718
-15.186839 -17.771858 0.06524685
-15.362335 -17.755478 0.065531686
-15.528316 -17.726324 0.065774634
-15.662668 -17.659889 0.065883547
-15.937087 -17.748726 0.06657888
-16.100847 -17.711281 0.066807874
-16.293188 -17.703398 0.067154147
-16.443089 -17.647722 0.067324489
-16.782297 -17.791649 0.068265565
-18.324833 -19.18977 0.074062847
-18.495752 -19.13233 0.07427787
-18.691832 -19.099243 0.074593425
-19.076113 -19.254145 0.075654581
-19.324194 -19.266647 0.07616841
-19.710644 -19.412258 0.077221192
-20.002838 -19.459703 0.077896982
-20.441275 -19.64356 0.079134069
-21.219954 -20.1429 0.081669681
-21.64077 -20.291397 0.082809031
-25.831486 -23.924824 0.098287985
-29.967848 -27.416317 0.11338995
-30.310238 -27.053827 0.11342067
-26.306585 -23.191757 0.097899824
-26.622562 -22.89588 0.098022692
-26.746544 -22.718502 0.097964048
-26.920677 -22.583525 0.098092511
-26.890104 -22.278196 0.097480945
-26.708206 -21.852514 0.096333221
-27.808601 -22.469444 0.099804327
-28.096025 -22.418144 0.10034049
-28.264471 -22.270084 0.10045219
-26.279882 -20.446226 0.092948683
-28.621275 -21.987354 0.10075378
-26.998079 -20.478148 0.094593473
-28.358271 -20.69878 0.09800873
-27.339981 -19.699507 0.094068483
-27.479082 -19.544714 0.094132707
-27.577209 -19.360796 0.094060108
-28.99884 -19.83214 0.098072961
-29.432467 -19.864742 0.099125743
-29.680307 -19.768036 0.099550202
-29.337246 -19.280725 0.098000355
-29.509535 -19.135717 0.098181866
-42.363934 -18.393831 0.12893872
-42.491634 -18.140219 0.12898619
-42.696003 -17.305428 0.12861758
-42.818546 -16.746304 0.12835787
-42.904621 -16.477165 0.1283104
-43.032986 -16.22418 0.12839417
-65.53685 -23.794493 0.19466913
-43.307949 -14.827199 0.12779658
-43.24453 -14.509653 0.12734419
-43.284294 -14.228109 0.12720177
-49.990631 3.4536009 0.13989937
-50.056252 3.766875 0.14014511
-49.807938 4.055686 0.1395168
-17.64201 3.2002006 0.050035976
-17.089346 3.2084007 0.048522428
-16.847479 3.2701437 0.047891319
-16.514318 3.3107638 0.047000501
-16.232227 3.3579531 0.046254899
-15.987353 3.4097319 0.045615412
-15.869436 3.4865246 0.045338951
-15.811656 3.5756721 0.04523563
-15.814742 3.6785128 0.045308232
-15.812299 3.7803633 0.045366876
-15.81017 3.8825605 0.045428313
-15.859118 4.1015682 0.045710359
-15.642319 4.5617599 0.045467407
-16.101183 5.1275229 0.047154091
-16.057055 5.2222013 0.047117788
-18.369844 6.0991735 0.054018114
-16.301302 5.747684 0.048234798
-16.133768 5.9122014 0.047949962
-16.612457 6.4368486 0.049717627
-16.481487 6.502696 0.04944396
-16.277027 6.5377378 0.048949685
-16.345835 6.6821361 0.049279202
-16.271286 6.7684808 0.049178671
-18.52351 7.838923 0.056134846
-18.519152 7.9714098 0.056268889
-16.550688 7.2448649 0.050418552
-16.568962 7.3743358 0.050611235
-18.066803 8.1740932 0.055341769
-18.707716 8.6027107 0.057466879
-16.582653 7.9985785 0.051379178
-16.512608 8.0900593 0.05131495
-16.452808 8.186327 0.051284235
-16.4739 8.450593 0.051669601
-18.934496 9.8599052 0.059580822
-18.897511 9.9885159 0.059656218
-18.831459 10.101917 0.059642255
-18.85256 10.262692 0.059907544
-18.822498 10.396548 0.060013663
-18.829014 10.55144 0.060239855
-16.900518 9.7452497 0.054445371
-16.805012 9.8280697 0.054330878
-16.816641 9.9738445 0.054565448
-16.824541 10.118587 0.054791644
-17.084438 11.452536 0.057402652
-17.046106 11.579062 0.057511561
-17.017572 11.712916 0.057656772
-19.029667 13.270522 0.064752571
-18.829603 13.477437 0.064629704
-18.755459 13.599178 0.064660423
-18.71035 13.742416 0.064794458
-17.54068 14.804048 0.064062819
-72.37854 73.488533 0.28800642
-64.360306 66.154495 0.25770754
-63.823605 66.413322 0.25718534
-63.364643 66.750748 0.25698149
-62.826653 67.002609 0.2564621
-62.2533 67.212967 0.25580025
-61.670963 67.409233 0.25510213
-61.136173 67.653557 0.25460225
-60.572083 67.861794 0.25398234
-60.082462 68.150421 0.25367793
-59.074047 68.687744 0.25296026
-58.455967 68.818756 0.25211692
-57.848785 68.957024 0.25131825
-57.217876 69.061195 0.25041348
-56.789879 69.407104 0.25039953
-56.273693 69.643806 0.25000298
-55.779194 69.90493 0.24970697
-55.281757 70.160255 0.24940258
-54.856972 70.506813 0.24943331
-55.645321 73.360092 0.25709319
-55.213326 73.725754 0.25718257
-54.708191 73.993195 0.25693962
-22.983376 31.48815 0.10882976
-53.738182 74.578659 0.25666314
-52.960777 74.458801 0.25512725
-49.721241 70.820358 0.24160865
-49.07502 70.82 0.24057542
-48.342617 70.685608 0.23910655
-47.743511 70.737221 0.23828556
-21.516447 32.305321 0.10835782
-43.029854 70.06424 0.22957566
-42.67841 70.457809 0.23000292
-42.02322 70.346634 0.22879377
-41.170021 69.888885 0.22647876
-40.503849 69.73291 0.22516349
-39.900284 69.674667 0.22418052
-38.891521 69.888176 0.22331484
-38.236904 69.715164 0.22200793
-37.467484 69.317719 0.22000569
-36.983627 69.437744 0.21966222
-36.554546 69.658943 0.21964826
-35.901417 69.446655 0.21827991
-35.239117 69.203148 0.2168306
-34.607609 69.006882 0.21554604
-34.050701 68.948944 0.21470828
-33.516796 68.929955 0.21400456
-32.90799 68.74736 0.21280657
-32.406693 68.780632 0.21228996
-31.812 68.607132 0.21114781
-31.304096 68.611809 0.21056697
-30.774813 68.562653 0.20983253
-30.225506 68.460205 0.2089473
-29.689373 68.378372 0.20813747
-29.166773 68.319214 0.20740862
-28.615835 68.184303 0.20646195
-28.123711 68.181114 0.20592579
-27.580114 68.044708 0.20499867
-27.10104 68.059364 0.20453791
-26.592226 67.992485 0.20384257
-26.128283 68.033943 0.20348233
-25.600979 67.902916 0.20261665
-25.091539 67.809258 0.20187384
-24.609812 67.782402 0.20134047
-24.090443 67.642929 0.20048316
-23.638012 67.683731 0.2001704
-23.123148 67.538002 0.19931589
-22.647549 67.497536 0.19878252
-22.177065 67.465179 0.19828266
-21.685461 67.360107 0.19757894
-21.230255 67.360283 0.19719358
-20.764963 67.32206 0.19670488
-20.262804 67.154297 0.19584757
-19.819807 67.173775 0.19554599
-19.379555 67.198036 0.19526672
-18.905575 67.098152 0.19463561
-18.447617 67.046097 0.19415252
-18.009426 67.059517 0.19386768
-17.507391 66.824387 0.19287354
-17.041098 66.711578 0.19224243
-16.608738 66.723671 0.19197993
-16.172394 66.714508 0.19166438
-15.75424 66.776466 0.19156106
-15.311781 66.730553 0.19115613
-14.876792 66.71003 0.1908322
-14.44369 66.691574 0.19052224
-14.016931 66.696739 0.19028766
-13.509587 66.301361 0.18891932
-13.081601 66.277046 0.18861774
-12.694386 66.459198 0.18891095
-12.252222 66.350967 0.18838595
-11.833282 66.359924 0.18820165
-10.56778 66.302818 0.18745604
-6.7006717 43.767857 0.12361338
-3.473412 25.863689 0.072839722
-4.1652446 34.18906 0.096146122
-3.0146759 26.078207 0.073275357
-2.8560202 26.109137 0.073311657
-2.6766686 25.941153 0.072792247
-2.5257502 26.042686 0.073032402
-2.0529592 22.611891 0.063370273
-1.9121525 22.600147 0.063303255
-5.1321135 65.418732 0.1832114
-4.7234054 65.349243 0.18293215
-1.5011781 22.712337 0.063529447
-1.3515543 22.550426 0.063051924
-3.5831404 66.603409 0.18622734
-0.59513646 14.353594 0.040083423
-0.51087004 14.464908 0.040385015
-0.43822837 15.019532 0.041926488
0.023784757 15.765903 0.043992955
0.12053728 15.767461 0.043998539
0.21783186 15.806419 0.044110242
3.4183383 67.54628 0.18883276
3.8312004 67.497078 0.18875736
4.2421436 67.422394 0.18861774
4.654037 67.370155 0.18854792
5.0664992 67.329361 0.1885172
5.4318161 66.710945 0.18687519
0.7872861 8.980504 0.025140632
0.84769672 9.0322552 0.025299804
0.92359382 9.2318611 0.025875065
0.99679816 9.3821421 0.026313491
1.0542355 9.374855 0.026310699
7.9651985 67.153984 0.18881042
8.3748684 67.085991 0.18876015
8.7849131 67.02243 0.18872944
9.1966696 66.972221 0.1887434
9.5902348 66.794754 0.1884055
9.7799988 65.267044 0.1842614
8.6721239 51.398319 0.1455263
8.9021654 50.857536 0.1441468
9.110198 50.229301 0.14252155
9.393507 50.040756 0.14214735
9.6125498 49.529625 0.14086001
9.7861748 48.820621 0.13901135
10.085144 48.757698 0.13900577
10.37787 48.665554 0.13892199
10.621572 48.351898 0.13820989
10.852555 47.996132 0.13738051
11.046958 47.4991 0.13614902
11.321693 47.36137 0.13595074
1.589885 6.4725504 0.018578202
1.617594 6.4151597 0.018441368
1.6561753 6.4022093 0.01843299
1.6941459 6.3870935 0.018419027
1.7306825 6.3669281 0.018391103
1.7571146 6.3109102 0.018259855
1.7782667 6.2384601 0.018081132
1.7991562 6.1679101 0.017907996
11.636627 39.013351 0.11365524
2.1121438 6.9239659 0.02018111
2.1230483 6.8096776 0.019885102
11.157963 35.040192 0.10265829
11.380796 34.995792 0.10273089
11.600039 34.939541 0.10277278
11.810676 34.857288 0.10274206
12.014205 34.754864 0.10265549
12.183009 34.555061 0.10228409
12.018989 33.434155 0.099181592
12.059461 32.910957 0.097846769
12.232489 32.759521 0.097617783
11.747087 30.879959 0.092228211
11.459837 29.577383 0.088544868
10.911922 27.658152 0.08299613
10.911855 27.168455 0.08172553
10.66934 26.100361 0.078706808
10.687195 25.692778 0.077673577
10.557436 24.947985 0.075615488
10.413021 24.192001 0.073515512
10.13664 23.157515 0.070558228
10.182181 22.878357 0.0698964
9.8937025 21.867907 0.066992179
9.7975092 21.306175 0.0654535
9.8891096 21.162308 0.065196581
9.9034052 20.858229 0.064445399
9.7223339 20.156666 0.062459912
9.5972681 19.589247 0.060882136
9.2607145 18.612297 0.058019798
9.3571568 18.520315 0.057910893
9.1068783 17.753399 0.055685252
9.1579103 17.586317 0.055336185
9.0567751 17.134598 0.054087926
9.0274963 16.828434 0.053294849
8.8752851 16.303709 0.051803645
8.8750792 16.067745 0.051225591
8.8048553 15.712017 0.050262172
8.8072033 15.492518 0.04973159
8.7292728 15.138442 0.048765376
8.696805 14.870515 0.048072834
8.7215719 14.705056 0.047709804
8.6338387 14.355611 0.046746384
8.5739079 14.059888 0.045953307
8.5674686 13.857311 0.045461822
8.5625877 13.661282 0.044989888
8.4532061 13.304623 0.043984577
8.4496822 13.120505 0.043546151
8.4567909 12.956198 0.043171953
8.3794527 12.667193 0.042378876
8.3027897 12.385449 0.04160535
8.3499737 12.292083 0.041462928
8.3668442 12.15577 0.041175298
8.312005 11.918825 0.04054419
8.3180485 11.772858 0.040220257
8.2894421 11.580916 0.03973715
8.1942291 11.300721 0.038946867
8.1959333 11.158348 0.038628519
8.2129145 11.038848 0.03838836
8.0903282 10.735872 0.037505925
8.1111555 10.627204 0.037299279
8.0869246 10.461719 0.036891568
8.0665197 10.304022 0.036508992
8.0010033 10.092118 0.035930943
8.0233383 9.9937067 0.035755012
7.9848452 9.8216858 0.035313793
8.0176325 9.7393084 0.035193715
7.9549522 9.54321 0.034660343
7.9172611 9.380352 0.034244258
7.9376402 9.2882614 0.034085084
7.8695149 9.0949392 0.033551712
7.7835069 8.8847542 0.032951318
7.7370224 8.7231083 0.032526854
7.7162428 8.5928774 0.032216884
7.7311544 8.503933 0.032060504
7.7080221 8.3746586 0.031750534
7.6372437 8.1962395 0.031250671
7.6139731 8.0713863 0.030951872
7.5279975 7.8827629 0.030404538
7.5213165 7.7796235 0.030183928
7.5402331 7.7040248 0.030069435
7.5261326 7.5958095 0.029826485
7.5513535 7.5283046 0.02974271
7.5774555 7.4621806 0.029664518
7.5270548 7.3221045 0.02929032
7.5083909 7.2148051 0.02904458
7.5380144 7.1548295 0.028988728
7.5307107 7.0605621 0.028793251
7.518868 6.9632573 0.028583812
7.5090685 6.8690653 0.028385544
7.5251069 6.7993946 0.028287806
7.5114794 6.7038174 0.028081158
7.5202169 6.6291647 0.027961079
7.5072069 6.5362711 0.02776281
7.5183611 6.4653063 0.027656695
7.4847236 6.3569036 0.027388612
7.5343132 6.3198562 0.027427709
7.5151968 6.2256579 0.027218269
7.4882445 6.126235 0.026983697
7.4214668 5.9959545 0.026609499
7.3838611 5.8910518 0.026344208
7.348392 5.7893143 0.026090089
7.3466811 5.7152548 0.02595884
7.3602004 5.6536198 0.025883442
7.3724432 5.5914307 0.025805252
7.3361764 5.4933376 0.025559509
7.3512511 5.4345469 0.025495281
7.3440728 5.3598595 0.025355656
7.3476152 5.2936502 0.025255125
7.3587708 5.2333965 0.025182519
7.3629174 5.1686087 0.025087573
3.2124832 2.2253449 0.010879215
3.2087433 2.1937368 0.010820572
3.2693889 2.2058952 0.010979746
7.2328663 4.8167267 0.024233062
7.2714767 4.7782979 0.024263779
7.289752 4.7265172 0.024227476
7.2950306 4.6666093 0.024149286
7.3032317 4.6089497 0.024082266
7.3008142 4.545023 0.023981735
7.3106699 4.4891505 0.023923092
7.3269582 4.4374733 0.023886789
7.2982469 4.3590975 0.023705274
7.2731595 4.2837806 0.023537723
7.260396 4.2164707 0.02341206
7.25142 4.1519642 0.023300359
7.2079659 4.0685539 0.023079749
7.2092018 4.0111213 0.023004351
7.2064972 3.9519031 0.022917783
7.2165351 3.9000022 0.022873102
7.1732507 3.8199215 0.02266087
7.1983256 3.7767646 0.022666456
7.1751719 3.7086453 0.022521244
7.1175923 3.6237099 0.022269918
7.1200275 3.5701063 0.022208482
7.1256604 3.5183809 0.022158217
2.8214166 1.3712008 0.0087261796
2.827071 1.3525678 0.0087178024
2.8353169 1.3351958 0.0087178024
2.8389201 1.31567 0.00870384
2.8478494 1.2986411 0.0087066321
1.4325694 0.64231712 0.0043502962
7.0405469 3.1077943 0.021457294
1.4330056 0.6215027 0.0043279557
1.4386314 0.61348349 0.0043335408
1.4377582 0.60270977 0.0043195784
1.4414293 0.59387648 0.0043195784
1.4431926 0.58426958 0.0043139933
1.4504666 0.57688314 0.0043251631
1.4521165 0.56724387 0.0043195784
1.4574367 0.55904019 0.0043251631
1.4655179 0.55185097 0.0043391259
1.4726279 0.54423654 0.0043502962
1.4825191 0.53757936 0.0043698438
1.5027465 0.5345118 0.0044201091
1.5126064 0.52758908 0.0044396566
1.5243298 0.52121329 0.0044647893
1.5322396 0.51344091 0.0044787521
7.0376663 2.3127964 0.020653047
7.0288796 2.2622156 0.020586027
7.0960379 2.2358785 0.020742407
7.0819116 2.1837485 0.020661425
7.1152825 2.1463199 0.020720067
1.6105238 0.47452447 0.0046546808
1.5980319 0.46019983 0.0046100006
1.6066005 0.45201305 0.0046267556
1.5997022 0.43949366 0.0045988304
1.6052661 0.43044791 0.0046072081
1.6098118 0.42109698 0.0046127932
1.614303 0.41170645 0.0046183784
1.6187396 0.40227664 0.0046239635
1.6289521 0.39422145 0.0046463036
1.6313404 0.38421896 0.0046463036
1.6297686 0.37330738 0.0046351333
1.6564289 0.36874202 0.0047049467
1.6733204 0.36174655 0.0047468343
7.0148396 1.4736352 0.019982841
6.9502602 1.4155903 0.019773401
6.9519472 1.3715621 0.019753855
6.947463 1.3264407 0.019717552
6.9200706 1.2772495 0.019617021
6.9238391 1.2340624 0.019605851
6.9391651 1.1929115 0.019628191
6.915771 1.1452436 0.019541623
6.873291 1.0949173 0.019401995
6.8561568 1.0490906 0.019334976
6.8664222 1.0075834 0.019346146
6.8526707 0.96264875 0.019290294
6.8564663 0.92031723 0.01928471
6.8590083 0.87784821 0.019276332
6.8722072 0.83671331 0.019298673
6.8772111 0.79453045 0.019298673
6.8700275 0.75101256 0.019265162
6.852623 0.70658618 0.019203726
6.8667827 0.66549152 0.019231653
6.8687458 0.6231643 0.019226067
6.8545041 0.57948875 0.019175801
6.8549399 0.53718466 0.019167425
6.8591042 0.49518558 0.019170217
6.8689981 0.45355147 0.019189764
6.860671 0.41073713 0.019159047
6.7122817 0.36051983 0.018737376
6.7283511 0.3199937 0.018776471
6.7112045 0.2779153 0.018723413
6.7177801 0.23690762 0.018737376
6.71211 0.19547918 0.018717827
6.7061853 0.15412924 0.018698281
6.6950068 0.11277469 0.01866477
6.679574 0.071519896 0.018620091
6.6598868 0.030440083 0.018564239
5.9324207 0.00070823118 -0.082667798
2.5647035 -0.015304299 -0.035643172
2.5495639 -0.030857908 -0.035433739
5.7284827 -0.10476876 -0.07983347
2.4810202 -0.060479574 -0.034484312
2.4816017 -0.075732276 -0.034498274
2.4810903 -0.090957671 -0.034498274
2.4894764 -0.10656532 -0.034623932
2.4787889 -0.12134864 -0.034484312
2.478996 -0.13661103 -0.034498274
2.4850972 -0.15224792 -0.034596007
2.4980831 -0.1684363 -0.034791477
5.7149644 -0.4208675 -0.079847433
5.6355262 -0.4497973 -0.078772351
5.6824713 -0.48865315 -0.079470456
5.6694098 -0.52259272 -0.079330832
5.6611204 -0.55688012 -0.079261027
5.6695309 -0.59285396 -0.079428568
5.6707554 -0.6281811 -0.07949838
5.661829 -0.6623832 -0.079428568
5.6457491 -0.69564325 -0.079261027
5.5342793 -0.71640414 -0.077753112
5.5694122 -0.75572783 -0.078311592
5.5775394 -0.79171419 -0.078493103
5.5537839 -0.82313633 -0.078227825
5.5308418 -0.85444963 -0.077976502
5.5175972 -0.88709998 -0.077864803
5.5090914 -0.92044419 -0.077822916
5.5269847 -0.95833081 -0.078158014
5.5210004 -0.99222571 -0.078158014
5.5148077 -1.0260832 -0.078158014
5.5084085 -1.0599022 -0.078158014
3.5972707 -0.71500844 -0.051043458
3.5996723 -0.73847449 -0.051141191
3.6068125 -0.7630319 -0.05130874
3.6108549 -0.78706563 -0.051434398
3.6118116 -0.81052059 -0.051518172
3.5960534 -0.83019221 -0.051364586
3.5821359 -0.85016292 -0.051238928
3.5758805 -0.87188953 -0.051224966
3.5791931 -0.89600021 -0.051350623
3.5852494 -0.92093074 -0.051518172
3.5650275 -0.93909073 -0.05130874
3.5418224 -0.9562552 -0.051057421
3.5339611 -0.97743618 -0.051029496
3.5519483 -1.0059147 -0.051378548
3.563956 -1.03298 -0.05164383
3.5633023 -1.0565343 -0.051727604
3.5567527 -1.0783786 -0.051727604
3.762095 -1.1659037 -0.054827206
3.7939529 -1.2013433 -0.055399656
3.7912669 -1.2261388 -0.055469468
3.7855713 -1.2500056 -0.055497393
3.7512996 -1.264267 -0.05510645
3.7169964 -1.278155 -0.05471551
3.686439 -1.292994 -0.054380417
3.6464257 -1.3041387 -0.053905703
3.548173 -1.2936034 -0.052565336
3.5504789 -1.3191816 -0.052718919
3.5264206 -1.3349231 -0.052481562
3.5228281 -1.3583347 -0.052551374
3.5125656 -1.3791938 -0.052523449
3.5523162 -1.4200232 -0.053249482
3.5611331 -1.4489541 -0.053514764
3.5734231 -1.4795766 -0.053835891
3.5909996 -1.5127336 -0.054240797
3.5844073 -1.5359207 -0.054282684
3.5859151 -1.5626795 -0.054450229
3.5534055 -1.5745246 -0.054101173
3.5546172 -1.601227 -0.054268721
3.5519981 -1.626338 -0.054380417
3.5501111 -1.6518991 -0.054506078
3.5679305 -1.6869017 -0.054938905
3.5773411 -1.7182878 -0.055246074
3.5685279 -1.7410827 -0.055273999
3.6061571 -1.7869223 -0.056027956
3.6004839 -1.8117126 -0.056111727
3.6079981 -1.8433249 -0.056404933
3.6409991 -1.8884495 -0.057103042
3.687737 -1.9415015 -0.058024548
3.7119114 -1.9834149 -0.058596995
3.7655938 -2.0419044 -0.059644159
3.7740188 -2.0765407 -0.059979253
3.7978745 -2.1201308 -0.060565665
3.7874041 -2.1448724 -0.060607549
3.8019161 -2.1840105 -0.061054341
3.8134975 -2.2218969 -0.061459243
3.8247566 -2.2600067 -0.061864145
3.8485556 -2.3060477 -0.062478483
3.8770595 -2.3555803 -0.063176595
3.8957341 -2.3997796 -0.06372112
3.8851764 -2.4262865 -0.063790925
3.8854227 -2.4597077 -0.064042248
3.8854041 -2.4932227 -0.064293563
3.7317319 -2.4270577 -0.061989807
3.4563036 -2.2782047 -0.057633605
3.4580572 -2.3099227 -0.057898887
3.4405067 -2.3288553 -0.057843037
3.4343977 -2.3555779 -0.057982661
3.4124899 -2.3714709 -0.057856999
3.3782535 -2.3785484 -0.057521909
3.3985975 -2.424202 -0.058122281
3.7686114 -2.7232051 -0.064754315
3.7832968 -2.7693124 -0.06529884
3.763824 -2.7906876 -0.065256953
3.7506275 -2.8167317 -0.065326765
3.7563519 -2.8572483 -0.065731674
3.7458785 -2.8857353 -0.065857328
3.7312546 -2.9111259 -0.065913178
3.7172446 -2.9370654 -0.06598299
3.6905653 -2.9529464 -0.065829404
3.6615009 -2.9667225 -0.065633938
3.6339524 -2.9815221 -0.065466389
3.616359 -3.0044024 -0.065480351
3.5863791 -3.0168798 -0.065270916
3.591397 -3.0589287 -0.06570375
3.6119339 -3.114866 -0.066429779
3.6183612 -3.1593308 -0.066904493
3.5412257 -3.130477 -0.065829404
3.5323813 -3.1614826 -0.066024877
3.5381081 -3.2059262 -0.066499591
3.5279489 -3.2363627 -0.066681102
3.55125 -3.2980971 -0.067504868
3.6001492 -3.384896 -0.068831272
3.5662758 -3.3945129 -0.068579957
3.5173006 -3.3892713 -0.068035431
3.4262981 -3.3423607 -0.06666714
3.4028795 -3.3605108 -0.06661129
3.3871455 -3.386276 -0.066709027
3.3733313 -3.4141085 -0.066848643
3.361398 -3.4440455 -0.067030154
3.3402026 -3.4646058 -0.067030154
3.3140543 -3.4799666 -0.066932417
3.3022304 -3.5104325 -0.067127891
3.2928793 -3.5438142 -0.067379206
3.273777 -3.5668988 -0.067435056
3.2706332 -3.6076624 -0.067825995
3.2404313 -3.6187234 -0.067658454
3.2168415 -3.6370404 -0.067630529
3.1970956 -3.6597223 -0.067686379
3.1980939 -3.7065253 -0.068189017
3.1915038 -3.7451055 -0.06853807
3.1761901 -3.7737982 -0.068705618
3.1568096 -3.7978299 -0.068789385
3.1366191 -3.8209925 -0.068859197
3.1175222 -3.8456037 -0.068956934
3.0901182 -3.8599765 -0.06887316
3.0638955 -3.8757267 -0.06881731
3.0388265 -3.8928771 -0.068789385
3.0832465 -4.0001512 -0.07035315
3.0580382 -4.018199 -0.070339188
3.0387311 -4.0440817 -0.070464849
2.9888401 -4.0289216 -0.069878437
2.86186 -3.9076221 -0.067462981
2.9180851 -4.0361238 -0.069375798
2.9060431 -4.0718589 -0.069682971
2.8349383 -4.0242167 -0.068565995
2.8307414 -4.0710912 -0.069068633
2.8339956 -4.1296062 -0.069766738
2.8383191 -4.1907978 -0.070506737
2.8508868 -4.2654972 -0.071470127
2.875304 -4.359705 -0.072754651
2.8904905 -4.4417992 -0.073829733
2.8750658 -4.4779625 -0.074136905
2.8972919 -4.574079 -0.075435385
2.9078484 -4.6536741 -0.076454625
2.9579303 -4.7991133 -0.078548953
2.9710164 -4.8872356 -0.079693854
3.0448258 -5.078609 -0.082514212
3.0319254 -5.1281834 -0.08301685
3.0744259 -5.2736754 -0.085069291
3.0365283 -5.2829046 -0.084915705
3.0474331 -5.3779936 -0.08614438
3.0582588 -5.4751582 -0.087400973
3.0419657 -5.5253544 -0.087903611
3.0623636 -5.6441088 -0.089495301
3.0715165 -5.7448001 -0.090793788
3.0632377 -5.8148494 -0.091603592
3.1679733 -6.1042275 -0.095862053
3.1850724 -6.2303901 -0.097537518
3.1697149 -6.2953639 -0.098249592
3.1532354 -6.3594866 -0.098947696
3.2431171 -6.6428885 -0.10305258
3.2131243 -6.685194 -0.10340163
2.8466501 -6.0169411 -0.092776418
2.753125 -5.912827 -0.09090548
2.7167926 -5.9296088 -0.09090548
2.6643338 -5.9106154 -0.090360954
2.6207218 -5.9103985 -0.090109639
2.5820091 -5.9208684 -0.090025865
2.551147 -5.9494658 -0.090221338
2.49634 -5.9217019 -0.089565113
2.4496245 -5.9119658 -0.089188136
2.4291394 -5.9657812 -0.089774549
2.4002867 -6.0000701 -0.090067752
2.3184505 -5.9002151 -0.0883504
2.284723 -5.9208603 -0.088448137
2.2713737 -5.9955463 -0.089355677
2.2254829 -5.985003 -0.088992663
2.2000272 -6.0295439 -0.089453414
2.1417623 -5.9836197 -0.088573799
2.0993776 -5.9806099 -0.088336438
2.0623164 -5.9924331 -0.088322476
2.0149636 -5.9737082 -0.087861724
1.9748207 -5.9755154 -0.087708145
1.9479711 -6.0179625 -0.088154934
1.9255075 -6.0755548 -0.088825114
1.8597572 -5.995573 -0.087484747
1.8371605 -6.0537553 -0.088168897
1.7996963 -6.0639558 -0.088154934
1.7591118 -6.0633602 -0.087987386
1.7246014 -6.0836596 -0.08812701
1.6885741 -6.0989456 -0.088196822
1.6505982 -6.1072612 -0.088168897
1.612074 -6.1134067 -0.088113047
1.5715446 -6.1115623 -0.087945499
1.5315849 -6.1113911 -0.087805882
1.4940573 -6.1206737 -0.087805882
1.4546244 -6.121943 -0.087694183
1.4120804 -6.1093202 -0.08738701
1.3728145 -6.110065 -0.087275319
1.3372165 -6.1271653 -0.087400973
1.3012532 -6.1430812 -0.087512672
1.2633343 -6.1499701 -0.08749871
1.2259653 -6.1595674 -0.087526634
1.1875803 -6.1640277 -0.087484747
1.1502856 -6.1741481 -0.087526634
1.1139736 -6.1899467 -0.087652296
1.0752878 -6.1927242 -0.087596446
1.0367748 -6.1962471 -0.087554559
0.99825907 -6.1995306 -0.087512672
0.95867205 -6.1956577 -0.087373048
0.91872972 -6.1885653 -0.087191544
0.88074011 -6.1940861 -0.087191544
0.84312129 -6.2023463 -0.087233432
0.80697703 -6.2222767 -0.08744286
0.76890516 -6.2281032 -0.087456822
0.73265433 -6.2495866 -0.087694183
0.69341147 -6.2460141 -0.087582484
0.65371907 -6.2372236 -0.087400973
0.61484736 -6.235147 -0.087317199
0.57712954 -6.2447762 -0.087400973
0.53923082 -6.253181 -0.087470785
0.50117093 -6.2603579 -0.087526634
0.4645896 -6.2882452 -0.087875687
0.426267 -6.2949681 -0.087931536
0.38787934 -6.3014569 -0.087987386
0.3492623 -6.3047171 -0.088001348
0.30993181 -6.2937584 -0.087819837
0.2715663 -6.3015356 -0.087903611
0.23315389 -6.3100772 -0.088001348
0.19455461 -6.3153872 -0.088057198
0.15616979 -6.3314557 -0.088266633
0.11753959 -6.3442917 -0.088434175
0.0786466 -6.3478932 -0.088476062
0.039844386 -6.3722529 -0.088811159
0.0007540416 -6.4923658 -0.090486616
-0.038265165 -6.3572645 -0.088601723
-0.077345014 -6.3629088 -0.088685498
-0.11616576 -6.3503175 -0.088517949
-0.15551969 -6.365479 -0.088741347
-0.19503346 -6.3793964 -0.088950776
-0.2354583 -6.4130526 -0.089439452
-0.27518928 -6.4204779 -0.089565113
-0.31482434 -6.4236622 -0.089634925
-0.35566604 -6.4475675 -0.08999794
-0.39644554 -6.4652243 -0.090277188
-0.4404861 -6.5275159 -0.091184728
-0.48045638 -6.5236926 -0.091170765
-0.52294338 -6.5515203 -0.091603592
-0.55859041 -6.495389 -0.090863593
-0.59678215 -6.4739175 -0.090612277
-0.6364941 -6.4701333 -0.090612277
-0.67774254 -6.4810233 -0.090821706
-0.7108888 -6.4171138 -0.089983977
-1.3986752 -11.953274 -0.16787899
-1.4933983 -12.118134 -0.17032237
-1.579282 -12.197989 -0.17157896
-1.6596118 -12.228694 -0.17215142
-1.7353172 -12.223229 -0.17222123
-1.806619 -12.187624 -0.17187217
-1.8715941 -12.113068 -0.17097859
-1.9277842 -11.988812 -0.16938689
-1.9968599 -11.95013 -0.16900992
-2.0956059 -12.084447 -0.17109029
-2.1835136 -12.148123 -0.17217934
-2.2812457 -12.259339 -0.17395253
-2.3690856 -12.310898 -0.174888
-2.447114 -12.308879 -0.17506951
-2.5159607 -12.261309 -0.17460875
-2.5882492 -12.231946 -0.17441328
-2.6683667 -12.23928 -0.17474838
-2.7405682 -12.209994 -0.17456686
-2.8129609 -12.182232 -0.17441328
-2.8943543 -12.192955 -0.17481819
-2.9733791 -12.192452 -0.17506951
-3.0685363 -12.255455 -0.17624234
-3.1623383 -12.30903 -0.1772895
-3.2551296 -12.355144 -0.17823893
-3.3433912 -12.381273 -0.17890911
-3.4320953 -12.406783 -0.17957929
-3.5206931 -12.429745 -0.18022156
-3.6060817 -12.4396 -0.1806823
-3.6954198 -12.461336 -0.18132457
-3.7958965 -12.517848 -0.18248342
-3.8764813 -12.506737 -0.18266493
-3.9609976 -12.5075 -0.18302795
-4.0616717 -12.557166 -0.184117
-4.1659255 -12.614612 -0.18533172
-4.2735915 -12.678827 -0.18665811
-4.3740706 -12.718554 -0.18763547
-4.4685779 -12.738652 -0.18833359
-4.5631585 -12.757127 -0.18901773
-4.6588192 -12.776796 -0.18972979
-4.7674313 -12.829513 -0.19094451
-4.8446455 -12.796278 -0.19088866
-4.9442978 -12.821355 -0.19171242
-5.0089865 -12.755408 -0.19118187
-5.2408366 -13.10881 -0.19696221
-5.3641381 -13.181988 -0.19855389
-5.4307652 -13.114644 -0.1980373
-5.5196738 -13.101347 -0.19834447
-5.6050787 -13.07918 -0.19852597
-5.6716423 -13.013376 -0.19805126
-5.7465229 -12.967361 -0.19788371
-5.8908758 -13.075898 -0.20008974
-6.0684147 -13.252238 -0.20335689
-6.2723832 -13.478558 -0.20741989
-6.3318863 -13.391005 -0.20666592
-6.5988145 -13.736754 -0.21262777
-6.6549134 -13.638494 -0.21173419
-6.7651129 -13.651159 -0.21257192
-6.8509946 -13.613858 -0.21264173
-7.000824 -13.701563 -0.21468021
-7.0935111 -13.675213 -0.2149455
-7.2150221 -13.703095 -0.21607643
-7.3574052 -13.76792 -0.21780774
-7.4870296 -13.806017 -0.21913415
-7.6304131 -13.866693 -0.22083753
-7.7704334 -13.918267 -0.22241527
-7.8734279 -13.901648 -0.2229179
-8.0153627 -13.951914 -0.2245096
-8.1486444 -13.984543 -0.22583599
-8.2617683 -13.980766 -0.22658995
-8.4080467 -14.031016 -0.22823749
-8.910409 -14.664484 -0.23943517
-9.0185766 -14.639331 -0.23992383
-9.1368361 -14.629515 -0.24067779
-9.2381954 -14.591763 -0.24098496
-9.3491573 -14.568464 -0.24154346
-9.5005255 -14.606378 -0.24313514
-9.6686668 -14.667189 -0.24513173
-9.8562403 -14.753921 -0.24758907
-10.036269 -14.825647 -0.24982302
-10.239605 -14.927873 -0.2526015
-10.426879 -15.002703 -0.25494716
-10.559034 -14.99567 -0.25592449
-10.998681 -15.418188 -0.26428783
-11.241255 -15.555449 -0.26782027
-11.348892 -15.503123 -0.26811349
-11.653447 -15.715915 -0.27302817
-11.681202 -15.552972 -0.27143648
-11.764306 -15.465088 -0.27115723
-11.860806 -15.394989 -0.27119911
-11.897225 -15.24782 -0.26988667
-12.068672 -15.273384 -0.2716459
-13.600925 -16.997025 -0.30380082
-13.752173 -16.971516 -0.30484799
-13.940409 -16.989622 -0.30670494
-14.062284 -16.925301 -0.30709589
-14.306199 -17.005499 -0.31013966
-14.534764 -17.063543 -0.31282037
-14.874941 -17.247385 -0.31786072
-15.050202 -17.235624 -0.31934071
-15.339791 -17.351208 -0.32322222
-15.529326 -17.349888 -0.32496747
-15.669064 -17.291321 -0.32566559
-15.929662 -17.363581 -0.32886294
-16.161791 -17.401049 -0.33144593
-16.39292 -17.434132 -0.33398706
-16.561632 -17.398399 -0.33524364
-16.79505 -17.428209 -0.33779871
-17.162815 -17.592508 -0.34302059
-17.465769 -17.684643 -0.34690207
-17.660202 -17.663408 -0.34860545
-18.027878 -17.811216 -0.35370165
-18.483892 -18.038971 -0.3604733
-19.224121 -18.532434 -0.3726902
-19.595984 -18.66029 -0.3776747
-19.957747 -18.772627 -0.38242185
-20.202215 -18.770281 -0.38489315
-20.403198 -18.725071 -0.38652673
-21.876381 -19.831158 -0.41213337
-22.327656 -19.992031 -0.41831863
-22.803436 -20.167315 -0.42490876
-29.904602 -26.122231 -0.55428231
-26.618086 -22.965012 -0.4907265
-26.750885 -22.794767 -0.49058688
-26.790026 -22.545858 -0.48875782
-27.040133 -22.474365 -0.4907963
-27.353216 -21.895979 -0.48907894
-19.918938 -15.352048 -0.35099298
-28.587893 -19.876312 -0.48602122
-28.351494 -19.454992 -0.47996163
-28.574652 -19.351309 -0.48172089
-39.754238 -25.867863 -0.66211224
-39.934086 -25.637493 -0.66247529
-40.219044 -25.473303 -0.66459751
-40.320316 -25.192135 -0.66370392
-42.446285 -17.281754 -0.63977277
-64.972794 -24.612177 -0.96999228
-65.116966 -24.210957 -0.96990854
-65.299995 -23.823977 -0.97043908
-65.472252 -23.432623 -0.97084397
-65.621399 -23.03277 -0.97094172
-65.759598 -22.629042 -0.97091383
-65.906685 -22.228319 -0.97105342
-42.993961 -14.207422 -0.63210756
-66.250603 -21.442499 -0.97217041
-66.451462 -21.05794 -0.9732036
-66.602341 -20.656916 -0.9735387
-66.738358 -20.251055 -0.9736923
-66.88533 -19.848288 -0.97404134
-67.022179 -19.442247 -0.97427869
-67.158493 -19.035824 -0.97454399
-67.318359 -18.635658 -0.97518623
-67.463287 -18.23086 -0.97564697
-67.624161 -17.829824 -0.97637302
-67.803947 -17.43298 -0.9774062
-37.659874 -9.4368114 -0.54195374
-38.626289 -9.4274645 -0.55502236
-37.92754 -8.7652073 -0.54339182
-37.794273 -8.4904642 -0.54072505
-38.359516 -8.3705301 -0.54806918
-68.9282 -14.59833 -0.98366129
-69.086014 -14.189404 -0.98465258
-69.239441 -13.778698 -0.98561597
-69.361954 -13.361157 -0.98617446
-69.490799 -12.944282 -0.98685861
-69.643707 -12.531107 -0.98791975
-69.754753 -12.109703 -0.98842239
-70.038788 -11.716773 -0.99141032
-70.095543 -11.284578 -0.99121481
-70.304771 -10.876127 -0.99321139
-70.478981 -10.460688 -0.99474722
-70.630928 -10.040705 -0.99600387
-70.779396 -9.6191168 -0.9972465
-70.955086 -9.1999407 -0.99890798
-71.095543 -8.7749281 -1.0001087
-71.311905 -8.3577328 -1.0024124
-71.456261 -7.9304924 -1.0037389
-71.59407 -7.5013766 -1.0050094
-71.778069 -7.0756755 -1.0069642
-71.980431 -6.649929 -1.009212
-72.197205 -6.2234254 -1.0116973
-72.218079 -5.7790384 -1.0114739
-72.301041 -5.3394165 -1.012158
-72.490067 -4.906353 -1.0143641
-47.749084 -2.0562918 -0.66719449
-76.229942 3.7384622 -1.0655495
-49.877354 3.0599632 -0.69760412
-49.874935 3.6746702 -0.69814867
-17.495878 3.1448233 -0.24804983
-17.094837 3.1811357 -0.24263249
-16.782396 3.2296546 -0.23847178
-16.464128 3.2732913 -0.23422727
-16.285057 3.3416889 -0.23196539
-16.021643 3.3902104 -0.22850278
-15.831526 3.4516029 -0.22608732
-15.805172 3.5475833 -0.2260175
-15.768494 3.6411207 -0.22580807
-15.733207 3.7348032 -0.22562656
-15.722624 3.8343501 -0.22580807
-15.657092 3.9203064 -0.2252077
-15.778979 4.053875 -0.22731599
-15.750907 4.1498528 -0.2272741
-16.014435 5.1800056 -0.23485556
-18.362995 6.1896324 -0.27041724
-16.08346 5.6419616 -0.23782951
-16.005005 5.9474988 -0.23824838
-16.380653 6.5489631 -0.24616493
-16.222542 6.6014843 -0.24439174
-16.279654 6.7414517 -0.24587172
-16.553877 7.827497 -0.2555196
-16.535278 7.9432106 -0.25598034
-16.425808 8.1401978 -0.25581279
-16.399668 8.2529678 -0.25618976
-16.791348 9.6466675 -0.27023572
-16.724215 9.8830271 -0.27108744
-16.640982 10.1114 -0.27172968
-17.067915 10.805919 -0.28190812
-17.071978 10.955806 -0.28308094
-16.98683 11.048903 -0.28278774
-17.037909 11.686998 -0.2883307
-19.465149 14.433594 -0.33820364
-17.279909 12.978266 -0.30159479
-17.21348 13.094341 -0.30183214
-17.11697 13.187509 -0.30155289
-17.261686 13.812711 -0.308534
-17.382479 14.806439 -0.31867054
-17.334728 15.325221 -0.32291505
-63.903023 66.288864 -1.2855237
-63.433708 66.615273 -1.284281
-62.910049 66.882332 -1.2819632
-62.398438 67.159401 -1.2799108
-61.775589 67.312637 -1.2755826
-61.224411 67.539291 -1.2727343
-60.667439 67.75576 -1.2697743
-60.222073 68.094528 -1.2691739
-59.703133 68.348289 -1.2670517
-59.100395 68.502113 -1.2631562
-58.483112 68.633606 -1.2589396
-57.995857 68.913895 -1.2575295
-57.467102 69.142342 -1.2552396
-56.978333 69.416359 -1.2538434
-57.323895 70.717751 -1.270975
-56.883278 71.061134 -1.2708493
-55.326973 69.992928 -1.2456477
-54.820789 70.234138 -1.2439303
-54.629913 70.882019 -1.2494453
-55.525494 72.965652 -1.2801481
-22.087753 30.95122 -0.53078401
-21.817385 30.972538 -0.52884322
-21.615873 31.918615 -0.53811413
-21.420729 32.052311 -0.53814203
-21.150993 32.072956 -0.53629905
-20.773838 31.92556 -0.53169155
-42.600388 70.082123 -1.1450362
-41.977802 70.022308 -1.1398283
-41.350948 69.94632 -1.1344389
-40.751793 69.90847 -1.1297476
-39.976784 69.556427 -1.1200718
-39.452137 69.629028 -1.1173213
-38.911041 69.667259 -1.114082
-38.269703 69.517532 -1.1079108
-37.590191 69.28611 -1.1005248
-36.982853 69.175972 -1.0951493
-36.423027 69.14592 -1.0911142
-35.943264 69.262489 -1.0894527
-35.361042 69.175453 -1.0846497
-34.844643 69.209824 -1.0818154
-34.178596 68.936775 -1.074248
-33.69136 69.014908 -1.0722234
-33.138187 68.951767 -1.0680627
-32.479309 68.656677 -1.0603834
-31.931664 68.584541 -1.0562227
-31.451096 68.650101 -1.0542401
-30.906424 68.569221 -1.0500654
-30.358664 68.472374 -1.0457093
-29.885597 68.537292 -1.0438801
-29.287579 68.306755 -1.0376111
-28.722651 68.140572 -1.0323893
-28.252722 68.191742 -1.0305184
-27.742529 68.139702 -1.0271395
-27.276375 68.189812 -1.0253524
-26.80517 68.222809 -1.0233557
-26.299311 68.161171 -1.0199909
-25.182816 67.730873 -1.008849
-24.736254 67.800522 -1.0076064
-15.342445 43.711094 -0.646698
-15.043367 43.715534 -0.64538556
-6.6624761 19.75367 -0.29092768
-6.5662422 19.870131 -0.29204467
-6.4374237 19.889116 -0.2917375
-6.1839833 19.937965 -0.29131863
-6.0464325 19.925779 -0.29059258
-5.9146695 19.930872 -0.29013184
-5.7827926 19.934137 -0.28965712
-5.653554 19.945194 -0.28930807
-5.5275979 19.966982 -0.28912657
-5.400023 19.982182 -0.28886127
-5.2788424 20.020741 -0.28894505
-10.676639 43.744545 -0.62858903
-10.389306 43.730431 -0.6274581
-10.104125 43.721264 -0.62642491
-9.8475008 43.835121 -0.62717891
-14.544345 66.652939 -0.95244181
-14.115415 66.648003 -0.95111543
-13.65873 66.502205 -0.94782037
-13.187388 66.267998 -0.94331056
-12.761992 66.25145 -0.94194227
-12.324846 66.165329 -0.93962455
-11.896143 66.114731 -0.93785137
-11.465106 66.041656 -0.93579894
-11.045809 66.027916 -0.9346261
-10.614398 65.932556 -0.93233633
-10.194204 65.896637 -0.93092614
-6.4918809 43.738533 -0.61726576
-6.2266212 43.800312 -0.61758685
-8.9239254 65.663925 -0.92515975
-8.5171223 65.688683 -0.92475486
-8.1093721 65.702988 -0.92423826
-4.0063148 34.182667 -0.48040843
-2.9023552 26.149862 -0.36721703
