# .PCD v0.7 - Point Cloud Data file format
VERSION 0.7
FIELDS x y z
SIZE 4 4 4
TYPE F F F
COUNT 1 1 1
WIDTH 1446
HEIGHT 1
VIEWPOINT 0 0 0 1 0 0 0
POINTS 1446
DATA ascii
1.3613364 3.0417175 -0.72637373
1.3714827 3.0146325 -0.7218858
1.3903642 3.0070474 -0.72209948
1.4175091 3.0170288 -0.72658747
1.4309466 2.997694 -0.72402292
1.4748772 3.0416028 -0.73684567
1.4891979 3.0237315 -0.73470855
1.4981129 2.9953134 -0.73000687
1.5230962 2.9991312 -0.73321253
1.5401274 2.9871242 -0.73257142
1.5611441 2.9828115 -0.7338537
1.5675054 2.9507434 -0.72829717
1.5744591 2.9204302 -0.72316808
1.6120338 2.9467137 -0.732144
1.6348236 2.9453092 -0.73428112
1.6519066 2.9335201 -0.7338537
1.704751 2.9844103 -0.74924099
1.6990415 2.932471 -0.73876905
1.7229398 2.9320989 -0.7413336
1.742898 2.924829 -0.74218845
1.7673774 2.9249504 -0.74496675
1.7868218 2.9165502 -0.74560785
1.8026228 2.9022119 -0.744753
1.8209169 2.8919234 -0.74496675
1.8433559 2.8881078 -0.74689013
1.8642253 2.881665 -0.7481724
1.8904395 2.8832448 -0.7515918
1.9178243 2.8862383 -0.75543863
1.932225 2.869554 -0.75415635
1.9530984 2.8624864 -0.75543863
1.9772903 2.8600924 -0.75800318
2.0093701 2.8687124 -0.7635597
2.0173259 2.8427839 -0.75992662
2.0347309 2.8303523 -0.75992662
2.0624082 2.8320303 -0.76377344
2.0751083 2.8130324 -0.76206374
2.0858991 2.7916372 -0.75971287
2.1065252 2.7834604 -0.76099515
2.1336653 2.7836649 -0.76462829
2.1399252 2.7566288 -0.76078147
2.1537809 2.7396059 -0.75971287
2.1602089 2.7133448 -0.75607979
2.2093062 2.7403522 -0.76740652
2.2371969 2.7403679 -0.77125335
2.2452574 2.7160463 -0.76826137
2.2512231 2.689482 -0.76462829
2.2481072 2.6525121 -0.75800318
2.2751529 2.651273 -0.76163632
1.099251 1.2646837 -0.36391744
1.0953786 1.2447101 -0.36007062
1.0900036 1.2233729 -0.35579637
1.1066463 1.2268206 -0.35878834
1.1082268 1.2135128 -0.35686493
1.1169777 1.2081251 -0.35729235
1.1277059 1.2048161 -0.35836092
1.1384357 1.2014208 -0.35942948
1.1511941 1.2000546 -0.36113918
1.1551342 1.1894631 -0.36007062
1.1665186 1.1865342 -0.36135289
1.1634439 1.1689643 -0.3581472
1.1629705 1.1542308 -0.35579637
1.1546898 1.1320217 -0.35109469
1.0605979 1.0270141 -0.3203201
1.0562946 1.0103538 -0.31711441
1.0582154 0.99982625 -0.31583214
1.0714693 0.99998277 -0.31796926
1.0790207 0.99471444 -0.31839669
1.1038766 1.0051837 -0.32395321
1.1071193 0.99577725 -0.32309836
1.1299995 1.0038952 -0.32801375
1.1368722 0.99758726 -0.32822746
1.1348542 0.9835515 -0.32587662
1.139384 0.97529852 -0.3254492
1.145347 0.96828902 -0.3254492
1.1670086 0.97439796 -0.32993716
1.2091308 0.9970659 -0.34019536
2.8887398 2.3535855 -0.81249988
2.8924723 2.3272412 -0.80950791
2.9105213 2.3124886 -0.81057644
2.9192765 2.2903645 -0.80908048
2.9649336 2.2969437 -0.81784266
2.9432838 2.2513998 -0.80801189
2.9492483 2.2274089 -0.80587476
2.9479818 2.198173 -0.80181426
3.0463686 2.2426047 -0.8248952
3.0205641 2.1951487 -0.81420958
3.0292144 2.1731558 -0.81292731
3.0632172 2.1692102 -0.81848383
3.0388417 2.1240635 -0.80843931
3.0847821 2.1281273 -0.81720155
3.1179671 2.1229076 -0.82254434
3.1122868 2.091202 -0.81762898
3.1340146 2.0780058 -0.81997979
3.2112799 2.1009998 -0.8368631
3.2150836 2.0754268 -0.83451223
3.2162232 2.0483115 -0.83152026
3.2204597 2.0233402 -0.82938313
3.2494197 2.0138369 -0.83365738
3.2850509 2.008131 -0.83964133
3.2797437 1.9773415 -0.8351534
3.2808998 1.9506881 -0.83237511
3.2911217 1.9295319 -0.83194768
3.3028994 1.9093015 -0.83194768
3.3221903 1.8933541 -0.83387113
3.353332 1.8839422 -0.83878648
3.4203732 1.8941017 -0.85267782
3.3899174 1.8501401 -0.84220588
3.3676548 1.8112532 -0.83387113
3.3623061 1.7818613 -0.82981056
3.3792377 1.7643631 -0.83130658
3.4021609 1.7498527 -0.83429855
3.4337468 1.7395433 -0.83942765
3.4758224 1.7341471 -0.8471213
3.4855208 1.7123563 -0.84690756
3.4827714 1.6845548 -0.8437019
3.4551182 1.6450888 -0.83451223
3.4094231 1.5977324 -0.82104838
3.4608533 1.5960172 -0.83109283
3.5239532 1.5989797 -0.84391558
3.4989102 1.561792 -0.83558083
3.5084274 1.5402937 -0.83558083
1.0156906 0.43801364 -0.23932309
1.012964 0.42948216 -0.23804082
1.0309057 0.42965609 -0.24167393
1.031715 0.42258093 -0.24124651
1.0279462 0.41368589 -0.23975052
1.039548 0.41096735 -0.24188764
1.0256616 0.39820758 -0.23804082
1.0445129 0.39817956 -0.24188764
1.0560838 0.39519191 -0.24402477
1.0502373 0.38566908 -0.24210136
1.060854 0.38220239 -0.24402477
1.0641 0.37601191 -0.24423848
1.0728474 0.37171796 -0.24573447
1.1010033 0.37393868 -0.25171843
1.0856688 0.36130533 -0.24765788
1.0720787 0.34948105 -0.24402477
1.1067692 0.35331187 -0.25150472
1.1005259 0.34388736 -0.24958129
0.99519956 0.3042213 -0.22500436
1.0017264 0.29951119 -0.22607292
1.0072953 0.29445773 -0.22692777
1.0015699 0.2861203 -0.22521807
1.0023658 0.27970627 -0.22500436
1.0125446 0.27586684 -0.22692777
1.0151622 0.26990035 -0.22714148
1.0139627 0.26292902 -0.22650035
1.0155569 0.25670251 -0.22650035
1.0237519 0.25210544 -0.22799633
1.0243297 0.24559073 -0.22778262
1.0315247 0.24063595 -0.2290649
1.0377445 0.23538539 -0.23013346
1.0429848 0.22985671 -0.23098831
1.052972 0.22529733 -0.23291172
1.0514654 0.21823491 -0.23227058
1.0508695 0.2113927 -0.23184316
1.0358478 0.20175599 -0.22821005
1.0361062 0.19521488 -0.22799633
1.0228697 0.18622042 -0.22479065
3.7852497 0.64296478 -0.83729053
3.7669501 0.61609656 -0.83237511
3.7388139 0.58795798 -0.82532263
3.732692 0.56354606 -0.8231855
3.7225442 0.53867114 -0.82019353
3.8351233 0.53097683 -0.84434301
3.8160348 0.5044865 -0.83942765
3.8287506 0.48228472 -0.84156477
3.8151486 0.4568058 -0.83793163
3.7693474 0.42787069 -0.82724601
3.7534473 0.40275103 -0.8231855
3.7577915 0.37990957 -0.82361293
3.7542167 0.35629028 -0.82233065
3.7972007 0.33688074 -0.83130658
3.7962759 0.31333366 -0.83066541
3.8234522 0.29197234 -0.83622193
3.799835 0.2667239 -0.83066541
3.7828772 0.24221444 -0.8266049
3.7755148 0.21848917 -0.82468146
3.7514191 0.19400291 -0.81912494
3.7388766 0.17035618 -0.81613296
3.7398515 0.14741167 -0.81613296
3.7729053 0.12553905 -0.8231855
3.7462616 0.10164012 -0.81720155
3.7390013 0.078486249 -0.81549186
3.7540641 0.05576279 -0.81869751
3.7035391 0.032275908 -0.80758446
3.3566675 0.0088355178 -0.79122716
3.3839061 -0.011858413 -0.79767334
3.3876622 -0.032659281 -0.79859418
3.3669646 -0.053120963 -0.79375958
3.3918707 -0.074335642 -0.79974526
3.3485498 -0.09394218 -0.78961563
3.3712518 -0.1152868 -0.79514092
3.3354766 -0.13455532 -0.78685302
3.3423648 -0.15538104 -0.78869474
3.3452358 -0.1760914 -0.78961563
3.3275776 -0.19564179 -0.78570187
3.2932975 -0.21390851 -0.77787441
3.3249261 -0.23646155 -0.78570187
3.3311746 -0.25745898 -0.78754365
3.3256531 -0.27756977 -0.78662276
3.3297029 -0.29849216 -0.7880041
3.3229651 -0.31845266 -0.78685302
3.3132038 -0.33804515 -0.78501123
3.3217096 -0.35952094 -0.78754365
3.3088059 -0.37867782 -0.78501123
3.2957928 -0.39768991 -0.78247881
3.2884638 -0.41729215 -0.78132772
3.2617259 -0.43424928 -0.77557224
3.263819 -0.45492679 -0.77672333
3.2590404 -0.474664 -0.77626288
3.2589529 -0.49509087 -0.77695358
3.2423971 -0.51294816 -0.77373046
3.2478306 -0.5342558 -0.77580243
3.2387362 -0.55319047 -0.77442116
3.2209077 -0.57050556 -0.77096784
3.2173464 -0.59025788 -0.77096784
3.2155762 -0.61035115 -0.77142829
3.2041311 -0.6285708 -0.7695865
3.1773241 -0.64358068 -0.76406127
3.1456914 -0.65728986 -0.7573849
3.1473069 -0.67780882 -0.75876623
3.1430886 -0.69710755 -0.75876623
3.1548805 -0.72006255 -0.76267993
3.128613 -0.73429102 -0.7573849
3.1410766 -0.75758237 -0.76152885
3.1826534 -0.78830951 -0.77280962
3.1372023 -0.79751015 -0.76291019
3.1736815 -0.82755184 -0.77303982
3.1356401 -0.83821094 -0.76498216
3.1379464 -0.85949236 -0.76682389
3.141046 -0.88109642 -0.76889586
3.121551 -0.89632314 -0.76544255
3.098253 -0.91024637 -0.7610684
3.0944734 -0.92980003 -0.76152885
3.1008029 -0.9524855 -0.76452172
3.0707605 -0.96391416 -0.75853598
3.049962 -0.97798234 -0.75485247
3.069798 -1.0051593 -0.7612986
3.0663416 -1.024902 -0.7619893
3.0240757 -1.0314426 -0.75301069
3.0287187 -1.053817 -0.75577337
3.02403 -1.073032 -0.75623381
3.0503316 -1.1034874 -0.76452172
3.0215907 -1.1141015 -0.75899643
3.0146978 -1.1326208 -0.75899643
3.0231414 -1.1570116 -0.76291019
2.9869716 -1.1642282 -0.75554311
2.967109 -1.1775075 -0.75232005
2.9336624 -1.1851184 -0.74564368
2.9398358 -1.2086483 -0.74909699
2.9458301 -1.2322985 -0.7525503
2.9373178 -1.2499694 -0.75232005
2.9251277 -1.2660358 -0.75116897
2.9573841 -1.301604 -0.76152885
2.9324653 -1.3121724 -0.75715464
2.9181583 -1.3273201 -0.75554311
2.9161422 -1.3480594 -0.75715464
2.8972466 -1.3609613 -0.75439203
2.8818157 -1.3753591 -0.7525503
2.885581 -1.3989601 -0.75577337
2.8690858 -1.4127697 -0.75370139
2.8377345 -1.4190294 -0.74771565
2.8393857 -1.4417024 -0.75047833
2.8408654 -1.4644489 -0.75324094
2.8266532 -1.4791451 -0.75185961
2.7951796 -1.4845911 -0.74587393
2.7937269 -1.5058703 -0.7479459
2.7682137 -1.5141098 -0.7435717
2.7410035 -1.5211489 -0.73873711
2.7409453 -1.5431912 -0.74126953
2.7525499 -1.5720475 -0.74702501
2.7100136 -1.5698805 -0.73804647
2.6978128 -1.5850002 -0.73735577
2.6963966 -1.6065054 -0.739658
2.6981487 -1.6300659 -0.74288106
2.6905854 -1.6481159 -0.7435717
2.6705022 -1.6584325 -0.74080908
2.6256897 -1.6530089 -0.73113984
2.6056542 -1.6628059 -0.72837722
2.5831463 -1.6708337 -0.72492391
2.596446 -1.7021265 -0.73160028
2.5883846 -1.7196417 -0.73229098
2.5479183 -1.7153802 -0.72377282
2.5156412 -1.7161727 -0.71755689
2.5202723 -1.7420907 -0.7219311
2.5055504 -1.7547305 -0.72077996
2.4947364 -1.7700711 -0.72077996
2.4846187 -1.7859133 -0.72101021
2.4869864 -1.8108642 -0.72492391
2.4617326 -1.8156914 -0.72077996
2.4786091 -1.8517318 -0.72906786
2.474184 -1.8721907 -0.73113984
2.4024072 -1.8411595 -0.71318275
2.4172003 -1.876155 -0.72101021
2.3949327 -1.8825312 -0.71778715
2.3848593 -1.898403 -0.71824753
2.354984 -1.8983415 -0.7127223
2.3402765 -1.9102939 -0.71180141
2.3367615 -1.9314382 -0.71433383
2.3077035 -1.9313731 -0.70903879
2.2987788 -1.9480134 -0.70995963
2.2860444 -1.9614481 -0.70972943
2.1894884 -1.9020377 -0.68325418
2.2354984 -1.9662143 -0.70144153
2.2197585 -1.9766579 -0.70029044
2.2285469 -2.0091395 -0.70696682
2.2355821 -2.0404904 -0.71318275
2.220161 -2.0515273 -0.71226186
2.1798182 -2.0391815 -0.70328331
2.1849275 -2.0692487 -0.70903879
2.1700823 -2.0805955 -0.7083481
2.1593699 -2.0959053 -0.70903879
2.1520216 -2.1145723 -0.71088052
2.1272788 -2.1160691 -0.70696682
2.1060271 -2.1207952 -0.70420414
2.0834348 -2.1239507 -0.70098108
2.0629148 -2.1290061 -0.69844866
2.0329926 -2.124047 -0.69269317
2.0199213 -2.1364813 -0.69269317
1.9888424 -2.1296303 -0.68647724
1.9856342 -2.1525238 -0.68993056
1.9605926 -2.1517179 -0.6857866
1.9382401 -2.15358 -0.68256354
1.9385656 -2.1807072 -0.68739814
1.9206545 -2.1874416 -0.6857866
1.9059215 -2.1977148 -0.68532616
1.8772089 -2.1916285 -0.67980087
1.8630975 -2.2023625 -0.67957067
1.8333287 -2.1943347 -0.67358494
1.8117794 -2.1957839 -0.67059213
1.807492 -2.2181761 -0.67404538
1.7816473 -2.2140608 -0.66944098
1.7710553 -2.2287607 -0.67059213
1.7609504 -2.2441797 -0.67197341
1.7423798 -2.2487879 -0.67013168
1.7155417 -2.2424316 -0.66506684
1.7052689 -2.2575753 -0.66644818
1.6861495 -2.2609746 -0.6643762
1.6635911 -2.2595224 -0.66092288
1.6491235 -2.2689004 -0.66069269
1.6221244 -2.2607899 -0.65539759
1.6048478 -2.2659354 -0.65401632
1.5864542 -2.2693586 -0.65217453
1.564211 -2.2670348 -0.64872122
1.5513667 -2.278199 -0.64918166
1.5308461 -2.277982 -0.64641905
1.5060849 -2.2711108 -0.64181465
1.4889249 -2.275423 -0.64043337
1.4554083 -2.2542648 -0.63191521
1.4342308 -2.2516608 -0.62869215
1.420388 -2.2604189 -0.62869215
1.3941888 -2.2492392 -0.62316686
1.3717335 -2.2436361 -0.61925316
1.3564337 -2.2495105 -0.61856246
1.336638 -2.2477534 -0.61579984
1.3203601 -2.2517149 -0.61464876
1.3040839 -2.2555616 -0.61349767
1.2897377 -2.2626753 -0.61326742
1.2734468 -2.2663043 -0.61211634
1.2533888 -2.2630081 -0.60912347
1.232487 -2.2578428 -0.60567021
1.2140007 -2.2567921 -0.60336798
1.1928399 -2.2504408 -0.59968448
1.1781083 -2.2559922 -0.59922403
1.1624633 -2.2597167 -0.59830314
1.1454978 -2.2607303 -0.59669161
1.1289982 -2.2624917 -0.59531033
1.1120911 -2.2632623 -0.59369874
1.0939461 -2.2612829 -0.59139657
1.0746124 -2.2565303 -0.5884037
1.0648755 -2.2718933 -0.59070593
1.0464329 -2.2686639 -0.58817351
1.0232453 -2.2546594 -0.58287847
1.0054255 -2.2520089 -0.58057624
0.99550015 -2.2670465 -0.58287847
0.98118538 -2.2722187 -0.58264822
0.96608418 -2.2755089 -0.58195758
0.94535917 -2.2652278 -0.57781363
0.92664289 -2.2592807 -0.57482076
0.90767169 -2.2522869 -0.5715977
0.89705777 -2.2659576 -0.57366967
0.88525248 -2.2768614 -0.57505101
0.87022436 -2.2795229 -0.57436031
0.85212445 -2.2738841 -0.5715977
0.8321119 -2.262629 -0.56745374
0.81623197 -2.2621996 -0.5660724
0.79876584 -2.2570739 -0.56353998
0.78266919 -2.2554967 -0.56192845
0.76881504 -2.2602568 -0.56192845
0.75308621 -2.259392 -0.56054717
0.73649114 -2.2556443 -0.5584752
0.72500706 -2.2675364 -0.56031692
0.70991772 -2.2682273 -0.55939603
0.69741112 -2.2771931 -0.56054717
0.68258798 -2.2786329 -0.55985647
0.66667974 -2.2762406 -0.55824494
0.65270048 -2.2802885 -0.55824494
0.63345772 -2.265506 -0.55364054
0.62159437 -2.2768605 -0.55548233
0.60585916 -2.2740493 -0.5538708
0.58749086 -2.2607701 -0.54972684
0.56906962 -2.2464082 -0.54535264
0.56040269 -2.2706437 -0.55041748
0.54373258 -2.2626848 -0.54765487
0.52762419 -2.2565024 -0.54535264
0.51031834 -2.2445142 -0.54166913
0.49737597 -2.2514043 -0.54259002
0.48294029 -2.251559 -0.54189938
0.47129539 -2.2649603 -0.54443181
0.45469698 -2.2544541 -0.54120868
0.44234678 -2.2648425 -0.54305047
0.43512252 -2.3028951 -0.55156857
0.41941178 -2.2969055 -0.54949659
0.40007702 -2.2697258 -0.54235983
0.38565394 -2.2692597 -0.54166913
0.3707805 -2.265821 -0.54028785
0.35777757 -2.2738214 -0.54166913
0.33931634 -2.2461445 -0.53453231
0.32497048 -2.2443318 -0.53361148
0.31239426 -2.2549591 -0.53568345
0.29638457 -2.2404327 -0.53176969
0.282024 -2.2373815 -0.53061861
0.26771206 -2.2342386 -0.52946752
0.25421745 -2.2377732 -0.52992797
0.24068955 -2.2412262 -0.53038836
0.22742239 -2.2475016 -0.5315395
0.21390344 -2.2517612 -0.53223014
0.20120043 -2.2656326 -0.53522301
0.18801515 -2.275553 -0.53729498
0.17241964 -2.255317 -0.53223014
0.15782882 -2.2456543 -0.52969772
0.14317663 -2.2329841 -0.52647465
0.12952879 -2.2347922 -0.52670485
0.11586415 -2.2365167 -0.5269351
0.10262589 -2.247879 -0.52946752
0.088601433 -2.2426322 -0.52808619
0.074936226 -2.2460513 -0.52877682
0.060968753 -2.2396595 -0.52716529
0.047102939 -2.2341537 -0.52578402
0.033292562 -2.2275896 -0.52417248
0.019589882 -2.2238595 -0.52325159
0.005946653 -2.224911 -0.52348179
-0.0077122301 -2.2268517 -0.52394223
-0.021394705 -2.2287087 -0.52440268
-0.035100259 -2.2304814 -0.52486312
-0.048528794 -2.2185493 -0.52210051
-0.061976433 -2.2123733 -0.52071917
-0.075516805 -2.2109787 -0.52048892
-0.089710534 -2.2260313 -0.52417248
-0.10250742 -2.2069693 -0.51979828
-0.1160472 -2.2062988 -0.51979828
-0.1296398 -2.2065167 -0.52002853
-0.14279738 -2.1998532 -0.51864719
-0.15587807 -2.1931114 -0.51726586
-0.16978221 -2.1979351 -0.51864719
-0.18302223 -2.1939428 -0.51795655
-0.19343674 -2.158855 -0.50989884
-0.20853783 -2.1770012 -0.51450324
-0.22218828 -2.1785851 -0.51519388
-0.23649478 -2.1858881 -0.51726586
-0.24857397 -2.1727939 -0.51450324
-0.26155132 -2.1683295 -0.5138126
-0.27448329 -2.1637876 -0.5131219
-0.28775486 -2.1620626 -0.5131219
-0.30168772 -2.1650753 -0.51427299
-0.31468603 -2.1612575 -0.5138126
-0.32691768 -2.1525514 -0.51220101
-0.33996719 -2.1495438 -0.51197082
-0.35267603 -2.1445367 -0.51128018
-0.36550018 -2.1404138 -0.51081973
-0.37845683 -2.1371727 -0.51058948
-0.39086041 -2.1309817 -0.50966865
-0.40302077 -2.1237628 -0.5085175
-0.41529471 -2.1174304 -0.50759667
-0.42653975 -2.1062586 -0.50552469
-0.43945548 -2.1036017 -0.50552469
-0.45132989 -2.0961092 -0.50437355
-0.46397209 -2.0923502 -0.50414336
-0.47571868 -2.0847206 -0.50299227
-0.48894623 -2.083657 -0.50345272
-0.50035262 -2.0749416 -0.50207138
-0.51377696 -2.0746663 -0.50276202
-0.5248183 -2.064873 -0.50115049
-0.5377239 -2.0625556 -0.50138074
-0.55062079 -2.0601573 -0.50161093
-0.56556571 -2.065187 -0.50368291
-0.57638645 -2.055119 -0.50207138
-0.58844823 -2.0496731 -0.50161093
-0.60046494 -2.0441566 -0.50115049
-0.61159581 -2.035774 -0.4999994
-0.62150317 -2.0236111 -0.49792743
-0.6333251 -2.0179026 -0.49746698
-0.64628923 -2.0158319 -0.49792743
-0.65016484 -1.9859339 -0.49148127
-0.66295522 -1.9837531 -0.49194172
-0.67668587 -1.9842529 -0.49309281
-0.68948805 -1.9819016 -0.49355325
-0.70423979 -1.9849706 -0.495395
-0.71806169 -1.9851874 -0.49654612
-0.73191273 -1.9853091 -0.4976972
-0.7454499 -1.9844246 -0.4986181
-0.75935155 -1.9843574 -0.49976918
-0.76939219 -1.9742206 -0.49838787
-0.78220934 -1.9712715 -0.49884829
-0.79501927 -1.9682394 -0.49930874
-0.80856162 -1.9669243 -0.5002296
-0.82136649 -1.9637215 -0.50069004
-0.8337813 -1.95954 -0.5009203
-0.84733558 -1.9579594 -0.50184113
-0.85815716 -1.9500514 -0.50115049
-0.87090147 -1.9465256 -0.50161093
-0.8832317 -1.9420309 -0.50184113
-0.89676476 -1.9401082 -0.50276202
-0.91030741 -1.9380922 -0.50368291
-0.92385906 -1.9359832 -0.5046038
-0.93784368 -1.934656 -0.50575489
-0.95141667 -1.9323572 -0.50667578
-0.96456152 -1.9290941 -0.50736642
-0.97946459 -1.9292129 -0.50897795
-0.98994565 -1.9205718 -0.50828731
-1.0184081 -1.9463624 -0.51680541
-1.0102437 -1.9022633 -0.50667578
-1.0306711 -1.9123038 -0.51104993
-1.0344454 -1.8914304 -0.50713623
-1.0441424 -1.8816441 -0.50621533
-1.0542358 -1.872658 -0.50552469
-1.0652237 -1.8653092 -0.50529444
-1.0746975 -1.8553699 -0.50437355
-1.0865546 -1.8495797 -0.5046038
-1.0983812 -1.843714 -0.504834
-1.1121897 -1.8411041 -0.50598508
-1.1229571 -1.8334154 -0.50575489
-1.1388068 -1.8339304 -0.50782686
-1.1479641 -1.8236144 -0.50690597
-1.1654148 -1.8263798 -0.50966865
-1.1813565 -1.8265481 -0.51174062
-1.1973443 -1.8265892 -0.5138126
-1.2058365 -1.8151555 -0.51266146
-1.2196691 -1.8117585 -0.5138126
-1.2302145 -1.8034368 -0.51358235
-1.2456843 -1.802258 -0.51542413
-1.256161 -1.7937837 -0.51519388
-1.2654542 -1.7836614 -0.51450324
-1.2951204 -1.8019378 -0.52210051
-1.2763624 -1.7530519 -0.51012903
-1.2911388 -1.7506691 -0.51174062
-1.3129237 -1.7575253 -0.51611477
-1.3319046 -1.7602997 -0.51933783
-1.3462328 -1.7567282 -0.52071917
-1.3551962 -1.7461287 -0.52002853
-1.3598703 -1.7301302 -0.5177263
-1.3734913 -1.7255603 -0.51887739
-1.3877181 -1.7216457 -0.52025872
-1.4019483 -1.7176213 -0.52164006
-1.4192816 -1.7172371 -0.52417248
-1.4404103 -1.7211819 -0.52808619
-1.4578654 -1.7204772 -0.53061861
-1.4683946 -1.7114997 -0.53061861
-1.477592 -1.7009883 -0.53015816
-1.4912151 -1.6955432 -0.53130925
-1.5067685 -1.6921749 -0.53315103
-1.5229882 -1.6894022 -0.53522301
-1.5425109 -1.6900874 -0.53844607
-1.554173 -1.6820202 -0.53890651
-1.5691186 -1.6774265 -0.54051805
-1.5720201 -1.6599954 -0.53798562
-1.5801555 -1.6482112 -0.53729498
-1.594306 -1.6426741 -0.53867626
-1.6057194 -1.6342487 -0.53913671
-1.6321893 -1.6409223 -0.544662
-1.6532763 -1.6418468 -0.54834551
-1.6556768 -1.6241763 -0.54581308
-1.6551274 -1.6038299 -0.54235983
-1.6867325 -1.6145012 -0.54949659
-1.6923641 -1.6001103 -0.54811531
-1.701439 -1.5890319 -0.54788506
-1.7140185 -1.5812013 -0.54880595
-1.7143363 -1.5621347 -0.54581308
-1.7267827 -1.5541902 -0.54673398
-1.7384686 -1.545505 -0.54742461
-1.7676646 -1.5521431 -0.55364054
-1.7683321 -1.5336175 -0.55087793
-1.7777089 -1.5227385 -0.55087793
-1.7922199 -1.5162009 -0.55248946
-1.8104516 -1.5126621 -0.55525208
-1.8384658 -1.5170065 -0.56100756
-1.8515116 -1.5087706 -0.5621587
-1.8645254 -1.5004317 -0.56330979
-1.8683633 -1.4847255 -0.56169826
-1.8713131 -1.4684281 -0.55985647
-1.8756721 -1.4533427 -0.5584752
-1.9077429 -1.459543 -0.56538177
-1.9228752 -1.4525015 -0.56722349
-1.9450138 -1.4505644 -0.57113725
-1.9452569 -1.4322568 -0.56860483
-1.9532212 -1.419722 -0.56837463
-1.9634773 -1.4088449 -0.56883508
-1.9633487 -1.3905847 -0.56630266
-1.9782251 -1.3829715 -0.56814438
-1.9890769 -1.372465 -0.56883508
-1.9998739 -1.3618774 -0.56952572
-2.0219243 -1.3588068 -0.57343942
-2.0229242 -1.3415353 -0.57136744
-2.0490334 -1.3408183 -0.57643229
-2.0621276 -1.3313869 -0.57781363
-2.0653329 -1.3155725 -0.57643229
-2.0667741 -1.2987338 -0.57459056
-2.0573332 -1.275263 -0.56975591
-2.0916893 -1.2788562 -0.57712299
-2.0936632 -1.2624809 -0.5755114
-2.1172631 -1.2590593 -0.5798856
-2.1199117 -1.2430913 -0.57850426
-2.1266565 -1.2295735 -0.57827407
-2.1502254 -1.2256559 -0.58264822
-2.1517665 -1.2091029 -0.58103669
-2.1659555 -1.1996484 -0.58287847
-2.1801093 -1.1900651 -0.58472019
-2.1822281 -1.1739004 -0.58333892
-2.1885302 -1.1600326 -0.58310866
-2.2197609 -1.1591927 -0.58955479
-2.2242355 -1.1442155 -0.58886415
-2.2459724 -1.1380221 -0.59277791
-2.252913 -1.1242197 -0.59277791
-2.2554014 -1.1082295 -0.59162676
-2.2682912 -1.0973357 -0.59323835
-2.2916758 -1.091345 -0.5976125
-2.279824 -1.0685918 -0.59277791
-2.2863379 -1.0545828 -0.59277791
-2.290107 -1.0393282 -0.59208721
-2.2866662 -1.0208939 -0.58955479
-2.2902141 -1.0056704 -0.58886415
-2.2900875 -0.98889917 -0.58725262
-2.2952163 -0.97444862 -0.58702242
-2.299356 -0.95959771 -0.58656198
-2.3106029 -0.94768614 -0.58794326
-2.3118613 -0.93167245 -0.58679217
-2.3157246 -0.91675347 -0.58633173
-2.3240273 -0.90358478 -0.58702242
-2.3395288 -0.89312446 -0.58955479
-2.3185372 -0.86885244 -0.58287847
-2.3247383 -0.85494554 -0.58310866
-2.3299403 -0.84066516 -0.58310866
-2.3304677 -0.82473028 -0.58195758
-2.3419199 -0.8126477 -0.58356911
-2.3376489 -0.7951299 -0.58126694
-2.3877225 -0.7958445 -0.59254766
-2.3657324 -0.77242231 -0.58587128
-2.3898933 -0.76411349 -0.59070593
-2.3954656 -0.74972552 -0.59093612
-2.3851326 -0.73045528 -0.58725262
-2.4063499 -0.72083133 -0.59139657
-2.4135294 -0.70687294 -0.59208721
-2.3953669 -0.68562603 -0.58656198
-2.3882821 -0.66777211 -0.5837993
-2.41956 -0.66053468 -0.59047568
-2.4132233 -0.64292145 -0.58794326
-2.4086459 -0.62590027 -0.58587128
-2.4133844 -0.61134821 -0.58610153
-2.4199247 -0.59722763 -0.58679217
-2.4235435 -0.58236808 -0.58679217
-2.4384425 -0.570144 -0.58955479
-2.4542313 -0.55797452 -0.59254766
-2.4538078 -0.54206592 -0.59162676
-2.456136 -0.52679545 -0.59139657
-2.4793301 -0.51587582 -0.59623116
-2.4862645 -0.50142235 -0.59715205
-2.5370502 -0.49547893 -0.60866302
-2.4797995 -0.46852699 -0.59415919
-2.4902864 -0.45469993 -0.59600097
-2.4796119 -0.43704784 -0.59277791
-2.4620996 -0.41840342 -0.58794326
-2.4886301 -0.40721446 -0.59369874
-2.4805071 -0.39027423 -0.59116638
-2.4847796 -0.37533727 -0.59162676
-2.5207448 -0.36496073 -0.59968448
-2.5132971 -0.34815261 -0.59738231
-2.5182803 -0.33310729 -0.59807295
-2.529932 -0.318865 -0.60037512
-2.5115497 -0.30090675 -0.59554052
-2.5500922 -0.28966025 -0.60428888
-2.5131183 -0.26985592 -0.59508008
-2.5195677 -0.25491992 -0.59623116
-2.5162404 -0.23899578 -0.59508008
-2.5302608 -0.22466949 -0.59807295
-2.5335314 -0.20929991 -0.59853339
-2.5454414 -0.19456522 -0.60106581
-2.5630903 -0.18010092 -0.60497952
-2.5602624 -0.16412209 -0.60405862
-2.5641358 -0.14857809 -0.60474932
-2.5611117 -0.13264114 -0.60382843
-2.5618775 -0.11692394 -0.60382843
-2.5693533 -0.10147047 -0.60543996
-2.5582564 -0.085315295 -0.60267735
-2.5441401 -0.06922105 -0.59922403
-2.5347874 -0.05340524 -0.59692186
-2.5457709 -0.038009755 -0.59945428
-2.5264943 -0.02221938 -0.59484988
-2.5304754 -0.0067266217 -0.59577072
-2.5411735 0.0088385688 -0.59830314
-2.5342598 0.024364542 -0.59669161
-2.5651991 0.040407728 -0.60405862
-2.56393 0.056125335 -0.60382843
-2.5489461 0.071445741 -0.60037512
-2.5397065 0.086784415 -0.59830314
-2.5488498 0.10275915 -0.60060537
-2.5355341 0.11780818 -0.5976125
-2.5503123 0.13418342 -0.60129601
-2.5513837 0.14994371 -0.60175645
-2.5698376 0.16685896 -0.60636085
-2.5687652 0.18262404 -0.60636085
-2.5598345 0.19778173 -0.60451907
-2.5585728 0.21348485 -0.60451907
-2.5455837 0.22813633 -0.60175645
-2.5402613 0.2433798 -0.60083556
-2.5532415 0.26044476 -0.60428888
-2.552563 0.27621108 -0.60451907
-2.5459859 0.29131448 -0.60336798
-2.5547779 0.3082141 -0.60590041
-2.5528386 0.32388413 -0.60590041
-2.556591 0.34031296 -0.60728174
-2.5534909 0.35585907 -0.60705149
-2.5685928 0.3740463 -0.61119545
-2.5643251 0.38950735 -0.610735
-2.5609257 0.40508229 -0.61050481
-2.5507102 0.41952392 -0.60866302
-2.5864575 0.44172376 -0.61787182
-2.5472863 0.4511331 -0.60912347
-2.5569131 0.46903828 -0.61211634
-2.5616355 0.4861708 -0.61395812
-2.5461903 0.49944317 -0.61096525
-2.5650141 0.51950204 -0.61626029
-2.5274863 0.5280627 -0.60797238
-2.5403709 0.54704541 -0.61188614
-2.519866 0.55882829 -0.60774219
-2.5211332 0.57536244 -0.60889328
-2.5194502 0.59126592 -0.60935372
-2.5271266 0.60945272 -0.61211634
-2.5242844 0.62518144 -0.61234653
-2.554353 0.64929247 -0.62063444
-2.5239553 0.65807617 -0.61418831
-2.5349116 0.67757273 -0.61787182
-2.5457232 0.69722837 -0.62155533
-2.5357754 0.71125805 -0.62017399
-2.5182688 0.72304279 -0.61695093
-2.5165861 0.73930407 -0.61764163
-2.5064106 0.75305104 -0.61626029
-2.5138357 0.77213156 -0.61925316
-2.5081222 0.78725016 -0.61902291
-2.5199239 0.80797476 -0.62316686
-2.5130692 0.82281572 -0.62270641
-2.5061274 0.83760303 -0.62224597
-2.5073879 0.85516405 -0.62385756
-2.4984171 0.86925358 -0.62293667
-2.4719436 0.87708062 -0.61764163
-2.4738359 0.89488071 -0.61948335
-2.4637334 0.90835935 -0.61833227
-2.4608462 0.92448646 -0.61902291
-2.4414949 0.93434983 -0.61556965
-2.4420626 0.95178735 -0.61718118
-2.446126 0.97070301 -0.6197136
-2.4464395 0.98824596 -0.62132514
-2.4421299 1.0039786 -0.62178558
-2.4323328 1.0174419 -0.62086469
-2.4457428 1.0407319 -0.62592953
-2.4562788 1.0630648 -0.63030368
-2.4497097 1.0781162 -0.63030368
-2.4688072 1.1046559 -0.63698006
-2.4194653 1.1004401 -0.62592953
-2.4453495 1.1303761 -0.63444763
-2.4366059 1.1445316 -0.63398719
-2.4339285 1.1615568 -0.63513827
-2.3969843 1.1620328 -0.62731081
-2.4177451 1.1904775 -0.63467783
-2.39821 1.1991957 -0.63145477
-2.3786595 1.2077193 -0.6282317
-2.3936927 1.2338867 -0.63421744
-2.3627977 1.2363669 -0.62800151
-2.368058 1.2576896 -0.63145477
-2.3680055 1.2763523 -0.63352674
-2.3601296 1.290858 -0.63352674
-2.3504629 1.3043706 -0.6330663
-2.3152812 1.3034884 -0.62569928
-2.3317444 1.3316683 -0.63237566
-2.3479478 1.3600985 -0.63905203
-2.3496261 1.3803959 -0.64181465
-2.341948 1.3952851 -0.6420449
-2.3200164 1.4015763 -0.63836139
-2.2889686 1.402059 -0.63214546
-2.2976823 1.4268602 -0.63698006
-2.2938249 1.4440428 -0.63836139
-2.2799995 1.4549488 -0.63698006
-2.2628586 1.4636252 -0.63467783
-2.2644148 1.4844191 -0.6376707
-2.2544534 1.4977468 -0.6374405
-2.2436066 1.5104645 -0.63698006
-2.2407272 1.5285907 -0.63882178
-2.2353079 1.5450777 -0.63997293
-2.2281766 1.5604391 -0.64066356
-2.2249088 1.5785869 -0.64250535
-2.2191317 1.5950494 -0.64365643
-2.2242489 1.6195205 -0.64803058
-2.208005 1.6285162 -0.64618886
-2.1808209 1.6292186 -0.64112401
-2.1816466 1.6507909 -0.64434707
-2.1761105 1.6676983 -0.64572841
-2.1504629 1.6690843 -0.64112401
-2.1600716 1.6978858 -0.64710969
-2.1496129 1.7111077 -0.64710969
-2.1504371 1.7334272 -0.650563
-2.1284533 1.737358 -0.64710969
-2.1237531 1.7553456 -0.64895147
-2.1039879 1.7608479 -0.64618886
-2.0961134 1.7762414 -0.64710969
-2.0851753 1.7890695 -0.64710969
-2.0793004 1.806298 -0.64872122
-2.0718315 1.8222362 -0.64987236
-2.0700583 1.8433284 -0.65286517
-2.0579863 1.8553437 -0.65263498
-2.0329082 1.8554704 -0.64826083
-2.0214849 1.8679092 -0.64826083
-1.9950631 1.8663154 -0.64342618
-1.9920521 1.8865522 -0.64618886
-1.997296 1.9149047 -0.65171409
-1.9771299 1.9189899 -0.64895147
-1.9583774 1.9242642 -0.6466493
-1.9396348 1.9293807 -0.64434707
-1.9318738 1.9453893 -0.64572841
-1.9021845 1.9391423 -0.63974267
-1.900407 1.9612615 -0.64319599
-1.8755537 1.9595268 -0.63882178
-1.9096206 2.0197945 -0.65470695
-1.8892218 2.0229383 -0.65194434
-1.8688567 2.025908 -0.64918166
-1.8445942 2.0243881 -0.64503771
-1.8269306 2.0298812 -0.64319599
-1.81832 2.0454171 -0.64457732
-1.8102295 2.0616546 -0.64618886
-1.7911702 2.0653708 -0.64388663
-1.763905 2.0593221 -0.63859159
-1.7524928 2.0715923 -0.63905203
-1.734758 2.0763319 -0.63721025
-1.7269393 2.0929422 -0.63905203
-1.7177527 2.1080258 -0.64043337
-1.7047858 2.1185262 -0.64043337
-1.6953868 2.1335182 -0.64181465
-1.6948776 2.1599593 -0.6466493
-1.6619262 2.1449308 -0.63905203
-1.6463689 2.1519961 -0.63813114
-1.6231635 2.1488559 -0.63421744
-1.6204183 2.1728177 -0.63836139
-1.5880181 2.1568573 -0.63076413
-1.5627404 2.1500287 -0.62592953
-1.5585943 2.1722286 -0.62961304
-1.5469236 2.1841338 -0.63030368
-1.527918 2.1856079 -0.62800151
-1.524425 2.2093606 -0.63214546
-1.549176 2.2749813 -0.64826083
-1.5433284 2.2965603 -0.65171409
-1.5222173 2.2954428 -0.64872122
-1.5011783 2.2941532 -0.64572841
-1.4934064 2.3131323 -0.64849102
-1.5016621 2.3575478 -0.65839046
-1.51357 2.4087424 -0.67013168
-1.4849211 2.3956504 -0.66391575
-1.4651184 2.3964133 -0.66161352
-1.4408407 2.3895233 -0.65723938
-1.4132221 2.3765707 -0.65125364
-1.4148542 2.4129014 -0.65885091
-1.3839514 2.3937342 -0.65125364
-1.3774285 2.4165542 -0.6551674
-1.3559022 2.4130826 -0.65194434
-1.3457844 2.4298701 -0.65424651
-1.3275864 2.4321024 -0.65263498
-1.3186303 2.4513443 -0.65562785
-1.2962738 2.4456313 -0.65194434
-1.2843961 2.4595776 -0.65355587
-1.2728406 2.4743352 -0.65539759
-1.2580743 2.4829669 -0.65562785
-1.2462907 2.4976058 -0.65746957
-1.2283678 2.4999652 -0.65608829
-1.2117342 2.5048273 -0.65539759
-1.1946687 2.5087006 -0.65447676
-1.1709948 2.4983597 -0.64987236
-1.1556431 2.5054979 -0.64987236
-1.1659805 2.569258 -0.66460639
-1.149004 2.5736978 -0.66391575
-1.1652659 2.6537666 -0.68279374
-1.1524321 2.6689076 -0.68486571
-1.1143627 2.6248684 -0.67174321
-1.0708829 2.5660944 -0.65493715
-1.0680388 2.6041307 -0.66299486
-1.0727681 2.6620855 -0.67611736
-1.0571299 2.6704273 -0.67657781
-1.0357889 2.6641653 -0.67335474
-1.0298315 2.6977458 -0.68026131
-1.0081383 2.6903446 -0.67680806
-0.98355269 2.6745589 -0.67128277
-0.93047363 2.5789325 -0.64572841
-0.91560572 2.5873458 -0.64641905
-0.90258306 2.6011896 -0.64849102
-0.90634167 2.6647229 -0.66299486
-0.88443714 2.6536157 -0.65885091
-0.87840426 2.6904461 -0.66667837
-0.86780471 2.7143242 -0.67128277
-0.85810715 2.7418878 -0.67680806
-0.84297627 2.7526846 -0.67818934
-0.81881243 2.733567 -0.67220366
-0.7908138 2.700248 -0.66276467
-0.7715537 2.6956937 -0.66046244
-0.75683224 2.7069376 -0.66207397
-0.73431623 2.6899378 -0.65677893
-0.71579391 2.6868699 -0.65493715
-0.70516557 2.7138166 -0.66046244
-0.70641536 2.7888448 -0.67772889
-0.69604903 2.8205266 -0.68440527
-0.66441166 2.765132 -0.66990143
-0.65141886 2.7862136 -0.67404538
-0.63172305 2.7787709 -0.67128277
-0.61612964 2.7892466 -0.6728943
-0.5973717 2.7853622 -0.67105258
-0.57670337 2.7718258 -0.66690862
-0.56429976 2.798207 -0.67243385
-0.55364466 2.8350458 -0.68049157
-0.5373221 2.8441269 -0.68187284
-0.51531869 2.8224797 -0.67588717
-0.4990035 2.8313389 -0.67726851
-0.4798291 2.8237941 -0.67473608
-0.47050276 2.8756645 -0.68647724
-0.45390719 2.8852267 -0.68808877
-0.43532377 2.882184 -0.6867075
-0.42083558 2.9069524 -0.69200253
-0.40098956 2.8950207 -0.68854922
-0.3842386 2.9051445 -0.690391
-0.36579776 2.9026201 -0.68923992
-0.36174437 3.0197926 -0.716636
-0.33113819 2.9155927 -0.6913119
-0.30877903 2.8759634 -0.6814124
-0.29416016 2.9078183 -0.68854922
-0.2776913 2.9241004 -0.69200253
-0.25991604 2.9276879 -0.69246298
-0.24338752 2.9466846 -0.69660693
-0.22500616 2.9442415 -0.69568604
-0.20863917 2.9698355 -0.70144153
-0.19066128 2.9749441 -0.70236242
-0.17021225 2.938169 -0.69338387
-0.1525324 2.945961 -0.6949954
-0.13533878 2.966284 -0.6995998
-0.11725036 2.9699759 -0.70029044
-0.098442718 2.9531326 -0.69614649
-0.081902698 3.012048 -0.70995963
-0.062868893 2.9862247 -0.70374376
-0.045092754 3.0235295 -0.71249205
-0.026489144 3.0179107 -0.71111077
-0.0079388022 3.0053656 -0.7081179
0.010383362 2.9722712 -0.70029044
0.028762551 2.986748 -0.70374376
0.047242634 2.9962454 -0.70604593
0.065348186 2.9832513 -0.70305306
0.083241314 2.9682031 -0.6995998
0.10195234 2.9822247 -0.70305306
0.11977737 2.9698751 -0.70029044
0.13912964 2.9933863 -0.70604593
0.15713547 2.9856737 -0.70443439
0.17550947 2.9856248 -0.70466459
0.193573 2.9806075 -0.70374376
0.21082135 2.9648032 -0.70029044
0.2284836 2.9566622 -0.69867891
0.24605393 2.9484165 -0.69706738
0.26527098 2.9594512 -0.70006019
0.28277448 2.9509871 -0.69844866
0.30196345 2.9598455 -0.70098108
0.31854716 2.9434249 -0.69752783
0.33948058 2.966552 -0.7035135
0.35895982 2.9750404 -0.70604593
0.37328494 2.9418898 -0.69867891
0.38914442 2.9231455 -0.69476515
0.41070253 2.9467254 -0.70098108
0.42723194 2.9335573 -0.69844866
0.45180455 2.9741747 -0.70880854
0.4706538 2.9751911 -0.70972943
0.48716199 2.9616847 -0.70719701
0.50778419 2.9730284 -0.71065032
0.52703565 2.975606 -0.7120316
0.54229707 2.9560444 -0.7081179
0.56115103 2.9564855 -0.70903879
0.5798434 2.9558516 -0.70972943
0.59970862 2.9608219 -0.71180141
0.62025404 2.9685171 -0.71456403
0.63415271 2.9446778 -0.70972943
0.65157658 2.9378812 -0.70903879
0.66894096 2.9309819 -0.7083481
0.68602282 2.9230325 -0.70742726
0.70211935 2.9112 -0.70558548
0.72979873 2.9465096 -0.71525472
0.75290096 2.9617815 -0.72008932
0.77179682 2.9599309 -0.72077996
0.78994405 2.9551396 -0.72077996
0.8090902 2.9539912 -0.72170085
0.82930356 2.9564667 -0.72354263
0.84044355 2.9270041 -0.71755689
0.86250323 2.935797 -0.72101021
0.88526261 2.9462929 -0.72492391
0.90646809 2.9510379 -0.72745633
0.92951423 2.9612038 -0.73137009
0.94915241 2.960078 -0.73252118
0.96760011 2.9551229 -0.73275137
0.98818272 2.9565139 -0.73459315
1.0072476 2.9531577 -0.73528379
1.0240694 2.9432454 -0.73436296
1.041133 2.9341555 -0.73367226
1.0607727 2.9322872 -0.73482335
1.0844693 2.9412446 -0.73873711
1.108658 2.950932 -0.74288106
1.1256999 2.9413474 -0.74219042
1.1302942 2.8999314 -0.73344207
1.1197028 2.8214869 -0.71525472
1.1504835 2.8479474 -0.72377282
1.1612746 2.8246343 -0.71962887
1.1913555 2.8479784 -0.72745633
1.2053778 2.832556 -0.72538435
1.2223487 2.8242137 -0.72515416
1.2463201 2.8318014 -0.72906786
1.2684429 2.8347597 -0.73183054
1.2878277 2.831352 -0.73298162
1.3096688 2.8331132 -0.73551404
1.3324075 2.8364737 -0.73850691
1.3464329 2.8212192 -0.73666513
1.3581984 2.8015215 -0.73367226
1.370633 2.7835319 -0.73113984
1.40597 2.8116241 -0.74080908
1.4218733 2.8003411 -0.74011844
1.4274341 2.7690756 -0.73413271
1.4371778 2.74647 -0.7304492
1.4412196 2.7135367 -0.72400308
1.4693875 2.7260571 -0.72975856
1.4786137 2.70333 -0.72607505
1.5131201 2.7265389 -0.73482335
1.5135864 2.6883733 -0.72699589
1.5377766 2.6925554 -0.73067939
1.5596353 2.6923313 -0.73321182
1.5746467 2.6801939 -0.73252118
1.5850846 2.66045 -0.72975856
1.6119478 2.6681647 -0.73459315
1.6145626 2.6358194 -0.72837722
1.6276246 2.6209033 -0.72699589
1.6773797 2.6643937 -0.74196017
1.7251108 2.7032685 -0.75577337
1.740608 2.6909983 -0.75531292
1.7485493 2.6672468 -0.75162941
1.7616508 2.6516044 -0.75024807
1.7604942 2.6149154 -0.74288106
1.7781515 2.6064754 -0.7435717
1.794111 2.5955157 -0.7435717
1.8016285 2.5725026 -0.74011844
1.8072416 2.5471146 -0.73597449
1.8563513 2.5825961 -0.74955744
1.8670069 2.5640771 -0.74748546
1.8850154 2.5557055 -0.74840635
1.9041563 2.5487685 -0.74978763
1.896856 2.5067744 -0.74080908
1.9376583 2.5282991 -0.75070852
1.9680538 2.5355797 -0.756464
1.9787633 2.5173359 -0.75462228
2.01175 2.5272253 -0.7612986
2.0162246 2.5011973 -0.75715464
2.0278411 2.484256 -0.75577337
2.0746684 2.5100181 -0.76751453
2.0906551 2.4979873 -0.76774478
2.0902131 2.466553 -0.7619893
2.0989707 2.4462965 -0.75968707
2.0916021 2.4076607 -0.75162941
1.0907758 1.2403442 -0.38788247
1.0964242 1.2314478 -0.3871918
1.1039597 1.2246971 -0.3871918
1.1107974 1.2171816 -0.38696158
1.115603 1.2074842 -0.38604072
1.1223261 1.1999058 -0.38581049
1.1296674 1.1929967 -0.38581049
1.1356192 1.1846379 -0.38535005
1.1482893 1.1832335 -0.3871918
1.1527995 1.1733892 -0.38627094
1.1579185 1.1642241 -0.38558027
1.1657308 1.157783 -0.38581049
1.1352954 1.1138132 -0.37337863
1.1141508 1.0797415 -0.36416984
1.1080996 1.0607742 -0.36002588
1.1011509 1.0412537 -0.35565174
1.1025401 1.0298287 -0.35404018
1.0866627 1.0025917 -0.34690338
1.0899165 0.99328369 -0.34598249
1.106118 0.99569046 -0.34920558
1.110752 0.98759174 -0.34874514
1.1255666 0.98846185 -0.35150778
1.1338162 0.98344934 -0.35219842
1.1390901 0.97584087 -0.3519682
1.1457993 0.96946156 -0.35219842
1.1435108 0.95555043 -0.34966603
1.1433471 0.94356173 -0.34782425
2.6406703 2.1516976 -0.80296838
2.6227365 2.1104441 -0.79352939
2.6303029 2.0900741 -0.7919178
2.6423123 2.0732946 -0.79168761
2.6657543 2.0653861 -0.79491067
2.7185707 2.0797338 -0.80688208
2.7103133 2.0471792 -0.80066615
2.7251639 2.0322559 -0.80135685
2.7297451 2.0097272 -0.79905462
2.7743018 2.0163949 -0.80849361
2.7526207 1.9749432 -0.79859418
2.8004255 1.983323 -0.80895406
2.7630894 1.9315383 -0.79468048
2.8453798 1.9631752 -0.8149398
2.8171518 1.9182966 -0.80342883
2.8595638 1.9215976 -0.81217712
2.8607569 1.8970248 -0.80918431
2.8853724 1.8879601 -0.81286782
2.8682864 1.8517489 -0.80481011
2.8960109 1.844569 -0.80941451
2.9410594 1.8479896 -0.8188535
2.961442 1.8355473 -0.82138592
2.9917462 1.8290149 -0.82668096
2.9870777 1.8010775 -0.82230681
2.9905443 1.7782395 -0.82023484
3.0005596 1.7593642 -0.82000464
2.9944479 1.7311802 -0.81540024
2.9999411 1.709883 -0.81401891
2.9764392 1.6723787 -0.80481011
3.0104821 1.6672835 -0.81125629
3.0326147 1.6553066 -0.81447935
3.0221448 1.6256055 -0.80895406
3.056999 1.6202453 -0.81563044
3.0789599 1.6077627 -0.8188535
3.0870361 1.5879501 -0.81839305
3.1210289 1.5812916 -0.82483923
3.0671048 1.5303992 -0.80803317
3.1148689 1.5304298 -0.81816286
3.1224487 1.5104412 -0.81770241
3.133415 1.4920903 -0.81816286
3.1574917 1.4798555 -0.82207662
3.091397 1.4258161 -0.80250794
3.1381938 1.4241099 -0.81240737
3.2090778 1.4325912 -0.82852274
3.1750369 1.3940978 -0.81747222
3.2058673 1.3842322 -0.8232277
1.0446887 0.4436875 -0.26563588
1.0518819 0.43914255 -0.26678696
1.0374492 0.42566565 -0.26241279
1.0274047 0.4142009 -0.25918972
1.0335461 0.40932149 -0.26011059
1.0269679 0.39944661 -0.25780842
1.0394005 0.39695442 -0.26034081
1.0527521 0.39466596 -0.26310346
1.065201 0.39189261 -0.26563588
1.0602622 0.38270789 -0.26379412
1.091948 0.3865808 -0.27116114
1.0887831 0.37795991 -0.26977983
1.1049018 0.37597123 -0.27323312
1.0988787 0.3664161 -0.27116114
1.0798289 0.3527219 -0.2658661
1.1181237 0.35764375 -0.27484465
1.0980071 0.34380272 -0.26931939
1.061945 0.32537958 -0.25988036
1.0359542 0.31048307 -0.25297379
1.0014163 0.29345721 -0.24399523
0.99103528 0.28382719 -0.24100237
1.0096282 0.28245592 -0.24514632
0.99538243 0.27190045 -0.24123259
1.0054953 0.26804155 -0.24330457
1.0118306 0.26309013 -0.24445567
1.008709 0.25568241 -0.24330457
1.0301 0.25438273 -0.24813919
1.0344801 0.24873918 -0.24882984
1.0435677 0.2441587 -0.2506716
1.0403014 0.2366727 -0.2495205
1.0531372 0.23280284 -0.25228313
1.0516912 0.22572458 -0.25159249
1.0654422 0.22184303 -0.25458533
1.0562899 0.21318629 -0.2520529
1.0613985 0.20744672 -0.25297379
1.08082 0.20436092 -0.25734797
1.0581204 0.19335794 -0.25159249
1.0554533 0.18618652 -0.2506716
3.4560399 0.58720177 -0.82645077
3.4355681 0.56205881 -0.82069528
3.443759 0.54172367 -0.82184637
3.4114151 0.5152089 -0.81332827
3.4135489 0.49412781 -0.81309801
3.4232643 0.47410738 -0.81470954
3.4135671 0.45143607 -0.81171674
3.4085488 0.42950958 -0.80987495
3.4507358 0.41332915 -0.81931394
3.4358022 0.39017293 -0.81516999
3.4574835 0.37115979 -0.81977439
3.4287133 0.34680668 -0.81240737
3.4424021 0.32686493 -0.81516999
3.4530668 0.30651027 -0.81724197
3.451973 0.28507686 -0.81655133
3.4662714 0.26485342 -0.8195442
3.4804511 0.24446525 -0.822537
3.4566355 0.22148903 -0.81655133
3.4336417 0.19887051 -0.81079584
3.4085574 0.17644212 -0.80457991
3.4095759 0.15552427 -0.80457991
3.4075489 0.13448568 -0.80388921
3.3956661 0.11315449 -0.80089641
3.4157522 0.092844248 -0.80550081
3.4036095 0.071618691 -0.80250794
3.3553333 0.050011903 -0.79099697
3.3575234 0.029439932 -0.79145741
3.1296937 0.0085171312 -0.8050946
3.1190367 -0.010652254 -0.80234414
3.0675983 -0.029310381 -0.78909189
3.1031811 -0.048686959 -0.79834348
3.1212163 -0.06812451 -0.80309427
3.0917034 -0.086468518 -0.79559302
3.0611169 -0.10442014 -0.78784168
3.0410693 -0.12242591 -0.78284085
3.0634737 -0.14215562 -0.78884184
3.0722129 -0.16145621 -0.79134232
3.0701978 -0.18024738 -0.79109228
3.1067164 -0.20151898 -0.80084389
3.102524 -0.22037241 -0.80009377
3.1040096 -0.23962799 -0.80084389
3.0957265 -0.25810757 -0.7990936
3.0892625 -0.27666685 -0.7978434
3.0720851 -0.29414365 -0.79384273
3.0538471 -0.31132206 -0.78959203
3.0412903 -0.3289113 -0.78684151
3.0623026 -0.35020161 -0.79284257
3.03318 -0.36574498 -0.78584135
3.0510504 -0.38690314 -0.79109228
2.980473 -0.39656425 -0.77333927
3.0077128 -0.41897959 -0.78109056
2.9744241 -0.43297008 -0.77308923
2.9774551 -0.4520835 -0.77458948
2.9746251 -0.47034433 -0.77458948
3.0032129 -0.49376452 -0.78284085
2.976265 -0.5081141 -0.77658981
2.9587896 -0.52383763 -0.77283919
2.9564722 -0.54215699 -0.77308923
2.9388204 -0.55758309 -0.76933861
2.9448454 -0.57746601 -0.77183902
2.9260626 -0.5924533 -0.76783836
2.9318504 -0.61237377 -0.77033877
2.9469697 -0.63442326 -0.7753396
2.9174976 -0.64684027 -0.76858848
2.9106417 -0.66408402 -0.76783836
2.9093401 -0.68259382 -0.76858848
2.9050972 -0.7004323 -0.76858848
2.8800669 -0.71312916 -0.76308757
2.8934677 -0.73531473 -0.76783836
2.8785946 -0.75037056 -0.7650879
2.8954518 -0.77376395 -0.77083886
2.8560948 -0.78206164 -0.76158726
2.8503101 -0.79931039 -0.76133722
2.863966 -0.82212353 -0.76633811
2.8523643 -0.83777243 -0.76458782
2.859226 -0.858877 -0.76783836
2.8381662 -0.87157607 -0.76358765
2.8327649 -0.88897437 -0.76358765
2.8327894 -0.90811145 -0.7650879
2.8179617 -0.92246568 -0.76258749
2.815922 -0.94096571 -0.76358765
2.8082623 -0.95760155 -0.76308757
2.7886155 -0.97004598 -0.75933689
2.7935619 -0.99102056 -0.76233739
2.7856073 -1.0074847 -0.7618373
2.7893672 -1.0282395 -0.76458782
2.8065739 -1.0541823 -0.7710889
2.7801564 -1.0637752 -0.76558799
2.7762837 -1.0818679 -0.76633811
2.738991 -1.0867482 -0.75783664
2.7448413 -1.1086076 -0.76133722
2.7227621 -1.1191742 -0.75708652
2.7328169 -1.1429545 -0.7618373
2.6981306 -1.147956 -0.75408602
2.6848152 -1.1617994 -0.75233573
2.6829541 -1.18059 -0.75383598
2.6650527 -1.1922876 -0.75083548
2.6497536 -1.205012 -0.7485851
2.6431887 -1.2216539 -0.74883515
2.6452844 -1.2423747 -0.7515856
2.6227546 -1.2514971 -0.7473349
2.6202545 -1.2700994 -0.74883515
2.6089368 -1.2844431 -0.74783498
2.6139984 -1.306919 -0.7515856
2.6266527 -1.3334482 -0.7575866
2.6003458 -1.3402286 -0.75233573
2.5886414 -1.3543642 -0.75133556
2.5683091 -1.3638673 -0.74783498
2.5462532 -1.3722539 -0.74383432
2.5386348 -1.3883159 -0.74408436
2.5300686 -1.4038665 -0.74408436
2.505374 -1.4103436 -0.73933357
2.4949913 -1.4247298 -0.73883349
2.4929059 -1.4438927 -0.74083382
2.4297273 -1.4272969 -0.72458106
2.4483776 -1.4585249 -0.73283243
2.4534731 -1.4820279 -0.7370832
2.4352496 -1.4914935 -0.73433268
2.4211161 -1.5033445 -0.73283243
2.4126656 -1.5186875 -0.73308247
2.4081998 -1.5365864 -0.73458272
2.384903 -1.5423982 -0.73033202
2.3753939 -1.5570027 -0.73033202
2.3666024 -1.5720841 -0.73058206
2.3545017 -1.5849541 -0.72983193
2.3415322 -1.5971897 -0.72883177
2.3277049 -1.6087753 -0.72758156
2.3201694 -1.6246932 -0.72833169
2.3164754 -1.6433793 -0.73033202
2.2882619 -1.6445695 -0.72458106
2.2781279 -1.6585791 -0.72458106
2.2640111 -1.6696537 -0.72333086
2.2552755 -1.6846725 -0.72383094
2.2580245 -1.7084072 -0.72808164
2.2229021 -1.7033901 -0.72008032
2.2185287 -1.7217451 -0.72208065
2.2124908 -1.7389141 -0.7235809
2.1888986 -1.7422094 -0.71933019
2.1804292 -1.7574297 -0.72008032
2.1666038 -1.7683274 -0.71908015
2.1624312 -1.7871379 -0.72133052
2.1417699 -1.7922969 -0.71807998
2.1410763 -1.8141655 -0.72158056
2.1240244 -1.8222265 -0.71958023
2.109879 -1.8326857 -0.71858007
2.1065936 -1.8526291 -0.72133052
2.0995259 -1.8693821 -0.72283077
2.0743492 -1.869915 -0.71807998
2.0399463 -1.8617269 -0.71007866
2.0163922 -1.8630414 -0.70582789
2.0162392 -1.8859588 -0.70982862
1.9898621 -1.8843174 -0.70457768
1.9740682 -1.8924723 -0.70307744
1.9547743 -1.8971334 -0.70032698
1.9541501 -1.9199466 -0.70432764
1.9402728 -1.929853 -0.70357752
1.9304422 -1.9437823 -0.70432764
1.9116969 -1.9486806 -0.70182723
1.9158791 -1.9770579 -0.70782822
1.8802731 -1.9643012 -0.69907677
1.8841541 -1.9926826 -0.70507777
1.8659424 -1.9978389 -0.70282739
1.8523353 -2.0078275 -0.70232731
1.8236725 -2.0012677 -0.69607627
1.8197817 -2.0217733 -0.69932681
1.7899678 -2.0133679 -0.69257569
1.7756631 -2.0221307 -0.69182557
1.7581457 -2.0271375 -0.68982524
1.7381134 -2.0290649 -0.68682474
1.7350137 -2.0507772 -0.69057536
1.7130828 -2.0502415 -0.68682474
1.6936899 -2.052501 -0.68407428
1.6816758 -2.0636051 -0.68432432
1.6641244 -2.0678513 -0.68232399
1.6526102 -2.0795391 -0.68282408
1.6398191 -2.0896401 -0.68282408
1.6210343 -2.0920103 -0.6803236
1.6093445 -2.1034553 -0.68082368
1.5876507 -2.1017039 -0.67707306
1.5874639 -2.1284781 -0.68257403
1.56174 -2.1210284 -0.67707306
1.5498351 -2.1321373 -0.67757314
1.5446287 -2.1526182 -0.68107373
1.5252333 -2.1533656 -0.67832327
1.5064421 -2.1547496 -0.67582285
1.485491 -2.1527975 -0.67232227
1.4700731 -2.1586711 -0.67132211
1.4524779 -2.1612227 -0.66932178
1.4370482 -2.1668673 -0.66832161
1.4099357 -2.1545827 -0.66182053
1.3898588 -2.1526203 -0.65856999
1.3662165 -2.144778 -0.6535691
1.3406618 -2.1334484 -0.64756811
1.3249943 -2.1375203 -0.6463179
1.310338 -2.1431322 -0.64556777
1.2931616 -2.1444998 -0.64356744
1.2760181 -2.1457374 -0.64156711
1.2603781 -2.1493511 -0.6403169
1.2452269 -2.1536918 -0.63931674
1.2267119 -2.1520402 -0.63656628
1.225822 -2.1814702 -0.64306736
1.2039654 -2.1737068 -0.63856661
1.1836431 -2.1683073 -0.63481599
1.1698574 -2.1746767 -0.63456595
1.1524087 -2.1741154 -0.63231558
1.1399437 -2.1828618 -0.63281566
1.1296306 -2.1958413 -0.63456595
1.1078166 -2.1863234 -0.62981516
1.0827018 -2.1696911 -0.62306398
1.0706501 -2.1789002 -0.62381411
1.0526198 -2.175842 -0.62106365
1.0371666 -2.1778896 -0.61981344
1.0262507 -2.1894722 -0.62131369
1.005899 -2.180783 -0.61706299
0.98849529 -2.1780984 -0.61456257
0.97471714 -2.1832385 -0.61431253
0.95312268 -2.1705635 -0.60906166
0.93440932 -2.1639276 -0.60556108
0.92035693 -2.1678381 -0.60506099
0.89621687 -2.1475344 -0.59780973
0.89478785 -2.1816561 -0.60581112
0.88174677 -2.1880033 -0.60606116
0.86687833 -2.1897717 -0.60506099
0.84921253 -2.1842215 -0.6020605
0.83302999 -2.1821554 -0.60006011
0.8152048 -2.1754401 -0.59680957
0.80384779 -2.185853 -0.59830981
0.78844744 -2.1852801 -0.59680957
0.76920527 -2.1736486 -0.59230882
0.75394768 -2.1728396 -0.59080857
0.73248833 -2.1535938 -0.58430749
0.72354996 -2.1709063 -0.58780807
0.71623117 -2.193712 -0.5928089
0.70305246 -2.1989875 -0.59305894
0.68867809 -2.2004881 -0.59230882
0.66892022 -2.1843064 -0.58680791
0.6580078 -2.1967168 -0.58905828
0.64152032 -2.1904924 -0.58630782
0.62646753 -2.1888027 -0.58480757
0.61224258 -2.1898084 -0.58405745
0.59726322 -2.1879199 -0.5825572
0.58083308 -2.1803169 -0.5795567
0.56622517 -2.1791546 -0.5783065
0.55022538 -2.1722641 -0.57555604
0.53247362 -2.1577399 -0.57080519
0.52262104 -2.1750872 -0.57455587
0.5070582 -2.1688254 -0.5720554
0.49631983 -2.1832249 -0.57505596
0.48333266 -2.1881199 -0.57555604
0.46847439 -2.1844177 -0.57380575
0.45348233 -2.1796682 -0.57180536
0.44067463 -2.185257 -0.57255548
0.42688617 -2.1860192 -0.5720554
0.41346496 -2.1885974 -0.5720554
0.40055069 -2.1939504 -0.57280552
0.38539812 -2.186832 -0.57030511
0.37002313 -2.1777015 -0.56730461
0.3555578 -2.1732426 -0.56555432
0.34101042 -2.1677318 -0.56355399
0.32509542 -2.1525514 -0.55905324
0.31215948 -2.1564221 -0.55955333
0.29998693 -2.1659691 -0.56155366
0.28758168 -2.1744881 -0.56330395
