# .PCD v0.7 - Point Cloud Data file format
VERSION 0.7
FIELDS x y z
SIZE 4 4 4
TYPE F F F
COUNT 1 1 1
WIDTH 1546
HEIGHT 1
VIEWPOINT 0 0 0 1 0 0 0
POINTS 1546
DATA ascii
25.170858 -18.406265 3.4853244
25.11974 -18.606503 3.4939921
25.081413 -18.817537 3.5046597
24.895845 -18.918167 3.4948809
24.629658 -18.95541 3.4737678
24.413338 -19.028589 3.4596553
24.205629 -19.106606 3.4467652
23.909391 -19.112051 3.421207
23.715197 -19.196497 3.4102061
23.506268 -19.267313 3.3970935
23.295071 -19.334383 3.3836479
23.102198 -19.414936 3.372869
22.875156 -19.464872 3.3570898
22.621269 -19.489405 3.3373098
22.387421 -19.528543 3.3204193
22.251532 -19.651728 3.3180859
22.173502 -19.826309 3.3245308
5.3942943 -4.8838601 0.81228393
4.8125224 -4.4112682 0.72860909
5.467279 -5.0733838 0.83261931
22.616884 -21.244244 3.4682117
22.656792 -21.54492 3.4945476
22.732517 -21.884098 3.5268841
22.923073 -22.340147 3.577667
22.941916 -22.634628 3.6022248
23.136604 -23.108559 3.6550078
23.145329 -23.40271 3.6790102
23.3291 -23.879814 3.7314599
23.336723 -24.182693 3.756351
23.527334 -24.681498 3.8113565
23.620714 -25.085865 3.8513606
23.702564 -25.484291 3.890142
23.879242 -25.992235 3.9452586
24.033869 -26.484896 3.997597
24.055979 -26.838335 4.0286002
24.114834 -27.238422 4.0663815
23.948557 -27.387371 4.0666037
23.816439 -27.57592 4.0728269
23.991203 -28.125284 4.1321659
24.154346 -28.670977 4.190505
17.922174 -21.540573 3.1318452
17.928474 -21.819059 3.1562922
17.793005 -21.927113 3.15607
25.458277 -31.769331 4.5507627
17.438715 -22.037823 3.1409574
17.295822 -22.135012 3.1396239
25.847832 -33.500904 4.7298913
26.074207 -34.226475 4.8096766
18.21287 -24.214357 3.3865371
26.685572 -35.935337 5.0034738
26.66201 -36.367702 5.0408106
11.721154 -16.196089 2.2340903
11.634267 -16.285492 2.2365351
18.735329 -26.567888 3.6336725
18.913179 -27.172558 3.7004566
16.770309 -24.412132 3.3103073
18.576075 -27.399317 3.7000122
14.699342 -21.970497 2.9543834
14.568636 -22.066912 2.9552724
14.433506 -22.156721 2.9553835
18.880001 -30.182623 3.979373
20.149427 -32.655865 4.2891812
17.396832 -28.585964 3.7403495
17.228266 -28.7041 3.7419052
17.322134 -29.265955 3.8012445
19.655043 -33.676964 4.3586326
20.585627 -35.773766 4.6136575
16.634375 -29.322252 3.7681301
16.452202 -29.420298 3.7676857
16.55442 -30.034195 3.8332477
18.801092 -34.610718 4.4027481
13.997537 -26.149523 3.3150854
8.560112 -16.230717 2.0504057
8.4699841 -16.301453 2.0527391
13.981601 -27.316586 3.4298747
8.2778025 -16.421026 2.0548506
8.1499319 -16.41721 2.0480721
13.496063 -27.609491 3.434875
13.369067 -27.780436 3.4458761
13.18219 -27.827816 3.4416535
13.028832 -27.946007 3.4463205
12.875347 -28.065168 3.45121
12.707397 -28.153605 3.4524324
12.541671 -28.247395 3.4544325
12.371691 -28.332014 3.4554327
12.218792 -28.456705 3.4614332
6.9605188 -16.489635 1.9999563
6.7373781 -16.524117 1.9939556
6.5608325 -16.377872 1.9713979
6.4929705 -16.501051 1.9813988
6.3815684 -16.514626 1.9782875
6.3118463 -16.637096 1.9882884
6.2065225 -16.66713 1.9872884
11.569287 -31.659334 3.7675745
6.0639062 -16.916042 2.007957
5.9728537 -16.989494 2.0122907
5.8704391 -17.031462 2.0129576
5.7518282 -17.025734 2.0080681
5.662869 -17.10788 2.0136242
5.551353 -17.122452 2.0112908
7.7926354 -31.030149 3.576
7.5928812 -31.039732 3.5716662
7.3905401 -31.036432 3.565999
7.1871796 -31.026011 3.5596652
6.9903402 -31.04141 3.5564425
6.7918835 -31.047794 3.552331
6.5915475 -31.043196 3.5471084
6.2163134 -30.186575 3.4447649
6.0274739 -30.206608 3.4427648
5.8348532 -30.205944 3.4385421
5.6468477 -30.227499 3.4369864
3.1368341 -17.383221 1.9737314
5.2592854 -30.201508 3.4264297
5.0663061 -30.188124 3.4213183
4.8754325 -30.184303 3.417429
4.6846447 -30.178297 3.4134285
4.4961643 -30.184853 3.4109838
4.3091841 -30.200064 3.4096503
2.3309684 -17.087328 1.926949
3.9276078 -30.168875 3.4004273
3.7404647 -30.176626 3.3986492
3.5524447 -30.175322 3.3959823
3.3643615 -30.170872 3.3930931
3.1753216 -30.154377 3.3889816
2.987591 -30.146591 3.3859813
2.8007197 -30.144566 3.383759
1.5148041 -17.470228 1.9593967
2.4265184 -30.126144 3.3780918
2.2405162 -30.125599 3.3764248
2.0557621 -30.140764 3.3766472
1.8696135 -30.133963 3.3745358
1.6834593 -30.123037 3.3720911
1.4982998 -30.126846 3.3714244
1.3130704 -30.127527 3.3705354
1.1277031 -30.122108 3.3690908
0.94189155 -30.097668 3.3656461
0.7572481 -30.104866 3.3658683
0.57217342 -30.091063 3.363868
0.3876555 -30.103943 3.3649793
0.20275915 -30.079916 3.3620901
0.018181572 -30.06966 3.3608677
-0.16629538 -30.06424 3.3603122
-0.35097125 -30.080538 3.3623123
-0.53539401 -30.069872 3.3614235
-0.71981788 -30.06304 3.3610899
-0.90405864 -30.051102 3.3603122
-1.0886834 -30.051943 3.3610899
-1.2734786 -30.054625 3.3622012
-1.4588292 -30.066097 3.3644238
-1.6426332 -30.044672 3.3630903
-1.8267719 -30.031054 3.362757
-2.0112038 -30.022253 3.3630903
-2.195379 -30.00935 3.3630903
-2.3811216 -30.016117 3.3654237
-2.5670297 -30.021738 3.3677573
-2.7524612 -30.019274 3.369313
-2.9368947 -30.004789 3.3696465
-3.1208425 -29.985214 3.3695352
-3.30673 -29.983282 3.3715355
-3.494091 -29.992043 3.3748691
-3.6819263 -30.001604 3.3784251
-3.8670869 -29.987318 3.3794253
-4.051013 -29.963024 3.3794253
-4.2372913 -29.955315 3.3814254
-4.4292903 -29.984793 3.3877592
-4.6156101 -29.972767 3.3895373
-4.8102837 -30.011591 3.3972046
-6.1603017 -36.981846 4.1907272
-6.3823614 -36.915932 4.1876159
-6.6185699 -36.930855 4.1938386
-6.903244 -37.203213 4.2295089
-15.859144 -60.32143 6.9726672
-16.538948 -59.907688 6.9477758
-15.420835 -47.759426 5.610311
-15.607801 -47.342999 5.5725298
-6.9525766 -20.660763 2.4361103
-7.4090238 -21.578346 2.5496769
-6.2425261 -17.823801 2.1103005
-7.6288147 -21.361324 2.5348978
-7.6880116 -21.117069 2.511451
-7.0455432 -18.988899 2.2633154
-7.1194062 -18.832827 2.2498696
-7.2855344 -18.920486 2.2656491
-8.1299305 -20.733288 2.4887822
-8.4979534 -21.286648 2.561456
-8.6126938 -21.195435 2.5567887
-7.9432368 -19.208965 2.3228769
-8.8402901 -20.656881 2.5110066
-8.9855108 -20.645079 2.5162292
-9.0750189 -20.505947 2.506006
-9.1925154 -20.431749 2.5037835
-9.2176943 -20.156242 2.476892
-9.4584675 -20.351652 2.5080061
-9.8233433 -20.801874 2.5709012
-10.09481 -20.084793 2.5121176
-10.172688 -19.933954 2.5010054
-30.379261 -57.770603 7.2969213
-32.398495 -56.462433 7.2774749
-52.909954 -82.543144 10.961504
-11.868608 -16.873421 2.3053195
-21.314924 -23.257607 3.5261064
-21.533609 -23.208706 3.5386631
-21.811005 -23.220293 3.5607762
-21.953072 -23.086027 3.5607762
-59.741867 -55.566277 9.1214342
-59.565746 -54.724644 9.0430927
-55.723354 -44.65443 7.9830999
-56.749203 -41.071655 7.8315296
-7.1990514 -4.6891155 0.95929843
-60.125141 -38.645172 7.9904342
-60.053112 -38.080204 7.9496522
-60.113762 -37.603489 7.9269834
-8.1281137 -5.0146356 1.0665312
-8.1697664 -4.971385 1.0679758
-8.6684608 -4.7082663 1.1016457
-8.1653547 -4.3702898 1.0341947
-8.2095976 -4.3293786 1.0364171
-8.2245426 -4.2729669 1.0349725
-8.2488375 -4.2215161 1.0347502
-8.214241 -4.1404004 1.027194
-8.237711 -4.0890369 1.0269717
-8.2626457 -4.0384145 1.0269717
-8.3087616 -3.9979832 1.0296386
-8.4561796 -4.0052156 1.0448624
-8.4625816 -3.9448555 1.04264
-9.8686419 -4.5269136 1.2126566
-8.4949541 -3.8337586 1.0407509
-9.6464205 -4.2824626 1.1787645
-8.5140381 -3.7172921 1.0374172
-59.305611 -25.465551 7.2153578
-8.4436531 -3.5638313 1.0234158
-8.1743813 -3.3912127 0.98819011
-8.6054621 -3.5083535 1.0377506
-9.1628132 -3.6702206 1.1023124
-59.323658 -23.345057 7.1270156
-9.6901245 -3.7441494 1.160207
-8.2262421 -3.1205368 0.9824118
-8.2880754 -3.0859575 0.98752338
-8.3749943 -3.0599468 0.99563533
-9.5994759 -3.4408193 1.1388716
-9.6063442 -3.3769085 1.1372048
-65.957481 -22.736423 7.7995262
-67.161552 -22.691393 7.9253163
-8.3403807 -2.7603781 0.98096722
-70.897766 -22.98835 8.3323565
-71.680649 -22.757093 8.4078083
-73.40358 -22.316309 8.577158
-49.70179 -13.787201 5.765882
-55.63221 -14.699584 6.4326143
-55.845032 -14.024983 6.4368367
-56.142136 -13.005898 6.4423928
-57.110905 -12.861619 6.5444031
-55.647045 -12.173661 6.3679414
-101.63143 -21.581457 11.615901
-101.63735 -20.931793 11.601678
-101.65472 -20.28598 11.589232
-62.555817 -10.894197 7.0985684
-62.683228 -10.52052 7.1055694
-62.117249 -9.2533588 7.0208941
-51.789818 -1.3031936 5.7913289
-52.592915 -0.67775846 5.8797822
-53.17049 -0.35892656 5.9440107
-53.191563 -0.03268427 5.9462328
-37.915707 3.9460626 4.2610674
-34.973118 4.0742755 3.935591
-35.487026 4.3549957 3.9963746
-46.296833 5.9699473 5.2181616
-33.75853 4.7751832 3.8109121
-33.705982 4.9788918 3.8083563
-33.719982 5.1925712 3.8134677
-33.270439 5.33254 3.7662411
-33.163567 5.5243378 3.7579069
-33.093796 5.7216268 3.7539065
-35.631008 6.6115432 4.0507135
-32.789623 6.2927237 3.7319043
-39.914436 7.914145 4.5485401
-32.550259 6.6619525 3.7136803
-35.554184 7.7324491 4.0670485
-35.526436 7.95502 4.0693817
-33.918728 7.8139162 3.8905866
-33.941704 8.0388384 3.8988097
-45.139668 11.277513 5.2010489
-34.930687 8.955163 4.0307112
-32.719231 8.6025534 3.7814646
-31.948065 8.6097374 3.6983454
-31.92416 9.024931 3.7081242
-33.478207 10.583457 3.9245899
-35.640785 11.508081 4.1863933
-35.538357 11.716285 4.1827264
-34.467369 11.598174 4.0649371
-35.357124 12.139572 4.1786146
-35.309174 12.365816 4.1818376
-31.05258 11.73839 3.7105689
-32.897915 12.667154 3.9403691
-88.283493 35.241814 10.627471
-88.100578 35.797062 10.631694
-38.323235 18.385305 4.751338
-38.236504 18.633167 4.7546716
-37.906796 18.761194 4.727891
-37.814053 19.005035 4.7307801
-4.6488256 2.5556629 0.59181786
-4.6078849 2.5701039 0.58859527
-40.130001 25.034222 5.2872791
-39.643234 25.411634 5.2638326
-39.279888 25.52013 5.2362742
-39.332558 25.898935 5.2643881
-38.85738 26.624151 5.2654996
-38.657364 26.837137 5.2606101
-38.230423 27.242025 5.2476087
-4.5811152 3.3506422 0.63326633
-4.5492897 3.3704071 0.63171065
-36.368252 27.285198 5.0823703
-36.147133 27.467552 5.0749249
-58.236534 44.818672 8.215456
-36.671055 29.683264 5.2739449
-54.837467 45.512669 7.9669871
-52.21381 44.428505 7.664402
-51.645073 44.493774 7.620842
-51.160641 44.626259 7.5896168
-49.633442 44.37833 7.4432693
-48.926983 44.289883 7.3779292
-48.211037 44.183033 7.3107004
-47.540516 44.108288 7.2499166
-47.119755 44.258999 7.2270255
-46.387096 44.109688 7.1560187
-16.984665 16.351004 2.6347964
-16.837042 16.409134 2.6274624
-16.463667 16.24342 2.5846803
-16.641441 16.621538 2.6285737
-16.167355 16.347429 2.5694566
-16.036186 16.415045 2.5645673
-16.359587 16.952925 2.6329074
-15.579138 16.343725 2.5233409
-15.384542 16.339163 2.5080061
-15.025444 16.155275 2.4655576
-14.994615 16.321812 2.476892
-15.863918 17.4821 2.6382413
-15.784876 17.610931 2.6430194
-16.446167 18.808023 2.7922564
-15.898089 18.637947 2.7378066
-14.447721 17.149729 2.506006
-14.959431 17.979841 2.6139054
-14.166143 17.240503 2.4936714
-13.98557 17.235271 2.480448
-14.228824 17.756598 2.5428984
-14.301531 18.073467 2.5756795
-14.176904 18.143652 2.5732348
-14.053774 18.215347 2.5711236
-13.936321 18.294123 2.5701234
-13.778407 18.31893 2.5616782
-31.57971 42.525677 5.9213419
-13.474417 18.380035 2.5468988
-13.385857 18.49618 2.5515661
-13.390548 18.743734 2.5743461
-9.2791996 13.15909 1.7990476
-11.166697 16.043676 2.1843078
-11.095057 16.151211 2.1896415
-11.19373 16.510996 2.22909
-9.237525 13.8074 1.8561643
-9.151535 13.862162 1.8559421
-9.0657644 13.917221 1.855831
-9.1543007 14.243451 1.8918345
-9.0720539 14.307746 1.8929458
-8.4723263 13.545038 1.7850462
-8.3911438 13.600151 1.7854908
-8.4806213 13.935778 1.8227166
-8.3253965 13.871667 1.807604
-8.2811279 13.991761 1.8166049
-8.3594341 14.323835 1.853053
-7.5640488 13.145689 1.6944817
-7.5200253 13.256683 1.7028159
-8.2146616 14.69039 1.8806112
-5.7649899 10.460167 1.334113
-8.8478298 16.288622 2.0712967
-8.7495937 16.346109 2.0717411
-5.4838476 10.398374 1.3131109
-7.0966401 13.658534 1.7197065
-7.5991015 14.847443 1.8636096
-7.5042768 14.886691 1.8627205
-6.49402 13.081854 1.6316978
-6.4149384 13.124133 1.6320312
-6.3648887 13.226828 1.6399208
-6.6197324 13.975151 1.7277073
-7.0331807 15.086459 1.8598313
-6.9346776 15.116684 1.8582757
-7.5221472 16.666206 2.0431826
-6.7583299 15.222444 1.8609426
-6.6365609 15.198962 1.853053
-5.1091766 11.899914 1.4466796
-5.0337453 11.925546 1.4460129
-4.9650469 11.967222 1.4473463
-4.8810172 11.971696 1.444235
-7.1303806 17.799482 2.142637
-7.1000032 18.043575 2.1667504
-6.521615 17.189953 2.0544059
-6.8058705 18.276443 2.1793072
-6.5997915 18.061167 2.1487486
-6.2322721 17.385664 2.0637403
-6.0638351 17.248257 2.0429604
-6.001936 17.412918 2.058073
-5.8905258 17.436235 2.0565174
-5.7887383 17.488091 2.0584064
-5.7297568 17.672646 2.0759637
-4.9779506 15.681379 1.8382736
-3.6857693 11.863268 1.3876739
-5.5448518 18.240074 2.1303024
-5.3835444 18.108002 2.1109672
-3.4726062 11.949141 1.3900074
-5.1484356 18.128727 2.1058555
-5.0097399 18.06134 2.0944099
-4.8889513 18.055288 2.0901873
-4.7539544 17.993666 2.0796309
-4.7220707 18.327568 2.1148565
-4.62744 18.427525 2.1230795
-4.5060182 18.421783 2.1191902
-4.4080949 18.512894 2.1265242
-4.2755775 18.458265 2.1171899
-4.1404042 18.387201 2.1060777
-3.6995599 16.913275 1.9345053
-3.877178 29.781578 3.3567562
-3.6746829 29.646021 3.3388655
-3.4845738 29.598921 3.3310871
-3.3240433 29.80938 3.3524225
-3.1406574 29.82526 3.3519781
-2.9561234 29.829136 3.3503113
-2.7709246 29.823954 3.3477554
-2.5857289 29.815641 3.3449774
-2.4021761 29.824013 3.3441994
-2.21648 29.802511 3.340199
-2.0318823 29.790764 3.3374209
-1.8485589 29.794735 3.3365321
-1.6653187 29.798569 3.3357542
-1.4827925 29.815176 3.3365321
-1.2982202 29.786976 3.3324206
-1.1146822 29.774519 3.330198
-0.93224812 29.789738 3.3311982
-0.74841875 29.754164 3.3266423
-0.56568521 29.750248 3.3257532
-0.38307917 29.749184 3.3253088
-0.20054787 29.752962 3.325531
-0.017975869 29.741705 3.3241975
0.16445592 29.730326 3.3229752
0.090051971 7.6746974 0.85684389
0.13694698 7.6630707 0.85562152
0.18367891 7.6501641 0.8542881
0.23052639 7.6459122 0.85395473
0.27743649 7.6443543 0.85395473
0.32433614 7.642508 0.85395473
0.36886466 7.5917344 0.84850973
0.41647014 7.6081824 0.85062104
0.58951306 9.683671 1.0834217
1.1183318 16.689392 1.8689433
1.2197001 16.668339 1.8673877
2.3544872 29.680271 3.3277535
2.5369809 29.670218 3.3283091
2.7191675 29.656071 3.3285313
2.9011793 29.639818 3.3286424
3.0836082 29.627388 3.3293092
1.7550557 15.910798 1.788491
1.8539141 15.910589 1.7897134
3.6417429 29.674116 3.3415325
3.8245137 29.657125 3.3421993
1.1519845 8.516943 0.95963174
2.4031708 16.986994 1.9169481
4.3701921 29.584654 3.3425326
1.3356295 8.6701155 0.97952259
2.7506647 17.159691 1.9418395
2.7487931 16.499411 1.8689433
2.8452396 16.454815 1.865832
1.5669342 8.7403746 0.9915238
1.6276051 8.7687035 0.99585754
1.6901807 8.8044233 1.0010803
5.8793912 29.651402 3.3786473
6.0642071 29.629374 3.3803141
6.2485628 29.604246 3.3817587
6.4332614 29.579916 3.3834255
6.6178961 29.554432 3.3850925
6.801568 29.523924 3.3863146
1.6260328 6.8631101 0.78728151
1.6634145 6.8336911 0.78505903
1.7036277 6.816607 0.78428119
1.7429539 6.7963982 0.78316998
1.7894238 6.8038373 0.7852813
1.8419981 6.8330321 0.7899484
8.17381 29.606037 3.4328749
2.4082558 8.5169668 0.98830128
2.4535646 8.4781628 0.98552322
2.4982064 8.4381723 0.98263401
2.547056 8.4131727 0.9815228
2.5921686 8.3764992 0.97907811
2.2735834 7.1901622 0.84184241
2.3017805 7.1268983 0.83606404
3.4655967 10.510475 1.2361034
2.4302664 7.2205648 0.85050994
2.7162321 7.9095421 0.93374032
2.6425231 7.543807 0.89240295
2.7729838 7.7633033 0.92040569
2.7974496 7.6826406 0.91284937
2.8604379 7.7081914 0.917961
3.0921588 8.1785412 0.97630006
2.9883797 7.7596884 0.92840648
2.9252918 7.4590106 0.89451426
2.957372 7.4067702 0.89040273
3.0143604 7.417027 0.89384753
6.992754 16.910221 2.0447385
6.9634304 16.550959 2.0064013
7.0644631 16.507006 2.0062902
7.1620464 16.455147 2.00529
7.4249492 16.77714 2.0500722
3.5947852 7.9889441 0.97818917
3.6263788 7.9287772 0.97352201
3.6255398 7.8000302 0.96040964
3.6945488 7.8225703 0.96596575
3.7231343 7.7594323 0.96096522
3.7040684 7.5997539 0.94396359
3.962661 8.0053072 0.99741328
4.0773077 8.1113739 1.0137482
4.183465 8.1968555 1.0276384
4.1765399 8.0607281 1.0137482
4.3031645 8.1818438 1.0323056
4.0402431 7.5687389 0.95796496
3.9034414 7.2056198 0.91496068
3.8738687 7.0474072 0.89784789
4.1948457 7.5217323 0.96163195
4.7101607 8.3253918 1.068198
4.762145 8.2980585 1.0684203
4.7774801 8.2076969 1.0605305
4.9419136 8.3716516 1.0856441
5.1524282 8.6072254 1.1203142
4.8983579 8.0699425 1.0541966
7.772655 12.63066 1.6569226
9.7462158 15.622458 2.0575175
9.8312674 15.545564 2.055295
10.930425 17.05121 2.2633154
5.3493385 8.2325706 1.096423
8.4532051 12.837001 1.7172618
8.5329161 12.786544 1.717484
4.8586793 7.1843095 0.96841043
8.7358065 12.748916 1.7267072
4.7634211 6.8604565 0.93251801
4.8797517 6.9367743 0.94696385
5.1292615 7.1972609 0.98685664
4.998827 6.923912 0.95352006
4.7702093 6.5224843 0.90218168
4.7521725 6.4148293 0.89129174
9.3568716 12.470966 1.7419308
9.4235964 12.400659 1.740153
9.710434 12.616681 1.7788234
22.720438 29.150126 4.1311655
4.8426523 6.1342039 0.8725121
10.29781 12.882174 1.8427186
10.395417 12.841919 1.8460523
23.915321 29.177134 4.2169518
24.197353 29.154495 4.235065
24.456345 29.101339 4.2490664
24.827009 29.17704 4.2822919
12.103813 14.048451 2.0720744
25.438614 29.16301 4.3257403
25.726278 29.130026 4.3441868
26.052248 29.136835 4.3689671
26.226538 28.972013 4.3683
12.082784 12.705909 1.9591745
12.026808 12.492632 1.9376168
12.224616 12.543154 1.9570632
12.197353 12.362497 1.940506
12.248399 12.262813 1.9366167
12.367219 12.230756 1.9435062
12.397249 12.110888 1.9365056
12.477762 12.040803 1.9375057
12.516161 11.930414 1.9320607
12.556571 11.822733 1.9270602
12.669628 11.783368 1.933283
19.484863 16.010399 2.8184812
19.254768 15.624395 2.7712543
19.301418 15.466804 2.7642536
11.72944 9.1647272 1.6630342
11.80591 9.1083679 1.6659234
11.846557 9.0243139 1.663812
11.943004 8.9825201 1.6695905
12.060128 8.955286 1.6782579
12.149314 8.9063845 1.6830362
19.997641 14.472546 2.7588086
12.322384 8.8028402 1.691926
16.285103 11.483721 2.2267563
12.735353 8.8638725 1.7335967
10.527066 7.2312698 1.4266777
10.559722 7.1587324 1.425122
10.570409 7.0716987 1.4206771
13.816547 9.121419 1.8498304
13.180287 8.5856781 1.757488
20.239286 13.008179 2.6888018
20.277597 12.85767 2.6833568
20.539783 12.847903 2.7075813
11.09164 6.8432732 1.4559028
11.135968 6.7766371 1.4562361
11.175635 6.7071576 1.4560139
11.278154 6.6749067 1.4640146
11.978938 6.9908161 1.5494676
12.018162 6.9152007 1.549023
12.062095 6.8423095 1.5492452
17.115595 9.5709305 2.1913085
17.825886 9.8250589 2.2745388
17.840425 9.6908283 2.2687604
17.987167 9.6280813 2.2798727
18.066124 9.5281973 2.2824285
18.121601 9.4157906 2.2820952
18.156034 9.2926483 2.2792058
56.361664 28.413637 7.056231
20.863461 10.357372 2.6031268
18.228472 8.9101791 2.2673159
18.159222 8.7386904 2.251981
18.045448 8.547965 2.2313123
57.230141 26.682304 7.0591202
16.644466 7.5123343 2.0405159
16.988169 7.5423474 2.0769639
57.973366 25.315905 7.0720105
17.241314 7.2778473 2.0911875
16.382412 6.7971239 1.9818434
18.38484 7.4961333 2.2186444
18.480305 7.4031425 2.2246449
29.164913 11.476611 3.503104
16.19574 6.2583313 1.9400615
29.245943 11.09599 3.4962144
21.586342 8.038558 2.574235
29.214689 10.675883 3.4765458
29.606136 10.613475 3.5153275
21.766277 7.652389 2.5784576
60.009205 20.685907 7.0960126
32.679405 11.04079 3.8555832
21.529839 7.1267638 2.5344532
21.261196 6.8933678 2.4977829
21.740705 6.9017186 2.5491214
31.457169 9.7745247 3.6818993
22.079536 6.7121706 2.5790131
35.265762 10.250158 4.105052
22.885935 6.3481431 2.6542428
23.029013 6.2359142 2.6663551
23.133604 5.658721 2.6615767
23.232876 5.2317295 2.6614656
23.311138 5.0992723 2.6667995
0.9003877 0.19050959 0.10154743
0.98099023 0.18259208 0.11021494
0.98013616 0.17621635 0.1099927
0.98903149 0.17156318 0.11088168
0.99596781 0.16020577 0.11143728
0.9831835 0.15195706 0.10988158
1.0027736 0.14870383 0.1119929
0.99973184 0.1419865 0.11154841
1.0133851 0.13759634 0.11299299
1.0122393 0.1311191 0.11277075
1.010066 0.12453883 0.11243738
1.0088372 0.1181064 0.11221514
1.0065799 0.1115836 0.11188178
0.99538547 0.10415608 0.11054831
0.8872202 0.087263197 0.098324887
0.88471377 0.070598356 0.097880401
0.90732652 0.061224498 0.10032509
0.91562027 0.0561486 0.10121406
0.91892427 0.050695829 0.10154743
0.93708456 0.045945417 0.10354763
0.94330591 0.040454481 0.10421436
0.94353646 0.034665704 0.10421436
0.97055101 0.029715529 0.10721465
0.96773463 0.023684746 0.10688128
0.96488088 0.017689643 0.10654791
0.96397752 0.011756093 0.1064368
0.96005636 0.0058141327 0.10599231
0.99859893 0.0020262448 0.093245998
0.99660146 -0.0040925019 0.093057781
0.9935711 -0.010176262 0.092775457
0.98652196 -0.016156964 0.092116699
0.98341835 -0.022142002 0.091834374
0.97828823 -0.028032124 0.091363832
0.96814823 -0.033686001 0.09042275
0.97588116 -0.039953254 0.091175616
0.96965092 -0.045658197 0.090610966
0.95642865 -0.050916266 0.089387558
0.95013547 -0.056428444 0.088822909
0.9606989 -0.062975928 0.0898581
0.96228039 -0.069012329 0.090046316
0.98665231 -0.076853357 0.092399023
0.99409854 -0.08357472 0.09315189
0.98166883 -0.088596545 0.09202259
0.97714293 -0.094235204 0.091646157
0.981498 -0.10073832 0.092116699
0.98482025 -0.10719047 0.092493132
0.98315489 -0.11311721 0.092399023
0.96860623 -0.11746674 0.091081508
0.93429083 -0.11911958 0.087881826
0.94439662 -0.12630402 0.088917017
0.96627998 -0.13527572 0.091081508
14.036083 -2.0556493 1.3398046
14.042889 -2.1447408 1.3416868
14.056994 -2.235244 1.3443218
13.970329 -2.3094375 1.3373579
13.956879 -2.3952827 1.3374521
56.913223 -10.127975 5.4632545
56.4711 -10.407168 5.4268346
14.040491 -2.6765745 1.3499684
13.992547 -2.7565167 1.346957
13.887567 -2.8244627 1.3384871
13.635156 -2.860359 1.3158071
14.388026 -3.1105952 1.3903409
13.060668 -2.9076078 1.263671
13.663652 -3.1299717 1.3239005
14.534739 -3.4235246 1.410386
14.360575 -3.4756393 1.3955169
45.380943 -11.279047 4.4191227
13.73032 -3.5019989 1.3382989
13.277082 -3.4732959 1.2961384
13.619961 -3.6524339 1.3318055
13.630893 -3.7451677 1.3350993
13.631616 -3.8354764 1.3374521
46.032345 -13.257791 4.5270653
13.720082 -4.0427089 1.3509095
13.735053 -4.1388822 1.3548621
40.414398 -12.449773 3.9962943
40.322052 -12.692734 3.9947884
39.022686 -12.547386 3.8735769
38.291355 -12.57199 3.808548
38.144585 -12.783611 3.8016782
37.802608 -12.927543 3.7754219
37.321194 -13.01923 3.7352376
36.972343 -13.15255 3.7083228
36.549339 -13.255268 3.6739731
36.460781 -13.476865 3.6733143
36.327091 -13.681382 3.6682327
36.191338 -13.884411 3.6630566
36.776829 -14.368519 3.7311912
36.816555 -14.645055 3.744272
36.833046 -14.914024 3.7551887
36.976482 -15.23685 3.7792804
36.97319 -15.501554 3.7885971
36.609062 -15.613689 3.7610233
36.465992 -15.81782 3.7562239
36.101357 -15.923552 3.7286501
35.68594 -16.002596 3.6958063
35.376911 -16.12546 3.6739731
35.007202 -16.217102 3.6458347
34.689056 -16.328985 3.6230607
34.185844 -16.349096 3.5809
33.967575 -16.501558 3.5685718
33.583561 -16.570465 3.5388336
33.32193 -16.696384 3.5219882
32.924267 -16.75065 3.4907444
32.67403 -16.876513 3.4751222
32.35561 -16.964342 3.4522541
31.983732 -17.020372 3.423645
31.761316 -17.152906 3.4110346
28.288086 -15.502088 3.0480587
28.23768 -15.700526 3.0529525
28.133009 -15.869092 3.0521054
28.137934 -16.100252 3.0633044
28.199633 -16.366049 3.0809026
28.214508 -16.606947 3.0936072
26.432287 -15.777095 2.9086845
26.380125 -15.966304 2.9136722
26.382635 -16.189833 2.924871
26.462852 -16.463428 2.944916
26.501963 -16.714184 2.9606321
26.540665 -16.967106 2.9765365
26.730986 -17.320744 3.0097568
26.737379 -17.55876 3.0225554
26.828047 -17.854868 3.0451415
26.898746 -18.141056 3.0657511
5.2541094 -3.5903783 0.60039568
5.2008772 -3.6010127 0.59681958
5.216989 -3.6597297 0.60124266
5.1692791 -3.6737926 0.59832531
25.856979 -18.617325 3.0106978
25.702042 -18.746298 3.0059924
25.481638 -18.826149 2.9936643
25.212605 -18.86762 2.9755955
24.942438 -18.9053 2.9573383
24.686192 -18.950686 2.9406812
24.49321 -19.042526 2.9315526
24.292992 -19.127172 2.9215772
24.091105 -19.208839 2.9114134
23.822519 -19.234966 2.8931565
23.60231 -19.297592 2.8807342
23.396803 -19.370308 2.8701
23.159254 -19.414368 2.8555131
22.944817 -19.475574 2.8437498
22.695019 -19.504385 2.827563
22.475777 -19.557007 2.8151407
22.345644 -19.685993 2.8139174
22.203629 -19.804176 2.8112824
22.302622 -20.139545 2.8394206
22.385099 -20.464773 2.865865
22.484877 -20.810699 2.8949447
22.550005 -21.129345 2.9199774
22.676344 -21.510542 2.9533858
22.737091 -21.834776 2.9787009
22.81041 -22.175823 3.0060866
22.942123 -22.57934 3.0416594
23.058449 -22.974056 3.0757267
23.137842 -23.337811 3.1053708
23.259604 -23.750341 3.1412261
23.406929 -24.196003 3.181128
23.430662 -24.519835 3.2047491
23.611885 -25.014996 3.2504859
23.686066 -25.404068 3.2821062
23.84268 -25.888718 3.3257725
23.96743 -26.346779 3.3656743
24.107409 -26.829548 3.4083996
24.204021 -27.271826 3.4456663
25.934122 -29.584911 3.7178276
25.684986 -29.66596 3.7081344
19.214735 -22.469942 2.7935898
25.250269 -29.897535 3.6980648
24.960491 -29.924994 3.6824429
25.043524 -30.401861 3.7221565
17.917423 -22.024965 2.6827304
17.76885 -22.118193 2.6807539
25.62248 -32.298241 3.8959746
25.687811 -32.791851 3.9364412
25.866817 -33.441025 3.995259
25.953003 -33.981262 4.0407133
18.285622 -24.248989 2.8697236
11.910125 -15.997433 1.8841271
11.798182 -16.05176 1.8819627
26.751245 -36.868198 4.304687
15.080928 -21.054764 2.4469891
27.785288 -39.815041 4.5883293
18.625229 -27.041029 3.1026416
18.629101 -27.4051 3.1312506
18.470024 -27.532944 3.1328504
18.267765 -27.595945 3.1272039
18.103539 -27.715851 3.128145
18.685621 -29.388506 3.2908583
17.768585 -28.328606 3.1598594
17.590763 -28.431171 3.1592007
19.915655 -32.634701 3.6128027
17.239258 -29.044649 3.1915739
17.063736 -29.155035 3.1921387
18.83807 -32.644539 3.5616078
16.984295 -29.853745 3.2455921
19.234203 -34.296448 3.7158513
19.070122 -34.498337 3.7249799
14.316743 -26.278799 2.8276572
16.812094 -31.315022 3.3586161
14.021114 -26.505312 2.8333037
8.5412006 -16.388502 1.745788
8.4645805 -16.487541 1.7507757
8.361908 -16.536505 1.7504934
12.915093 -25.935093 2.7375956
10.89145 -22.560978 2.366997
10.629324 -22.367514 2.3397996
10.484709 -22.416983 2.3381999
10.447276 -22.698847 2.3608799
10.588705 -23.382851 2.4252501
15.021263 -34.28492 3.5371397
13.744678 -31.902302 3.2824826
6.963151 -16.438528 1.6864057
6.862155 -16.480944 1.6864057
6.7363944 -16.462847 1.6802886
6.6304259 -16.491863 1.6790652
6.3551478 -16.688335 1.6868762
6.2972484 -16.84638 1.698922
11.346213 -31.528212 3.1662588
5.7887187 -17.064617 1.7022158
5.6923814 -17.125322 1.7047567
16.517988 -57.890232 5.6894908
8.3246841 -31.351044 3.0650923
8.0655222 -31.144205 3.0399654
7.8511248 -31.101408 3.0310252
7.6370821 -31.05522 3.0218966
7.4431415 -31.08794 3.0205791
7.2459254 -31.105877 3.0179441
7.0465708 -31.112854 3.0143681
6.8426962 -31.097168 3.0087216
6.6369934 -31.069443 3.0020399
6.2781711 -30.298504 2.9237418
6.0764642 -30.258368 2.916213
5.8800468 -30.240355 2.910943
5.685184 -30.226944 2.9062376
3.1742806 -17.465811 1.6769006
5.2990336 -30.210106 2.8981442
5.1115761 -30.230272 2.8970149
4.9208717 -30.229622 2.8940034
4.7311382 -30.232689 2.8914626
4.5394821 -30.220785 2.8876042
4.3495684 -30.217524 2.8846867
2.3605697 -17.144156 1.6347401
3.9706416 -30.2094 2.8790402
3.783474 -30.219364 2.8777227
3.5930405 -30.200487 2.8737702
3.4034276 -30.184372 2.8701942
3.2153082 -30.177958 2.8676531
3.0289857 -30.186224 2.8666179
2.8424032 -30.190365 2.8653004
1.5315928 -17.410902 1.6510209
2.4661894 -30.1555 2.858901
2.2815626 -30.17602 2.8594658
2.0960183 -30.184484 2.8589952
1.9064326 -30.12822 2.8525016
1.7209659 -30.129412 2.8515606
1.5361135 -30.140398 2.8516548
1.3502107 -30.128372 2.8496785
1.1647441 -30.121166 2.8482668
0.97986984 -30.126751 2.8481727
0.79491836 -30.129211 2.8478904
0.60997361 -30.130533 2.8476081
0.42504254 -30.130724 2.8473258
0.24012418 -30.128782 2.8469493
0.055260204 -30.133671 2.8473258
-0.12963757 -30.133444 2.8473258
-0.31438488 -30.118145 2.8460083
-0.49906489 -30.108681 2.8453496
-0.6838215 -30.106047 2.8454435
-0.86844963 -30.098297 2.8451612
-1.0530434 -30.090412 2.8449731
-1.2374092 -30.077417 2.8444085
-1.4222667 -30.07622 2.8450673
-1.6074749 -30.079849 2.8462906
-1.7915965 -30.062466 2.8456318
-1.9753693 -30.04097 2.8446908
-2.1593742 -30.024313 2.8443143
-2.3454199 -30.034319 2.8465729
-2.5322545 -30.050116 2.8494902
-2.7180257 -30.049877 2.850996
-2.9032192 -30.04155 2.8518429
-3.0885146 -30.033075 2.8527842
-3.275542 -30.039291 2.8552308
-3.460938 -30.028517 2.8561718
-3.646805 -30.020552 2.8574893
-3.8339658 -30.021311 2.8597481
-4.0200839 -30.012024 2.8611598
-4.2062321 -30.001581 2.8625712
-4.3926921 -29.991951 2.8641713
-4.5844531 -30.015608 2.8690648
-4.7790146 -30.05279 2.87537
-6.1284509 -37.070393 3.5505972
-6.3573112 -37.040928 3.5514441
-6.5869117 -37.014946 3.5527618
-15.401477 -61.967129 6.0346804
-16.455124 -64.512741 6.2923489
-4.6129794 -17.633396 1.7217903
-16.133835 -60.160568 5.8866477
-16.502934 -60.061398 5.8867421
-15.35324 -47.748814 4.7400322
-15.573259 -47.432369 4.7180109
-15.850719 -47.296276 4.7140584
-6.2424374 -17.89502 1.7903953
-6.3504534 -17.85169 1.7899247
-7.3325453 -20.218616 2.0318773
-7.481318 -20.240479 2.0386531
-7.582212 -20.132704 2.0324419
-8.6223316 -21.676111 2.2040014
-8.4166489 -20.075022 2.0565336
-8.8097467 -20.309986 2.091542
-9.0643768 -20.550674 2.1220331
-9.1813412 -20.474686 2.1199627
-10.296571 -20.868357 2.1985431
-30.269283 -57.731407 6.1606913
-30.895035 -57.206696 6.1446929
-12.175095 -21.897221 2.3671851
-12.324877 -21.849852 2.3701966
-32.523521 -56.839981 6.1892061
-11.878845 -16.93265 1.9540497
-47.292454 -52.371468 6.6691585
-21.244003 -23.237438 2.9750307
-21.547132 -23.280544 2.9974284
-21.820953 -23.288105 3.0155914
-49.132839 -51.795303 6.7473626
-49.530407 -51.576866 6.7583733
-50.077732 -51.510399 6.7898054
-50.578606 -51.3909 6.8148379
-51.365891 -51.554222 6.8781729
-51.73357 -51.289948 6.8851371
-57.199234 -48.307961 7.0760827
-55.187271 -44.894737 6.7237411
-55.503613 -44.58894 6.7288232
-57.122112 -44.184086 6.825284
-56.967911 -41.335289 6.6521249
-8.1172447 -5.2314477 0.91170597
-60.052395 -38.181896 6.7257175
-59.991199 -37.628086 6.692874
-60.108349 -37.18961 6.6803575
-57.540352 -35.114403 6.3708353
-57.710373 -34.733986 6.3659415
-57.837654 -34.328922 6.3566246
-8.2287045 -4.8162289 0.90013069
-7.9631977 -4.5954709 0.86794561
-8.3823729 -4.7690392 0.91048259
-8.3758755 -4.6975503 0.90662414
-8.9325514 -4.9379401 0.9636538
-37.747986 -20.565077 4.062264
-8.4819746 -4.553884 0.90888274
-8.4182348 -4.4533401 0.89909548
-9.016613 -4.6992931 0.95998353
-11.293987 -5.7983198 1.1989245
-36.10619 -18.257317 3.8234172
-8.2246618 -4.0958509 0.86738098
-8.2916517 -4.0659084 0.87180406
-8.3370647 -4.02491 0.87396854
-38.820141 -18.447655 4.0616994
-9.5996561 -4.4900088 1.0006384
-8.977684 -4.1321654 0.93306857
-9.0609121 -4.1032848 0.9390915
-9.2468853 -4.1193147 0.95574868
-9.345849 -4.0948601 0.96337146
-9.3963995 -4.0484676 0.96600652
-8.7261934 -3.6964068 0.89467239
-59.228352 -24.660286 6.0634775
-8.763525 -3.5860286 0.89391953
-8.7521105 -3.51882 0.8905316
-8.7605724 -3.4599326 0.8892141
-59.938229 -23.246843 6.0758996
-8.5334902 -3.2497759 0.8620168
-9.7665091 -3.6508527 0.98445171
-8.2792416 -3.0371575 0.83246678
-9.5932484 -3.4525189 0.96261859
-9.6471109 -3.4051881 0.9659124
-67.350601 -22.846277 6.7216711
-49.618649 -14.818697 4.8938994
-49.833138 -13.888971 4.8890057
-55.492001 -13.646398 5.4006724
-55.220329 -13.220808 5.3662291
-56.151722 -13.080036 5.4488559
-55.429871 -12.55383 5.3712168
-65.737289 -14.042441 6.3530488
-62.702034 -10.998092 6.0164232
-62.841713 -9.833931 6.0114355
-63.024925 -9.4667892 6.023293
-53.632484 -1.7442343 5.0712934
-53.532707 -1.4122312 5.0609417
-53.469688 -1.0823039 5.0542598
-53.381752 -0.75288022 5.0454135
-53.375027 -0.097725496 5.0442843
-63.781239 0.66599876 6.0282807
-63.665459 1.0555083 6.0178347
-66.233101 1.9113176 6.2623281
-67.391182 2.3586705 6.3730936
-34.358356 4.8170829 3.2784359
-33.640583 4.927104 3.2127483
-33.761276 5.1565752 3.227241
-33.035015 6.0880017 3.1741638
-33.120262 6.3140779 3.1860216
-35.586349 7.0107899 3.4274094
-36.037426 7.5602059 3.4795454
-35.542744 7.6844072 3.4362557
-35.401634 7.8815789 3.4272213
-45.737106 10.477614 4.4342742
-34.129711 8.0392199 3.3133502
-33.807838 8.1826735 3.2869058
-33.563763 8.3419323 3.268084
-33.328655 8.500967 3.2502034
-41.293102 10.80275 4.0335612
-40.466389 10.852191 3.9592154
-35.583435 11.201068 3.525188
-35.58329 11.682851 3.5391159
-86.842529 29.1043 8.6566315
-34.968128 11.958205 3.49225
-34.781296 12.13319 3.480957
-35.181034 12.759021 3.5363867
-30.983 11.668677 3.1284273
-88.832008 34.079742 8.9926929
-88.612885 34.620903 8.9918461
-88.205345 35.715427 8.9942923
-39.000713 17.202415 4.0281968
-38.392052 18.0721 4.0099397
-38.307384 18.320215 4.012763
-38.218433 18.566666 4.0153041
-37.739529 18.621088 3.9769077
-37.710899 18.895563 3.9860363
-35.517914 18.070221 3.7658229
-38.727772 20.30537 4.1323748
-4.6858435 2.5676863 0.50393468
-4.6099629 2.5630078 0.4974412
-40.273914 24.714409 4.465518
-40.057266 24.921093 4.4583659
-39.597927 24.973627 4.4242048
-39.553829 25.286371 4.436533
-39.243362 25.428438 4.4191227
-38.732437 26.46924 4.4334273
-38.555382 26.696766 4.4318275
-38.434044 26.963137 4.4368153
-38.258137 27.191536 4.4356856
-38.078453 27.417046 4.4342742
-4.6098337 3.3620694 0.53819013
-4.527462 3.3447385 0.53094375
-36.897327 28.324852 4.3958778
-38.197407 30.456532 4.6168442
-55.179993 45.116314 6.7364459
-54.889854 45.443882 6.7349401
-54.594723 45.767033 6.733058
-51.463371 44.228603 6.4132781
-50.930408 44.316772 6.3806224
-50.40205 44.40337 6.3484373
-49.601143 44.241287 6.2816205
-49.096741 44.335293 6.2520704
-48.442432 44.287071 6.203228
-47.628376 44.082375 6.1334939
-46.991577 44.031387 6.0861573
-17.194916 16.31085 2.239198
-17.108871 16.429842 2.24108
-17.012735 16.539368 2.2417388
-44.694859 43.988365 5.9267378
-44.386024 44.223839 5.9216561
-44.172016 44.554031 5.9294672
-16.947914 17.305408 2.2885106
-17.230427 17.811209 2.3413994
-15.655121 16.382751 2.1408546
-14.963874 15.852978 2.059545
-15.814081 16.961012 2.1909204
-15.824366 17.18222 2.2069187
-15.417844 16.948332 2.164664
-15.179152 16.893026 2.1456542
-15.189537 17.114662 2.1619349
-15.113769 17.241232 2.1661699
-13.980042 16.1467 2.017761
-15.315146 17.909653 2.2263992
-15.043091 17.811617 2.2026839
-14.6574 17.572544 2.1619349
-16.184296 19.64699 2.4050167
-16.069721 19.753649 2.4059577
-15.610273 19.431215 2.3549511
-14.304644 18.031477 2.1745455
-14.07893 17.972351 2.1569471
-13.944633 18.027687 2.1532769
-11.266814 14.751884 1.7535049
-13.769709 18.26025 2.1607115
-13.661568 18.349985 2.1613703
-13.87503 19.122208 2.2321398
-13.174242 18.392761 2.1374667
-9.39258 13.284462 1.5367734
-13.497342 19.340889 2.2282813
-11.082828 16.090452 1.845731
-11.304585 16.629932 1.8996551
-9.251749 13.791241 1.5686761
-9.161458 13.839447 1.5677351
-9.108489 13.944577 1.5732875
-9.0718327 14.076355 1.5818512
-9.8068266 15.423874 1.7265899
-8.7465887 13.944568 1.5548422
-8.4314337 13.627152 1.5136228
-8.7506161 14.338941 1.5867449
-8.6419334 14.358244 1.5829806
-8.7025557 14.661842 1.6105543
-8.5983477 14.690907 1.6079193
-8.5762138 14.861523 1.6208122
-7.8350372 13.771633 1.4965892
-8.0766611 14.40123 1.5596417
-7.500247 13.567886 1.4643101
-8.8566532 16.256485 1.7487994
-8.7557974 16.308769 1.7486112
-7.167305 13.548759 1.447747
-5.3121581 10.192584 1.0853359
-7.6256905 14.853485 1.5771458
-7.5380015 14.907104 1.5778987
-6.5193343 13.091399 1.3813065
-6.4314332 13.115959 1.3797066
-6.3603563 13.174899 1.381777
-6.5468874 13.776575 1.4406888
-7.0632634 15.101557 1.5747932
-6.9658899 15.134663 1.573758
-6.9275146 15.297739 1.5862744
-6.8756499 15.434537 1.5960616
-6.8299565 15.588596 1.6076369
-5.1195216 11.882426 1.221887
-5.0628247 11.952118 1.2258395
-4.9756165 11.949871 1.2224517
-7.4730883 18.263287 1.8641763
-7.304811 18.169317 1.8499658
-6.4025826 16.211849 1.6465037
-6.3958669 16.490305 1.6707836
-6.4061656 16.822311 1.7004278
-5.3780513 14.387262 1.4507585
-5.2457862 14.300354 1.4387126
-6.5104156 18.090517 1.8162751
-5.4976807 15.575644 1.5602064
-5.4010296 15.606261 1.559924
-4.7656555 14.048609 1.4011633
-6.1313763 18.446072 1.8363202
-5.9832501 18.376375 1.825686
-3.687664 11.566294 1.1464121
-3.6504347 11.697044 1.1571405
-5.6605592 18.537668 1.8310502
-3.4958987 11.9725 1.1778443
-5.2222295 18.301731 1.7979239
-4.9481287 17.753227 1.7409885
-4.8192377 17.710245 1.7338362
-4.7477813 17.879967 1.747576
-4.6160188 17.82395 1.7392945
-4.4133482 17.945961 1.745788
-3.9066839 29.722773 2.8326449
-3.721514 29.724451 2.8305745
-3.5078917 29.484747 2.8056357
-3.3576958 29.778763 2.8316097
-3.1730154 29.780985 2.8299158
-2.9896264 29.793951 2.8293512
-2.8053584 29.796867 2.8279395
-2.6209052 29.795666 2.8262455
-2.4358423 29.784399 2.8237045
-2.2512414 29.774958 2.8214459
-2.0669174 29.765366 2.8192816
-1.88311 29.759604 2.8175876
-1.6986566 29.738792 2.8145761
-1.5160495 29.746666 2.8143878
-1.3331423 29.747454 2.8136349
-1.1503595 29.749104 2.8130703
-0.96776837 29.754606 2.8129761
-0.78447056 29.733116 2.8104353
-0.60143268 29.708502 2.8077061
-0.41904917 29.70566 2.8071415
-0.23674701 29.704687 2.8068593
-0.054485295 29.709562 2.8072357
0.1278445 29.717302 2.8079884
0.080228679 7.7003064 0.72678316
0.12628691 7.6279988 0.72000736
0.17263676 7.6071739 0.71812516
0.22129197 7.6746364 0.72461867
0.26848295 7.6761189 0.72490102
0.31414515 7.6395121 0.72160721
0.36139065 7.6453967 0.72236007
0.40739185 7.6261344 0.72076023
0.57921785 9.7214003 0.91942286
1.0992341 16.718266 1.5826042
2.1335189 29.664848 2.8102472
2.3154988 29.651199 2.8102472
2.4979768 29.643377 2.8109059
2.6808045 29.638399 2.8119411
2.8643358 29.639227 2.8136349
3.0475707 29.634958 2.8149526
3.2316165 29.636486 2.8169289
3.4139717 29.621042 2.8173993
3.5962591 29.604479 2.8178699
2.0561268 16.100939 1.5331973
3.9662862 29.610416 2.8228576
2.3687034 16.895767 1.6115896
2.4740605 16.892733 1.6127188
4.5222201 29.608171 2.8301039
1.3513583 8.4989252 0.81232762
2.7098835 16.392506 1.569429
1.4747504 8.5935612 0.82305598
1.5557089 8.7431364 0.83830148
1.6257465 8.8225212 0.84686536
1.6349171 8.5766945 0.82418525
1.6844329 8.5508728 0.82267952
1.7654423 8.6808605 0.83623111
6.2080188 29.592096 2.8570189
6.3953662 29.580694 2.8596539
6.5782642 29.547699 2.8603127
6.7592192 29.505808 2.8602185
1.624588 6.8977284 0.66871834
1.6624312 6.869246 0.66693026
1.7045487 6.8589163 0.66693026
1.7453718 6.8435049 0.66645974
1.7880859 6.8355556 0.66674203
1.8274157 6.8148398 0.66580099
2.3650942 8.6082659 0.84272462
2.3960266 8.5159655 0.83510184
2.4435503 8.4848404 0.83350199
2.4930336 8.4610929 0.83265501
2.5477755 8.4551678 0.83359611
2.6552961 8.6201496 0.85147667
9.2678814 29.442223 2.9165895
3.0101664 9.3621931 0.92845726
2.5467424 7.7573004 0.77063763
2.8062537 8.3739815 0.83369023
2.8189251 8.2435646 0.82239723
2.7668147 7.9318905 0.79294133
2.7403533 7.7037196 0.77176696
2.6755588 7.3779092 0.74071121
2.7193978 7.3576183 0.74033475
2.7683518 7.3510423 0.74136996
3.2391856 8.4437466 0.85373527
3.3268018 8.5155153 0.86305201
11.719616 29.462336 2.9961109
3.2176962 7.9471393 0.80931616
3.3100183 8.0331011 0.82013863
3.359246 8.01264 0.82013863
7.0058966 16.426849 1.6869702
7.1303291 16.438354 1.6926168
7.2495403 16.436193 1.6969458
13.196695 29.428841 3.0475883
9.4166365 20.65893 2.1449955
5.5124445 11.899808 1.2385441
13.850207 29.42325 3.0729034
14.034351 29.345797 3.0737503
14.239381 29.311068 3.0792086
5.6006212 11.351149 1.1953485
3.6993334 7.3833218 0.7794838
7.7389383 15.21152 1.6121541
7.8334994 15.166402 1.6124365
5.863174 11.18295 1.1924311
5.9241977 11.132702 1.1909254
3.8900125 7.2033005 0.772708
16.101585 29.382027 3.1659765
4.3724098 7.8641582 0.8494063
4.5854173 8.1294012 0.8811208
8.7128468 15.22737 1.657232
16.979219 29.256144 3.1963735
4.7923512 8.1422873 0.89194328
4.8692656 8.1580372 0.89693099
4.8465452 8.0079145 0.88366169
7.6866059 12.526145 1.3880823
9.5335293 15.324087 1.7048508
9.5625849 15.16257 1.6933696
8.2944565 12.974731 1.4545227
18.89724 29.163948 3.2838001
8.4978647 12.940206 1.4622396
8.5379419 12.828976 1.4555579
8.6114874 12.768918 1.454711
8.6930447 12.720771 1.4552757
8.8123074 12.726942 1.4621456
4.9078918 6.9961395 0.8066811
4.9599552 6.9788766 0.80818683
4.9991927 6.9434643 0.80762219
21.279535 29.175182 3.4123521
4.818398 6.522068 0.76536757
9.9005022 13.230099 1.5608652
4.8902535 6.4521332 0.76414418
4.971581 6.4764957 0.77063763
22.691202 29.186209 3.4934735
22.940069 29.135599 3.5042019
10.78331 13.52422 1.6338931
10.256297 12.702581 1.5421376
23.844904 29.163916 3.5598197
24.156094 29.17733 3.5794885
11.933825 14.235891 1.7548224
24.724928 29.129169 3.6105442
25.075802 29.177752 3.635577
25.324287 29.103701 3.6456466
25.616241 29.077 3.6619272
25.865078 28.998772 3.6719968
26.22468 29.041235 3.6976886
12.355398 13.514894 1.7297895
15.31552 16.547701 2.1302204
15.416767 16.453415 2.1302204
15.596911 16.442293 2.1411369
12.255771 12.452816 1.6504562
12.307355 12.352697 1.6471624
12.397765 12.291668 1.6491387
12.506168 12.098455 1.6436805
12.632711 12.0717 1.6505504
12.614597 11.907172 1.6385986
67.479088 60.632214 8.574193
66.931885 58.672123 8.4125147
18.125296 15.499547 2.2532201
18.321218 15.473475 2.2657363
18.366886 15.319955 2.2597134
18.273815 15.053155 2.2368453
18.557365 15.096553 2.260184
11.516973 9.252388 1.3953286
18.591476 14.748893 2.2421153
18.644789 14.605685 2.2376921
18.69862 14.463598 2.2334573
11.826018 9.0322218 1.4054923
11.866114 8.9481001 1.4037043
11.919197 8.8739338 1.4035161
14.225974 10.456242 1.6677722
63.102413 45.786392 7.3685713
12.394551 8.8779659 1.4400301
16.022335 11.3283 1.8537302
16.111952 11.24402 1.8560829
18.860893 12.991016 2.163723
13.787731 9.3725748 1.5747932
13.790414 9.251194 1.5685821
13.785487 9.1257381 1.561618
13.630322 8.7843828 1.5316916
20.327709 12.924714 2.2759001
17.936338 11.250319 2.0002568
11.072897 6.8511004 1.2296979
11.128323 6.7913275 1.2312037
11.176608 6.7270246 1.2319566
11.477078 6.8122854 1.2604713
11.968035 7.0047383 1.30969
12.009065 6.9301763 1.3095019
12.074725 6.8696518 1.3120427
23.60989 13.241018 2.5576603
24.742353 13.677237 2.6712492
24.559166 13.379897 2.6425462
17.413977 9.3491411 1.8671877
24.064133 12.72977 2.5722473
24.121483 12.571293 2.5700827
56.192905 28.848471 5.9697456
56.369747 28.503584 5.9698396
20.868732 10.392203 2.2025898
18.203962 8.9262571 1.9153712
18.180389 8.7767382 1.9071838
18.266272 8.6804028 1.9105716
16.805964 7.8604198 1.7526579
16.801424 7.7330103 1.7471995
16.898438 7.6523604 1.7523756
17.207893 7.6656051 1.7795728
17.42148 7.6329865 1.7967947
17.364668 7.4814343 1.7861605
18.24996 7.7304258 1.8723637
18.218927 7.5857744 1.8643644
18.014505 7.3712935 1.8387669
16.469694 6.6215134 1.6768066
16.624832 6.5656772 1.688476
58.941345 22.860209 5.9748273
21.390512 8.1457405 2.1624997
21.678274 7.8015347 2.1767099
30.180464 10.444684 3.017756
30.1959 10.242994 3.0129564
32.870392 10.925777 3.2731659
33.180103 10.803094 3.2973518
32.985153 10.293681 3.2651668
36.020348 10.998775 3.5589728
22.616714 6.7546358 2.2300694
35.417702 10.341347 3.4866035
31.604164 9.0178032 3.1055589
22.894489 6.3810263 2.2455032
23.086914 6.2822509 2.2605605
22.915262 6.0847764 2.2400448
22.897232 5.9298301 2.2346807
22.952808 5.6445956 2.2331748
23.159349 5.5449142 2.2499261
20.952183 4.8807511 2.0324419
20.66436 4.5471048 1.9989393
20.52932 3.991863 1.9757887
1.0156014 0.19121599 0.096539788
1.0128375 0.18426874 0.096163355
1.0149298 0.17822263 0.096257463
0.97575742 0.16518679 0.092399023
0.99640518 0.16239552 0.094281189
1.0278741 0.16105005 0.097198546
1.022936 0.15385284 0.096633896
1.0445542 0.15055184 0.09861017
1.0286919 0.1418314 0.097010329
1.0246075 0.13486813 0.096539788
1.0175129 0.12758934 0.095786922
1.0123451 0.12063793 0.095222272
1.0051519 0.11353171 0.094469406
0.9741509 0.10398708 0.091457941
0.93217534 0.093733974 0.087411284
0.92678589 0.08745262 0.086846635
0.90747029 0.08001975 0.084964469
0.91588229 0.075099245 0.085717335
0.8964712 0.067977041 0.08383517
0.88396019 0.061578646 0.082611762
0.885315 0.056216475 0.08270587
0.95621318 0.054813646 0.089387558
1.0052508 0.051428065 0.093998864
0.9856562 0.044367693 0.092116699
1.0107803 0.039280526 0.094469406
1.0159775 0.03323954 0.094939947
1.0052149 0.026716234 0.093904756
1.0093414 0.020628422 0.094281189
1.0064626 0.014392724 0.093998864
1.0005587 0.0081693502 0.093434215
0.99620366 -0.0007411135 0.073991783
0.99318886 -0.0068351221 0.07376685
0.98814273 -0.012867547 0.073391952
0.99203318 -0.019004136 0.073691867
0.98691344 -0.024968065 0.073316976
0.9837516 -0.030931205 0.073092036
0.97656763 -0.036709391 0.072567187
0.97034651 -0.042443477 0.072117314
0.94915217 -0.047367606 0.07054276
0.96377861 -0.054017264 0.07166744
0.97238678 -0.060480852 0.072342254
0.97995657 -0.066984758 0.072942078
1.0043892 -0.074832104 0.074816547
1.0029171 -0.080913983 0.074741572
1.0004147 -0.086894989 0.074591614
0.99688381 -0.092756614 0.074366674
0.99133402 -0.098382577 0.073991783
0.98079407 -0.10342444 0.073241994
0.97419447 -0.10878064 0.072792128
0.96162379 -0.11336341 0.071892381
0.95497197 -0.11852887 0.071442507
0.92258167 -0.12028362 0.069043189
14.008512 -2.0796592 1.063936
14.203419 -2.1977389 1.0797565
13.683629 -2.2033889 1.0412173
14.251111 -2.3845391 1.0855298
57.795982 -10.033457 4.4097867
13.784041 -2.4806664 1.0521643
14.038151 -2.6154103 1.0727835
14.010087 -2.6992345 1.0718837
14.015756 -2.789624 1.0736082
13.794226 -2.8336434 1.0579376
13.733653 -2.9091396 1.0546386
13.959111 -3.0464978 1.0733832
13.904157 -3.1240056 1.0706091
13.965367 -3.227896 1.0768323
13.904551 -3.3038452 1.0736831
13.730954 -3.3517447 1.0618365
13.495393 -3.382128 1.0451913
13.575793 -3.4909413 1.053064
13.573402 -3.5792594 1.0545636
46.153542 -12.47224 3.5938683
46.14534 -12.774354 3.5992668
46.324165 -13.130402 3.619436
13.586823 -3.941848 1.0628113
45.224594 -13.420448 3.5461068
13.639528 -4.1392627 1.070834
39.953373 -12.391742 3.1443708
39.66745 -12.570389 3.1278753
40.303024 -13.044449 3.1842594
38.269855 -12.646369 3.0296533
38.107445 -12.852589 3.0229802
37.706326 -12.975528 2.9974124
37.279747 -13.085116 2.9698203
36.781895 -13.164427 2.9365296
36.49902 -13.316389 2.9204092
36.384846 -13.528277 2.91786
36.29649 -13.74951 2.917485
36.18446 -13.961554 2.9153106
36.694893 -14.417784 2.963522
36.714062 -14.685997 2.9722946
36.852306 -15.004245 2.9908893
36.892212 -15.285045 3.0016861
36.852863 -15.534362 3.0061848
36.669785 -15.722864 2.9990621
36.377922 -15.862676 2.9830916
36.104877 -16.007988 2.9686956
35.660515 -16.073517 2.9402037
35.307377 -16.175734 2.9192097
34.980549 -16.28643 2.9003899
34.611336 -16.37369 2.8780463
34.190254 -16.431982 2.8513539
33.898808 -16.548721 2.8354583
33.614372 -16.66605 2.8201628
33.182819 -16.706528 2.7924955
32.894112 -16.81496 2.776825
32.584972 -16.90992 2.7594299
32.204449 -16.964081 2.7359617
31.89925 -17.054173 2.7188663
31.7309 -17.215345 2.7134681
28.620464 -15.755943 2.4556162
28.516283 -15.927368 2.4550164
30.648624 -17.365873 2.6477866
30.491348 -17.524784 2.6434379
30.212666 -17.612112 2.628592
29.981279 -17.724594 2.6178701
26.421768 -15.839926 2.3154058
26.36072 -16.024021 2.31863
26.322176 -16.222612 2.3239534
23.531137 -14.702535 2.0853713
23.443851 -14.848777 2.0856712
23.369921 -15.003658 2.0872457
23.294973 -15.158193 2.0888202
23.386333 -15.422712 2.1054654
23.39241 -15.633514 2.1146128
23.371181 -15.827635 2.1214359
5.1689825 -3.5476725 0.47047931
5.219986 -3.6299837 0.47715241
5.1690807 -3.6418459 0.47452816
5.1295915 -3.6613302 0.47295359
5.0076289 -3.6208785 0.46373123
