# .PCD v0.7 - Point Cloud Data file format
VERSION 0.7
FIELDS x y z
SIZE 4 4 4
TYPE F F F
COUNT 1 1 1
WIDTH 1456
HEIGHT 1
VIEWPOINT 0 0 0 1 0 0 0
POINTS 1456
DATA ascii
19.982891 11.979766 -0.32516295
20.161892 11.919517 -0.32688031
20.382368 11.88169 -0.32926783
20.774782 11.940256 -0.33441988
21.154753 11.986562 -0.33934852
21.489792 12.002805 -0.34353718
22.149044 12.193317 -0.35287789
22.339457 12.120125 -0.35472089
22.881638 12.23315 -0.36213481
23.179207 12.209953 -0.36565328
23.385929 12.136123 -0.36773363
26.151405 13.368205 -0.40994132
26.146309 13.163876 -0.40858698
26.073399 12.927248 -0.40619946
26.092024 12.737632 -0.40526399
26.13364 12.559969 -0.40470549
26.244562 12.415627 -0.40523607
2.135555 0.99451214 -0.032725077
2.1397989 0.98055696 -0.032697152
2.1494217 0.96905243 -0.032752998
2.154413 0.95544034 -0.03273904
2.1703172 0.94659942 -0.032892622
2.1577046 0.92538416 -0.032613378
2.1725562 0.91601121 -0.032752998
2.1799831 0.90342885 -0.032780923
2.1901159 0.89192092 -0.032850735
2.1862636 0.87475228 -0.032711115
2.2241623 0.87411904 -0.033199791
2.1669817 0.83633959 -0.032264322
2.167397 0.82125646 -0.032194514
2.1648977 0.80515438 -0.032082815
2.1632221 0.78945684 -0.031985082
2.1557868 0.77178848 -0.031803571
2.151047 0.75523478 -0.031663951
2.1461856 0.73876846 -0.031524327
2.1468885 0.72430766 -0.031468481
2.1493933 0.71049345 -0.031440556
2.1470532 0.69513637 -0.031342819
2.1522312 0.68225121 -0.031356782
2.158287 0.66962498 -0.031384706
2.1700096 0.65869206 -0.031496406
2.1855135 0.64877826 -0.031663951
2.1932945 0.6364702 -0.0317198
26.516653 7.5161862 -0.38468373
26.543962 7.3482728 -0.38441846
26.459204 7.1503105 -0.3825475
26.377855 6.9549408 -0.38074639
26.397758 6.7872314 -0.38042527
26.435997 6.6244011 -0.38038337
26.516945 6.4720254 -0.38096979
26.589233 6.3170567 -0.38144451
26.597292 6.1468096 -0.38101166
26.644264 5.9856877 -0.38115129
26.665836 5.8188915 -0.38094187
26.494638 5.6114502 -0.37799585
26.485474 5.4399252 -0.3773815
26.490894 5.2718472 -0.37699056
26.529615 5.1105266 -0.37708831
26.671553 4.9683385 -0.37866601
26.559826 4.7790933 -0.37665546
20.548586 3.567476 -0.29105335
20.454704 3.4220228 -0.28941977
20.470381 3.2956562 -0.28934994
20.484289 3.1690731 -0.28926617
20.464773 3.0375988 -0.28872165
20.496885 2.9139423 -0.28891712
20.555004 2.7936418 -0.28948957
20.51722 2.6603947 -0.28872165
20.598654 2.5425372 -0.28964317
20.533424 2.4066708 -0.28851223
20.624329 2.2891273 -0.28958732
20.693676 2.1683705 -0.29036918
20.73744 2.0443964 -0.29080203
26.644913 2.4617376 -0.37347209
26.628633 2.2955391 -0.37303928
26.650188 2.1327438 -0.37315097
26.730583 1.9741887 -0.37410039
26.753168 1.8108784 -0.37425399
26.711878 1.6434972 -0.37352794
26.718464 1.4793996 -0.37348607
26.723045 1.3152337 -0.37343022
26.727615 1.1511104 -0.37338832
26.721184 0.9866116 -0.37320682
26.714743 0.82226586 -0.37303928
26.733278 0.65867656 -0.37323475
26.770807 0.49526039 -0.37370944
26.755346 0.33076614 -0.37345815
26.737873 0.16647406 -0.37319285
24.194498 -0.044592183 -0.80643797
24.160789 -0.19278373 -0.80533808
24.136166 -0.34070408 -0.80457151
24.09565 -0.48802635 -0.80330497
24.109188 -0.63631314 -0.80387157
23.934015 -0.77867961 -0.79817218
23.954752 -0.92652488 -0.79903877
23.946619 -1.0734016 -0.79897213
21.19467 -1.0804684 -0.70731568
21.129768 -1.2071913 -0.70538253
23.907843 -1.5130521 -0.79847217
23.869196 -1.6577122 -0.79750562
13.007579 -0.98390436 -0.43461275
12.817015 -1.0486311 -0.42844677
12.035761 -1.0591348 -0.40251634
11.66883 -1.0990582 -0.39045101
11.517671 -1.1561697 -0.38561821
3.5488565 -0.37870258 -0.11861467
3.5524254 -0.40114266 -0.11881465
3.5439425 -0.42222401 -0.11861467
3.5184758 -0.44110596 -0.11784809
3.5087662 -0.46177503 -0.11761478
3.5098271 -0.48384097 -0.1177481
3.5087709 -0.50565249 -0.11781476
9.4219189 -1.4157599 -0.31732583
9.3903437 -1.4699914 -0.31655926
9.3880529 -1.5287058 -0.31679258
3.6391821 -0.61593509 -0.12268088
3.6176147 -0.63514531 -0.12208095
3.5988991 -0.65465021 -0.121581
3.5840101 -0.67468834 -0.12121438
3.5807838 -0.69685745 -0.12124771
3.5891793 -0.72137356 -0.121681
3.574899 -0.741355 -0.1213477
9.2215881 -1.970395 -0.31405953
9.22787 -2.0310211 -0.3146928
9.2240076 -2.0895908 -0.31499276
9.2051716 -2.1447885 -0.31479278
9.2122498 -2.2061164 -0.31549272
9.2111568 -2.2657027 -0.31592599
9.1999884 -2.3229127 -0.31602597
9.1594381 -2.3725543 -0.31512609
9.2335777 -2.452307 -0.31819242
9.249217 -2.5173137 -0.31925896
9.1979761 -2.5640907 -0.31802577
9.19168 -2.6232224 -0.31835905
9.1907616 -2.6840539 -0.31889233
9.2382822 -2.759558 -0.32112542
9.254632 -2.8264062 -0.32229194
9.203723 -2.8727183 -0.32112542
9.2468653 -2.9485652 -0.32325852
22.010754 -7.1667466 -0.77154183
21.974901 -7.3045044 -0.77184182
21.884235 -7.4237924 -0.77024198
21.746658 -7.526228 -0.76700902
21.78112 -7.688128 -0.76987535
21.698742 -7.8091087 -0.76864219
21.640097 -7.9383159 -0.76827556
21.561022 -8.0597506 -0.76720899
21.505558 -8.1897602 -0.76700902
21.467016 -8.3262606 -0.76744229
21.36747 -8.743453 -0.76950872
21.321724 -8.8778543 -0.76980871
21.263166 -9.0069551 -0.76967537
21.210255 -9.1384401 -0.76977539
21.173006 -9.2768335 -0.77047527
21.115688 -9.4065742 -0.77047527
21.068497 -9.5409079 -0.77087528
21.015007 -9.6725101 -0.77107525
20.98061 -9.8131285 -0.77200848
20.970554 -9.9657001 -0.77387494
20.937813 -10.108089 -0.77494144
20.894241 -10.245611 -0.77564138
20.837246 -10.376741 -0.77587467
20.772291 -10.50395 -0.77584136
20.71545 -10.635317 -0.77614135
20.665758 -10.770538 -0.77674127
20.621368 -10.908821 -0.77757448
20.611282 -11.065874 -0.77974093
20.676399 -11.26481 -0.78480703
20.672493 -11.427729 -0.78730673
20.628138 -11.569023 -0.78830665
20.575005 -11.705756 -0.78900653
20.500195 -11.830283 -0.78890657
20.417732 -11.950294 -0.78853995
20.330271 -12.067188 -0.78800666
20.234438 -12.178821 -0.78717345
20.14653 -12.294938 -0.78667349
20.048613 -12.404652 -0.78580689
13.768454 -8.636446 -0.54160082
8.6041288 -5.4711919 -0.33962336
8.6174421 -5.5542016 -0.34148982
8.589057 -5.6107984 -0.34172311
8.5494671 -5.6600842 -0.34152314
8.4863577 -5.6935062 -0.34038994
8.4529161 -5.746594 -0.3404566
8.4067955 -5.7909822 -0.34002331
8.3407793 -5.8212938 -0.33879012
8.3008232 -5.8694777 -0.33862346
8.258152 -5.9156442 -0.33835682
8.2540569 -5.9896817 -0.33969
8.2662735 -6.0763206 -0.34172311
8.2504807 -6.1430411 -0.34262303
8.2166214 -6.1965585 -0.34278965
8.243578 -6.2966003 -0.3455227
8.2292948 -6.3660197 -0.34655592
8.22155 -6.4410462 -0.3478891
8.1685629 -6.4808121 -0.34732249
7.3198676 -5.8810978 -0.31272635
7.2673621 -5.9126563 -0.31202644
7.1476326 -5.8885088 -0.30842683
7.0131249 -5.8503141 -0.30416065
6.8946295 -5.8235908 -0.30056104
6.7227983 -5.7495193 -0.29459503
6.6178784 -5.7304764 -0.2915287
6.45257 -5.657001 -0.2857627
6.4095154 -5.6891894 -0.28539607
6.2570243 -5.6228695 -0.28013
6.1854391 -5.6275296 -0.27846351
6.1066818 -5.6247535 -0.27646372
6.0084562 -5.6028228 -0.27356404
5.9419851 -5.6093993 -0.27209756
5.8583183 -5.5988007 -0.26983115
5.7175398 -5.5317974 -0.26489836
5.6542134 -5.5381045 -0.26353183
5.5832181 -5.5361037 -0.26179871
5.519516 -5.5405221 -0.26039886
5.4188147 -5.5066152 -0.25723255
5.3661141 -5.5204124 -0.25633264
5.3016801 -5.5215168 -0.25486615
5.2037315 -5.4865093 -0.25176647
5.1098313 -5.4541569 -0.24883348
5.0979939 -5.5088787 -0.24990003
5.0371208 -5.510551 -0.24856684
4.9871378 -5.5235519 -0.24776693
4.9391813 -5.5383854 -0.247067
4.8826423 -5.5430899 -0.2459338
4.826232 -5.5473104 -0.2448006
4.766046 -5.5465002 -0.24346741
4.7170477 -5.5581145 -0.24270083
4.6655188 -5.5662737 -0.24180093
4.6229911 -5.5847883 -0.24136764
4.5854735 -5.6091809 -0.241201
4.5371561 -5.6201038 -0.24046774
4.4876323 -5.6290832 -0.23966783
4.4319868 -5.6298146 -0.23853463
4.3967462 -5.6561136 -0.2385013
4.357089 -5.6766429 -0.23823465
4.3197608 -5.7000847 -0.23810135
4.2332053 -5.6576672 -0.23523499
4.2001925 -5.6859465 -0.23533498
4.1640472 -5.7099967 -0.23526832
4.1207566 -5.7240844 -0.23480171
4.0635548 -5.7183051 -0.23353519
4.0071526 -5.7128582 -0.232302
3.9703171 -5.7348728 -0.23220199
3.9271593 -5.7475743 -0.23173538
3.8867888 -5.7641053 -0.23143542
3.813693 -5.7312689 -0.22916901
3.7855871 -5.7654214 -0.22960229
3.7332911 -5.7625394 -0.22856908
3.6881726 -5.7701807 -0.22796914
3.6542974 -5.7952385 -0.22806913
3.6155019 -5.8124599 -0.22786915
3.5468357 -5.7808695 -0.22576939
3.4942203 -5.7743077 -0.2246695
3.44643 -5.775043 -0.22386959
3.3865948 -5.7547383 -0.22226977
3.3171058 -5.71663 -0.22000337
3.2730317 -5.7212615 -0.21940343
3.2354102 -5.7368841 -0.21923678
3.1996627 -5.7557549 -0.21920344
3.1623645 -5.7717733 -0.21907014
3.1135917 -5.7664456 -0.21813691
3.0650039 -5.7607379 -0.21720368
3.0235655 -5.7679291 -0.21677038
2.9830718 -5.7766047 -0.21640377
2.9652464 -5.8295403 -0.21770361
2.9334509 -5.8556666 -0.21800359
2.8948126 -5.8681784 -0.21780361
2.857878 -5.8840322 -0.21773694
2.8316386 -5.9221945 -0.21850353
2.8016326 -5.9530215 -0.21900347
2.762532 -5.9646587 -0.2188035
2.7242234 -5.9778595 -0.21867017
2.6866746 -5.9926386 -0.21860352
2.647434 -6.0035243 -0.21840353
2.6033878 -6.0031514 -0.21780361
2.55827 -5.9997072 -0.21710369
2.5167708 -6.0042305 -0.21670373
2.4775975 -6.0140162 -0.21650375
2.4406495 -6.0291052 -0.21650375
2.4013932 -6.0383949 -0.21630377
2.3621147 -6.0474305 -0.21610379
2.3217418 -6.0534124 -0.21580383
2.2820892 -6.060997 -0.21557052
2.2462428 -6.0786357 -0.21570385
2.2085619 -6.0913644 -0.21567051
2.1741593 -6.1132755 -0.21597047
2.1369374 -6.1274447 -0.21600381
2.10027 -6.1432786 -0.21610379
2.065712 -6.1655259 -0.21643709
2.0219183 -6.1600432 -0.21580383
1.9779639 -6.1533041 -0.21513724
1.9398707 -6.1643715 -0.21510391
1.899362 -6.167562 -0.21480393
1.8577338 -6.1666598 -0.21437065
1.8348337 -6.2287531 -0.21613713
1.7979634 -6.2446961 -0.21630377
1.7625909 -6.2661939 -0.21667039
1.7169591 -6.2508702 -0.2157705
1.6959181 -6.3259645 -0.21800359
1.672755 -6.3961992 -0.22007002
1.6287835 -6.3879428 -0.21943675
1.5924501 -6.4094553 -0.21983671
1.557795 -6.4385338 -0.2205033
1.5221554 -6.464509 -0.2210699
1.489157 -6.5029531 -0.2220698
1.4500964 -6.5158701 -0.22220312
1.430999 -6.6213555 -0.22550274
1.4030678 -6.6906567 -0.22756918
1.3691602 -6.7343974 -0.22876905
1.3411437 -6.8103328 -0.23106879
1.3025131 -6.8351235 -0.23163539
1.2623606 -6.8528156 -0.23196869
1.2229155 -6.8751922 -0.23246863
1.204209 -7.0194869 -0.23710145
1.1674738 -7.0651994 -0.23840131
1.1270831 -7.0909843 -0.23903458
1.0942676 -7.1679134 -0.24140097
1.0530177 -7.1932817 -0.24203424
1.0270413 -7.3292656 -0.24640042
0.9902783 -7.3968468 -0.24846685
0.94626629 -7.4136896 -0.24883348
0.89967412 -7.4104261 -0.24853352
0.85384429 -7.4128284 -0.24843352
0.80530995 -7.3901086 -0.2475003
0.76107478 -7.4058475 -0.24786691
0.71494591 -7.4034133 -0.24763361
0.66383284 -7.3449526 -0.24553384
0.78436816 -9.3138237 -0.31129318
0.74923027 -9.6004448 -0.32072547
0.70429301 -9.7992506 -0.32722473
0.65425438 -9.9569712 -0.3323575
0.60432845 -10.14836 -0.33862346
0.73432869 -13.748738 -0.45874339
0.4790858 -10.141036 -0.33815685
0.55930787 -13.604929 -0.4536773
0.47424531 -13.563156 -0.45217746
0.3884185 -13.475898 -0.4491778
0.30486155 -13.440059 -0.44791126
0.22215703 -13.427687 -0.44744465
0.1396158 -13.414805 -0.44697803
0.057085615 -13.365438 -0.44531158
-0.024802621 -13.298573 -0.44307849
-0.10645631 -13.305167 -0.44331178
-0.18872686 -13.349234 -0.44481161
-0.27346224 -13.487718 -0.44947776
-0.35626888 -13.487785 -0.44954443
-0.43908659 -13.487343 -0.4496111
-0.5215649 -13.477404 -0.44937778
-0.60071737 -13.395073 -0.44674474
-0.67928612 -13.320267 -0.44437835
-0.75918168 -13.283916 -0.44331178
-0.83329344 -13.162308 -0.43941221
-0.90884888 -13.082169 -0.43691251
-0.99445111 -13.147103 -0.4392789
-1.0816988 -13.221439 -0.4419786
-1.1662184 -13.253382 -0.44327846
-1.2500466 -13.272844 -0.44417834
-1.3347561 -13.297741 -0.44527823
-1.4233117 -13.354892 -0.447478
-1.5122828 -13.408477 -0.44957775
-1.5960619 -13.411846 -0.45001104
-1.6819255 -13.43056 -0.45097759
-1.7482843 -13.298103 -0.44687805
-1.8253492 -13.254452 -0.44577819
-1.9010898 -13.204422 -0.44447833
-1.9770278 -13.158905 -0.44334513
-2.0544875 -13.12579 -0.44264519
-2.1322577 -13.096167 -0.44207859
-2.2067425 -13.048347 -0.44091207
-2.2779589 -12.984355 -0.43921223
-2.3525829 -12.942598 -0.438279
-2.4347239 -12.942654 -0.43877897
-2.516 -12.937282 -0.43911225
-2.5894315 -12.892204 -0.43811238
-2.6678796 -12.873137 -0.43801239
-2.7539155 -12.889756 -0.43914559
-2.8531418 -12.964369 -0.44227856
-2.9275587 -12.924199 -0.44151199
-3.005898 -12.902099 -0.44137865
-3.0873342 -12.893131 -0.44171196
-3.1709213 -12.892385 -0.44234523
-3.2531478 -12.885283 -0.4427785
-3.343925 -12.910555 -0.444345
-3.4369295 -12.941957 -0.44614479
-3.5215232 -12.939911 -0.44681141
-3.6046109 -12.93154 -0.44727802
-3.6863575 -12.917828 -0.44757798
-3.7683516 -12.90456 -0.44791126
-3.8508933 -12.892686 -0.44831124
-3.9354744 -12.886976 -0.44894448
-4.0192366 -12.877851 -0.44947776
-4.0957494 -12.84533 -0.44921112
-4.1726332 -12.814255 -0.44901115
-4.2524424 -12.792205 -0.44914448
-4.3282852 -12.758299 -0.44887784
-4.4064875 -12.731502 -0.44887784
-4.4974961 -12.74098 -0.4501777
-4.5847263 -12.738535 -0.45107758
-4.6665878 -12.720486 -0.45144421
-4.7470007 -12.698166 -0.45167753
-4.841898 -12.713633 -0.45327735
-4.9306579 -12.711638 -0.45427722
-5.0159039 -12.699737 -0.45494384
-5.1015625 -12.688195 -0.45564374
-5.1899171 -12.682553 -0.45657697
-5.2718639 -12.66062 -0.4569436
-5.354516 -12.639997 -0.4573769
-5.431973 -12.606904 -0.4573769
-5.5260696 -12.611786 -0.45877671
-5.622057 -12.619637 -0.46030989
-5.710515 -12.609486 -0.4612098
-5.7927923 -12.585104 -0.46160975
-5.8792191 -12.569241 -0.46234301
-5.9660978 -12.553692 -0.46310958
-6.0530066 -12.53755 -0.46387616
-6.1276217 -12.495687 -0.4637095
-6.2010598 -12.451591 -0.46347621
-6.2674232 -12.393684 -0.46274295
-6.3556757 -12.379002 -0.46364287
-6.4629207 -12.40004 -0.46590927
-6.5440249 -12.369868 -0.4662759
-6.6235838 -12.336527 -0.46654254
-6.6938949 -12.285999 -0.46617591
-6.7609348 -12.229825 -0.46560931
-6.8387814 -12.193341 -0.46580929
-6.9208832 -12.16418 -0.46630922
-6.9938922 -12.118888 -0.46620923
-7.0595379 -12.061083 -0.46564263
-7.1298404 -12.011522 -0.46540931
-7.2018614 -11.96498 -0.46530932
-7.274621 -11.919711 -0.465276
-7.34657 -11.873151 -0.46520934
-7.4166288 -11.823616 -0.46504268
-7.4885006 -11.777043 -0.46500936
-7.5541258 -11.720792 -0.46460941
-7.6133308 -11.654974 -0.46384284
-7.6720128 -11.588871 -0.46307623
-7.7903018 -11.612129 -0.46590927
-7.8614058 -11.56411 -0.46590927
-7.9361825 -11.521418 -0.46614257
-8.0187378 -11.489717 -0.4668425
-8.0983181 -11.453355 -0.46737576
-8.1730986 -11.40995 -0.4676424
-8.2505846 -11.370102 -0.46807569
-8.3385439 -11.344229 -0.46910891
-8.4127684 -11.299264 -0.46937555
-5.8192716 -7.7162747 -0.32189199
-5.737905 -7.512033 -0.31482613
-5.7747178 -7.4648261 -0.31432617
-5.8050041 -7.4095826 -0.31349292
-5.6776834 -7.1561522 -0.30422729
-5.9655981 -7.4250555 -0.31722584
-6.1598897 -7.5712848 -0.32509163
-6.2303772 -7.5626607 -0.32635817
-6.397655 -7.6693497 -0.33265746
-6.4884429 -7.6818724 -0.33492386
-6.4776478 -7.5743113 -0.33195755
-6.503067 -7.5102434 -0.33089098
-5.5614738 -6.3435917 -0.28092989
-5.7482324 -6.4760442 -0.28836241
-5.7845206 -6.4369345 -0.28819576
-5.9637942 -6.5550985 -0.29512832
-5.8908358 -6.395607 -0.28956226
-5.9061131 -6.333756 -0.28839573
-5.9290867 -6.2806811 -0.28762916
-5.9440365 -6.219614 -0.28649595
-5.9793077 -6.1801519 -0.28636262
-6.0506816 -6.1776223 -0.28796244
-6.1243591 -6.1765776 -0.28966227
-6.1947107 -6.1713324 -0.29119542
-6.2602406 -6.1605482 -0.29249528
-6.3215709 -6.1450109 -0.29359517
-6.3663659 -6.1130295 -0.29392844
-6.4139061 -6.0834808 -0.29439506
-6.4511127 -6.0440116 -0.29439506
-6.4565368 -5.9751225 -0.2929619
-6.4775882 -5.9212313 -0.29226196
-6.519732 -5.8867326 -0.2925286
-6.6690993 -5.9477391 -0.2975947
-6.7317157 -5.9298306 -0.29876125
-6.8380919 -5.9494286 -0.3018609
-6.8926597 -5.9229932 -0.30266079
-6.9524932 -5.9006395 -0.30369404
-6.978611 -5.8495212 -0.30326074
-7.1783466 -5.9423513 -0.31035995
-7.2255054 -5.9070511 -0.31082657
-7.2157359 -5.8255601 -0.30886012
-7.2505641 -5.7805529 -0.30882677
-7.1885257 -5.6592875 -0.30469391
-7.1173859 -5.5328698 -0.30022773
-6.8808651 -5.2815595 -0.28886235
-7.4548759 -5.5781784 -0.31009331
-7.4897666 -5.5329251 -0.31012663
-7.5938249 -5.5381045 -0.31302631
-7.4289513 -5.3483253 -0.30486056
-7.438004 -5.2858505 -0.30389401
-7.4457517 -5.2228918 -0.30289412
-7.437396 -5.1492276 -0.30126098
-7.2963934 -4.9856367 -0.29429507
-7.3260188 -4.9402137 -0.29426175
-7.3378892 -4.882987 -0.2935285
-7.3777375 -4.8444543 -0.29392844
-7.4417119 -4.8213773 -0.29529497
-7.5006275 -4.794467 -0.29646149
-7.5129976 -4.7376904 -0.2957949
-7.5436234 -4.6925583 -0.29586157
-7.5663114 -4.6425238 -0.29562825
-7.5809751 -4.5877299 -0.295095
-7.5986838 -4.5349813 -0.29469502
-7.6039724 -4.4750896 -0.29382846
-7.6148648 -4.4188161 -0.29319519
-7.6357622 -4.3685341 -0.2929619
-7.6754804 -4.3289652 -0.29346183
-7.7141275 -4.288588 -0.29392844
-7.7814898 -4.2637491 -0.29549494
-7.9068756 -4.2695904 -0.29926118
-7.9805684 -4.2463493 -0.30106097
-7.9560199 -4.1708474 -0.2991612
-7.8464885 -4.0522337 -0.2940951
-7.8881297 -4.0126233 -0.29472837
-7.93226 -3.9739974 -0.29546162
-7.9627686 -3.9283466 -0.29569492
-7.9966111 -3.8842182 -0.29606155
-8.028409 -3.8389599 -0.29636151
-8.0572386 -3.7921805 -0.29656148
-8.0894241 -3.7468717 -0.29689479
-8.136816 -3.7083583 -0.29779467
-8.1694489 -3.6628604 -0.2981613
-8.1542778 -3.5961273 -0.2967948
-8.1716051 -3.5440371 -0.29662815
-8.1904392 -3.4926541 -0.29652816
-8.2034197 -3.4388545 -0.2962282
-8.2058849 -3.3808389 -0.29556161
-8.2125788 -3.3247979 -0.29506165
-8.2040367 -3.2628918 -0.29402843
-8.2080774 -3.2063081 -0.29346183
-8.2135992 -3.1505139 -0.2929619
-8.2337112 -3.1004093 -0.29299521
-8.2413311 -3.0456715 -0.29259527
-8.2401323 -2.9878902 -0.29189533
-8.2394781 -2.9305735 -0.29122874
-8.2478685 -2.8766699 -0.29089546
-8.254962 -2.8224502 -0.29052883
-8.2711763 -2.7714279 -0.29049549
-8.3839321 -2.752115 -0.29386178
-8.3968554 -2.6993964 -0.29372847
-8.420887 -2.6502244 -0.29399511
-8.4274387 -2.5955625 -0.2936618
-8.4412918 -2.543227 -0.29359517
-8.4653664 -2.4939268 -0.29389513
-8.4805098 -2.4419372 -0.29389513
-8.4780159 -2.3849831 -0.29329517
-8.504055 -2.3360958 -0.29369515
-8.5037489 -2.2799883 -0.29319519
-8.5011415 -2.2234671 -0.29262859
-8.5068769 -2.169287 -0.29236194
-8.5287561 -2.1192186 -0.29266194
-8.5571413 -2.0706093 -0.29319519
-8.5696859 -2.0180647 -0.29319519
-8.5994425 -1.9694614 -0.29379514
-8.6738005 -1.9305605 -0.29592824
-8.8525276 -1.913421 -0.30162758
-9.1663494 -1.92248 -0.31192645
-9.8978233 -2.0126228 -0.3364237
-16.427008 -3.2358685 -0.55793232
-16.465206 -3.1385698 -0.55856562
-16.491034 -3.0387502 -0.55879891
-16.528065 -2.9408333 -0.55943215
-16.609825 -2.8503535 -0.5615986
-16.697012 -2.7599592 -0.56396502
-16.837013 -2.6770785 -0.56813121
-16.896595 -2.5803585 -0.56959772
-16.94672 -2.4817042 -0.57076424
-17.044767 -2.3893321 -0.57356393
-17.091797 -2.2890818 -0.57466382
-17.11841 -2.1858115 -0.57509708
-17.144396 -2.0823009 -0.57553035
-17.195572 -1.9815292 -0.57683021
-17.278944 -1.8837835 -0.57922995
-17.328951 -1.7817144 -0.58052981
-17.384323 -1.6796794 -0.58202964
-17.426155 -1.5758612 -0.58309621
-17.484295 -1.47302 -0.58472937
-17.544817 -1.3697575 -0.5864625
-17.57881 -1.2639433 -0.58732903
-17.608177 -1.1575011 -0.58806229
-17.655851 -1.0518761 -0.58942884
-17.77475 -0.94955075 -0.59319508
-17.796215 -0.84122473 -0.59372836
-17.838989 -0.73357522 -0.59499484
-17.874115 -0.62518758 -0.59602809
-17.957539 -0.51780975 -0.59869444
-17.985357 -0.40818241 -0.59952772
-18.013506 -0.29824981 -0.60039425
-18.044979 -0.18802887 -0.60139418
-18.101761 -0.077545188 -0.60326064
-18.205837 0.033715367 -0.60672688
-18.273249 0.1459641 -0.60899329
-18.352955 0.25922436 -0.61169302
-18.443947 0.37371072 -0.61479264
-18.63913 0.49208942 -0.62139189
-18.681711 0.60794139 -0.6229251
-18.714581 0.72398698 -0.62415826
-18.745729 0.84041411 -0.62535816
-18.79911 0.95842028 -0.62732458
-18.894653 1.079563 -0.63072419
-18.956499 1.1998318 -0.63302398
-19.044497 1.322769 -0.63622361
-19.103788 1.4447217 -0.63849002
-19.149351 1.5663927 -0.64032316
-19.179203 1.6873637 -0.64165634
-19.279936 1.8155038 -0.64538926
-19.350971 1.9420501 -0.64815563
-19.564287 2.0847809 -0.65572143
-19.642498 2.2150869 -0.65878773
-19.703962 2.3445415 -0.66132081
-19.775484 2.4761992 -0.66422045
-19.984858 2.627054 -0.67178631
-20.04163 2.759716 -0.67425269
-20.027287 2.883064 -0.67435271
-20.20788 3.0357325 -0.68105191
-20.3281 3.1814537 -0.68575144
-20.384155 3.3184881 -0.68831778
-20.365381 3.4438338 -0.68838447
-20.521061 3.5998065 -0.6943838
-20.630354 3.7495983 -0.69884998
-20.68259 3.8903368 -0.70141631
-20.701498 4.0255623 -0.70288283
-20.903742 4.1981573 -0.71061528
-20.950008 4.3413463 -0.71308172
-21.054924 4.4979954 -0.71758121
-21.082565 4.6393433 -0.71948099
-21.074173 4.7732515 -0.72018093
-21.097052 4.9147139 -0.72198069
-21.124817 5.058032 -0.72398049
-21.14094 5.1992502 -0.72561365
-21.144493 5.3379216 -0.72684681
-21.161655 5.4805899 -0.72857994
-21.379747 5.6772728 -0.737279
-21.367655 5.8146472 -0.73807889
-21.479839 5.9869671 -0.74321169
-21.571486 6.1553974 -0.74767786
-21.626373 6.3148127 -0.75091082
-21.62265 6.457972 -0.75214398
-21.640926 6.6083283 -0.75417709
-21.674389 6.7642121 -0.75677681
-21.676279 6.9110398 -0.75830996
-21.693338 7.0634055 -0.76040977
-21.712187 7.2171855 -0.76260948
-21.73564 7.3733883 -0.76500922
-21.729656 7.5203447 -0.7664091
-21.751904 7.6778159 -0.76884216
-21.709085 7.8128309 -0.76900882
-21.712345 7.9648175 -0.7708419
-21.815664 8.1549301 -0.77627462
-21.630716 8.2374191 -0.7714752
-21.70929 8.4202213 -0.77610803
-21.871017 8.637701 -0.78377384
-21.843573 8.7821751 -0.78470701
-21.811476 8.9251223 -0.78550696
-21.797821 9.0760736 -0.7870068
-21.925779 9.287612 -0.79367268
-21.904177 9.4373941 -0.79497254
-21.889799 9.590868 -0.79657239
-22.00948 9.8047094 -0.803105
-22.057249 9.9886322 -0.80707121
-22.14081 10.190641 -0.81240398
-22.220905 10.393202 -0.81767005
-22.129633 10.516481 -0.81667012
-22.126793 10.682049 -0.81896991
-22.094036 10.833895 -0.82020307
-22.02804 10.969703 -0.82023638
-21.97191 11.110521 -0.82066971
-21.905991 11.246498 -0.82076967
-17.708145 9.2292004 -0.66552031
-17.917103 9.4783459 -0.67555255
-17.907038 9.6141052 -0.67738569
-17.679201 9.6319981 -0.67098641
-17.378349 9.6068468 -0.66178739
-17.170881 9.6301908 -0.65612137
-15.124735 8.6051264 -0.57989657
-14.277841 8.2397051 -0.54933327
-14.12178 8.2655678 -0.54526711
-13.996883 8.3081932 -0.54240072
-13.830039 8.3243446 -0.53790122
-13.672059 8.3439703 -0.53373504
-13.524562 8.3682823 -0.5299688
-13.443327 8.4325237 -0.52880228
-13.342415 8.4837494 -0.52686912
-13.262385 8.5475912 -0.52576923
-13.181238 8.6102247 -0.52463603
-13.096489 8.6699781 -0.52336955
-13.038065 8.7468328 -0.52316952
-12.984977 8.8272295 -0.5232029
-12.94127 8.9141083 -0.52363616
-12.86584 8.9790478 -0.52280289
-12.803158 9.0526295 -0.52250296
-12.64743 9.0594358 -0.51840341
-12.587561 9.1339331 -0.51823676
-12.544969 9.2210598 -0.51880336
-12.497773 9.3050222 -0.51920331
-12.467576 9.4019909 -0.52033651
-12.436658 9.4989376 -0.52146971
-12.375767 9.5732355 -0.52136976
-12.338824 9.6662474 -0.52230299
-12.279281 9.7417746 -0.52230299
-12.213042 9.8119287 -0.52203631
-12.166563 9.8980341 -0.52263629
-12.148029 10.00745 -0.52446938
-12.216106 10.189989 -0.53010213
-12.230472 10.329885 -0.53346843
-13.218146 11.303691 -0.57959658
-13.181031 11.412713 -0.58102977
-13.198689 11.570456 -0.58492935
-13.17155 11.690365 -0.58689576
-13.135256 11.803027 -0.58849561
-13.061108 11.882056 -0.58842891
-12.971781 11.947079 -0.58769566
-12.85437 11.985555 -0.58569592
-12.690462 11.979135 -0.58156306
-12.559635 12.002229 -0.57893002
-12.459175 12.053356 -0.5776968
-12.24217 11.98972 -0.57103086
-12.157017 12.053352 -0.57049757
-12.0271 12.071788 -0.56786454
-11.917749 12.109742 -0.56619805
-11.804904 12.143227 -0.56436497
-11.679635 12.162809 -0.56193191
-11.564891 12.192189 -0.55999875
-11.483029 12.255628 -0.5596655
-11.39811 12.315586 -0.55919886
-11.28861 12.348412 -0.55753237
-11.201241 12.404834 -0.55696577
-11.071693 12.413662 -0.55429941
-11.003905 12.491112 -0.55473268
-10.94936 12.58403 -0.55586588
-10.887574 12.669168 -0.55666584
-10.81028 12.736497 -0.55669916
-10.728716 12.798758 -0.5565325
-10.663367 12.880514 -0.55723244
-10.610704 12.978197 -0.55863225
-10.536522 13.050057 -0.55893224
-10.45999 13.119152 -0.55913222
-10.39537 13.203503 -0.55999875
-10.336245 13.295444 -0.56119865
-10.266033 13.373677 -0.56183189
-10.294867 13.582972 -0.56796455
-10.253248 13.701897 -0.5702976
-10.196301 13.801528 -0.57183081
-10.122026 13.878366 -0.57243073
-10.040183 13.945079 -0.5726307
-9.9810638 14.043896 -0.57416385
-9.8958521 14.10651 -0.57423049
-9.7732649 14.115198 -0.57213074
-9.7011337 14.196354 -0.57299733
-9.6088133 14.248155 -0.57269734
-9.5306225 14.32099 -0.57326394
-9.4502516 14.390894 -0.57373059
-9.3873167 14.488029 -0.57529706
-9.3160086 14.573144 -0.57639694
-9.2445412 14.658774 -0.57753015
-9.1628704 14.728799 -0.57806343
-9.0723238 14.784744 -0.57806343
-9.0704479 14.987198 -0.58379614
-8.981904 15.048578 -0.58402944
-8.9578419 15.219684 -0.58852893
-8.856761 15.261395 -0.58802897
-8.7500458 15.292897 -0.58716244
-8.7272482 15.472521 -0.59199518
-8.6729441 15.599154 -0.59479487
-8.5972395 15.688887 -0.59619474
-8.5796528 15.887321 -0.60172743
-8.4937468 15.961723 -0.6025607
-8.4081783 16.037439 -0.60346061
-8.4458408 16.352459 -0.61335951
-8.3176994 16.349636 -0.6113264
-8.3094578 16.584435 -0.61819226
-8.3884201 17.001684 -0.63182408
-8.3258696 17.139135 -0.63502371
-8.4387445 17.646126 -0.65188855
-8.696393 18.475237 -0.68055201
-8.6273994 18.624376 -0.68408495
-10.910701 23.937033 -0.87686342
-10.760757 23.997145 -0.87663013
-10.603228 24.03986 -0.87579685
-10.44717 24.085211 -0.87509698
-10.287034 24.120363 -0.87406373
-10.083191 24.050301 -0.86926425
-9.9479971 24.142212 -0.87036413
-9.7782946 24.149994 -0.86846435
-9.6036997 24.143604 -0.86609799
-9.4542856 24.199284 -0.86599797
-9.2991791 24.240042 -0.86539805
-9.1502705 24.296644 -0.86539805
-8.3665323 22.635862 -0.80437154
-8.1756878 22.543961 -0.79930544
-7.4851384 21.041893 -0.74437821
-7.1353168 20.455168 -0.72204739
-6.9385214 20.290516 -0.71471483
-6.7738724 20.213305 -0.71051532
-6.6313233 20.198463 -0.70854884
-6.5069571 20.23782 -0.70851552
-6.3763556 20.257345 -0.70781559
-6.2525272 20.298 -0.70788229
-6.1298819 20.34268 -0.70811558
-6.0105963 20.399084 -0.7087822
-5.9104891 20.522976 -0.71181518
-5.7874298 20.569439 -0.71218181
-5.6634922 20.613237 -0.71248174
-5.6422758 21.040487 -0.72604692
-6.9893913 26.717543 -0.92055857
-6.8305111 26.780264 -0.92125845
-6.6638923 26.812941 -0.92095852
-6.5356903 27.003891 -0.92612457
-6.3849998 27.107691 -0.92832434
-6.2299323 27.196043 -0.93002415
-6.0620742 27.229855 -0.92989087
-5.910511 27.338825 -0.93235725
-5.759275 27.453808 -0.93505692
-5.6229858 27.647289 -0.94045633
-5.4580693 27.705788 -0.94128954
-5.3209109 27.911545 -0.94715559
-5.1636786 28.020332 -0.94975531
-4.9990072 28.092815 -0.95115513
-4.8255243 28.11705 -0.95095515
-4.6470413 28.110632 -0.94975531
-4.4545341 28.013264 -0.94552243
-4.271245 27.965969 -0.94302273
-4.1020317 28.008463 -0.94358933
-4.0588875 28.951601 -0.97451919
-3.9122212 29.207762 -0.98231834
-3.7466075 29.338289 -0.98591793
-3.5720656 29.406363 -0.98745108
-3.4091899 29.580627 -0.99258387
-3.2547114 29.849379 -1.0009162
-3.242985 31.536062 -1.05681
-3.0495183 31.556358 -1.0568434
-2.717968 30.050552 -1.0058157
-2.5293331 30.016867 -1.0041492
-2.3480628 30.069685 -1.0054158
-2.1655941 30.112434 -1.0063823
-1.9828205 30.156073 -1.0074155
-1.7992358 30.192614 -1.0082488
-1.6152241 30.227036 -1.0090487
-1.4363831 30.377144 -1.0137482
-1.25835 30.5891 -1.0205474
-1.078364 30.816984 -1.0279132
-0.89989746 31.191664 -1.0402119
-0.71510154 31.487362 -1.0499108
-0.53180104 32.088745 -1.0698419
-0.33712396 32.304272 -1.0769411
0.085478269 46.705948 -1.5571542
0.37221795 46.724533 -1.5578208
1.8815449 41.986488 -1.4011716
2.1377099 41.946205 -1.4002384
2.3962433 41.953251 -1.4009383
2.6536815 41.938759 -1.4009717
2.9128318 41.948608 -1.4018716
3.1874201 42.158165 -1.4095041
3.4558928 42.258343 -1.4135369
3.7236133 42.332916 -1.4167699
3.9905989 42.386887 -1.4193696
4.2606816 42.462044 -1.4227359
3.8754487 36.373779 -1.2194586
4.0983372 36.347332 -1.2193919
4.1786704 35.122623 -1.1791297
4.3752303 34.945583 -1.1740636
4.532661 34.485046 -1.1594986
4.6509399 33.779354 -1.1367011
4.7857909 33.247639 -1.1197697
4.9404211 32.889515 -1.1087042
5.0242462 32.105171 -1.0832738
5.1765094 31.799503 -1.0740081
5.314549 31.430117 -1.0626094
5.4220085 30.910612 -1.0461445
5.5390215 30.477524 -1.0326127
5.5846109 29.691561 -1.0071156
5.7144256 29.387922 -0.99798328
5.7632022 28.697742 -0.97571909
5.8045397 28.012012 -0.95358819
5.9101281 27.666033 -0.94302273
5.858994 26.62582 -0.90875989
5.9427867 26.238457 -0.89676118
5.9912143 25.718697 -0.88022971
2.6615014 11.114411 -0.38071877
2.6931338 10.94938 -0.37561932
2.6778355 10.606079 -0.36438724
2.7250738 10.520754 -0.36202085
2.7621336 10.400476 -0.35845459
2.8049054 10.306181 -0.3557882
2.8678217 10.287814 -0.35575488
2.9262311 10.253685 -0.35518828
2.9790075 10.200999 -0.35398841
3.0375397 10.169121 -0.35352179
3.1080513 10.177056 -0.35445502
3.215096 10.300905 -0.35945448
3.223598 10.109583 -0.35345516
3.2902098 10.103868 -0.35395509
3.3631771 10.116685 -0.35512161
3.4306462 10.111948 -0.35568821
3.5145261 10.153989 -0.3579213
3.5757658 10.129405 -0.35782132
3.6493576 10.139248 -0.35895452
3.7084041 10.10822 -0.35865456
3.7899532 10.137702 -0.36052102
3.8990333 10.237547 -0.36492053
3.9494891 10.181748 -0.36378732
4.0192308 10.175915 -0.36445391
4.0912862 10.175172 -0.36532047
4.1748376 10.201677 -0.36718693
4.2496481 10.205394 -0.3682535
4.3297281 10.22054 -0.36975333
4.4129219 10.241511 -0.37148646
4.4808931 10.226142 -0.37191975
4.5541286 10.222193 -0.37278631
4.6287208 10.220459 -0.37375289
4.7051344 10.221827 -0.37485275
4.7842789 10.228071 -0.3761526
4.8623896 10.231021 -0.37735248
4.94593 10.244196 -0.37895229
5.0337739 10.264806 -0.38085207
5.1184926 10.277565 -0.38248524
5.1963406 10.275397 -0.38358513
5.2880478 10.299335 -0.38568488
5.3696194 10.302147 -0.38701805
5.4509563 10.30346 -0.38831791
5.5325112 10.304162 -0.38961777
5.6176262 10.310393 -0.39115095
5.6923881 10.296723 -0.39195085
5.7681708 10.284266 -0.39281741
5.8459916 10.274741 -0.39381731
5.9548826 10.318317 -0.39688364
6.055944 10.346279 -0.39938337
6.1254354 10.319239 -0.39978331
6.2066755 10.311431 -0.40094984
6.2708697 10.274859 -0.4010165
6.369554 10.293983 -0.40328291
6.5042887 10.36901 -0.40778241
6.5860205 10.357581 -0.40891561
9.3087969 14.443574 -0.5726307
9.4704828 14.49831 -0.57709688
9.5984335 14.499099 -0.57946324
9.7317581 14.506331 -0.58212966
9.8739605 14.524869 -0.58529598
9.9850073 14.496111 -0.58659577
10.17157 14.574724 -0.59229517
10.294271 14.559371 -0.59422827
10.449757 14.588561 -0.59802788
10.68757 14.72883 -0.60646027
10.789581 14.679082 -0.60712683
10.931968 14.683149 -0.61005986
11.27087 14.756791 -0.61882555
11.422353 14.766412 -0.62215853
11.564512 14.762138 -0.62495822
11.712639 14.763721 -0.62805784
11.916301 14.832604 -0.63409048
12.053128 14.815805 -0.63652354
12.191467 14.799428 -0.6390233
12.353745 14.810306 -0.64275622
20.103409 23.803171 -1.038612
20.231546 23.658863 -1.0377121
20.356709 23.511612 -1.0367123
20.447886 23.326136 -1.0340459
20.458609 23.051476 -1.0274132
7.992197 8.8939772 -0.39835012
8.1394281 8.9467964 -0.40294963
20.634352 22.40486 -1.015348
20.753035 22.258091 -1.014448
20.870008 22.109983 -1.0135149
21.011494 21.988012 -1.0138148
21.010511 21.718597 -1.0073155
21.16995 21.616405 -1.0085821
21.314854 21.498878 -1.009182
21.33946 21.261168 -1.0041492
21.469515 21.129833 -1.0041492
21.583712 20.98307 -1.0034493
21.684662 20.823933 -1.0021827
21.809126 20.687735 -1.0020494
21.907211 20.526875 -1.0007496
22.033482 20.392748 -1.000783
22.133116 20.23424 -0.9996497
22.184904 20.033077 -0.99641675
22.358124 19.941816 -0.99868315
22.264088 19.613976 -0.98908424
22.267153 19.375305 -0.98391813
22.362879 19.218769 -0.98291826
22.46438 19.06761 -0.98221833
22.551849 18.905012 -0.98095185
22.665886 18.765005 -0.98088515
22.759708 18.608496 -0.97998524
22.154957 17.888336 -0.94918871
23.037924 18.368923 -0.98218501
23.540468 18.534508 -0.99874985
8.0326538 6.2444811 -0.33889011
8.0858803 6.2066388 -0.33952338
23.222124 17.601194 -0.97131956
23.716175 17.747612 -0.98741776
24.013527 17.741325 -0.99525023
23.870811 17.410479 -0.98488474
23.849041 17.17141 -0.97961861
24.13562 17.153873 -0.98705113
23.762606 16.670237 -0.96758664
24.23913 16.783571 -0.98278493
24.040474 16.428698 -0.97061962
24.095253 16.250139 -0.96878648
20.339785 13.53646 -0.81437039
20.511847 13.470106 -0.81793666
24.178917 15.66691 -0.96038747
24.210596 15.477343 -0.95785439
23.905256 15.07631 -0.9420895
24.074535 14.977392 -0.94512248
24.04928 14.757774 -0.94055635
23.288631 14.095005 -0.90739334
23.09491 13.784847 -0.89652789
20.466789 12.046388 -0.79157293
20.5991 11.954694 -0.79383934
20.742329 11.86828 -0.79653907
24.013836 13.545373 -0.91902536
24.058937 13.376887 -0.91759223
24.114269 13.214602 -0.9165923
24.169395 13.052618 -0.91562575
23.154116 12.321381 -0.8742637
24.195107 12.496821 -0.90772665
24.230354 12.327281 -0.90619349
24.277838 12.164494 -0.90516025
24.321547 12.000262 -0.90402704
24.340782 11.824597 -0.90202731
24.376814 11.657774 -0.90069407
2.1515055 1.012091 -0.078885771
2.1486065 0.99466938 -0.07855247
2.1528504 0.98063797 -0.078485809
2.1652105 0.9702726 -0.078719117
2.1802676 0.96100241 -0.079052418
2.1888738 0.94879967 -0.079152405
2.1918964 0.93417478 -0.079052418
2.1892917 0.91722983 -0.078752451
2.1893342 0.90149462 -0.07855247
2.1929717 0.88729388 -0.078485809
2.1993034 0.87419081 -0.078519143
2.2027643 0.85995221 -0.078452483
2.2126648 0.84821016 -0.07861913
2.1495504 0.80890191 -0.076186068
2.1544733 0.79569727 -0.076186068
2.1452217 0.77735126 -0.075686127
2.1414764 0.76115882 -0.075386159
2.1376135 0.74504179 -0.075086191
2.135525 0.7296477 -0.074852884
2.1390142 0.71621305 -0.074819557
2.1462171 0.70401019 -0.074919544
2.1466906 0.68960416 -0.074786223
2.1451616 0.67461872 -0.07458625
2.1435299 0.65967804 -0.074386269
2.150408 0.64737833 -0.074486256
2.165844 0.63756156 -0.07488621
2.195646 0.63172895 -0.075786114
24.529362 6.9017253 -0.84936649
24.544264 6.7436714 -0.84843326
24.568769 6.588542 -0.84786665
24.593262 6.4336195 -0.84733337
24.615812 6.2783976 -0.84676677
24.647083 6.1255522 -0.84653348
24.625921 5.9600968 -0.84453368
24.593931 5.7928419 -0.84220064
24.581276 5.6308908 -0.84056747
24.581219 5.4723544 -0.83940095
24.562559 5.3102293 -0.83763444
24.535013 5.1468983 -0.83560139
24.517162 4.9862967 -0.8339349
24.50317 4.8270741 -0.83243507
24.505819 4.6715808 -0.83153516
24.523211 4.519135 -0.83116853
20.766079 3.695071 -0.70298284
20.811016 3.5714717 -0.70374942
20.98242 3.4684913 -0.70881552
20.988503 3.3373256 -0.70831555
24.460602 3.7357876 -0.82476926
24.488008 3.5863543 -0.82493591
24.518459 3.4372799 -0.82523584
24.524229 3.2847824 -0.82473588
24.523106 3.1315835 -0.824036
24.521021 2.9785223 -0.82333606
24.461391 2.8190811 -0.82073635
21.199505 2.3113587 -0.71074861
21.059189 2.1653874 -0.70558256
21.227266 2.0511303 -0.71078193
24.492353 2.2151275 -0.81970316
24.490545 2.0635448 -0.8192032
24.485806 1.9119115 -0.8186366
24.475145 1.7600557 -0.81790334
24.453571 1.6077468 -0.81683677
24.436039 1.4560665 -0.81593686
24.482437 1.3081298 -0.8172034
24.453066 1.1561363 -0.81597024
24.366831 1.002251 -0.81287056
24.358536 0.85223049 -0.81240398
24.342327 0.70214748 -0.81170404
24.335186 0.55252278 -0.81133741
24.33812 0.40319449 -0.81133741
24.288166 0.25330761 -0.80960429
24.233295 0.10403167 -0.80773783
8.3185654 -0.0048955171 -0.41642407
8.3033972 -0.055836026 -0.41567302
8.3138838 -0.10692525 -0.41622379
8.3290482 -0.15824024 -0.41702491
8.2879829 -0.20833831 -0.4150221
17.640213 -0.55201584 -0.88417804
8.4195385 -0.31507471 -0.42178157
17.556278 -0.76514083 -0.8803727
17.527313 -0.8716588 -0.87917107
8.6067648 -0.48086691 -0.4315452
8.45014 -0.52414185 -0.42383441
8.441783 -0.57564121 -0.42358407
8.4639883 -0.62935442 -0.4248859
8.4460297 -0.68015391 -0.42418492
8.4556274 -0.73317313 -0.4248859
8.2709723 -0.76831651 -0.41582322
8.2193899 -0.81442195 -0.41346994
8.2102652 -0.86442149 -0.41326967
3.5694005 -0.39783335 -0.17944273
3.5530057 -0.41809231 -0.17874175
3.5315413 -0.43755078 -0.17779042
3.5228479 -0.45843801 -0.17749001
3.5239267 -0.48058522 -0.17769028
3.5258555 -0.50290406 -0.17794064
3.4950435 -0.52040845 -0.17653868
7.9270205 -1.2303869 -0.40155327
7.9242516 -1.2797992 -0.40180361
7.9260993 -1.3300506 -0.40230432
3.6386492 -0.63344103 -0.18454987
3.6209342 -0.65327197 -0.18384889
3.6109669 -0.67437685 -0.18354848
3.6008773 -0.69538403 -0.18324806
3.5926249 -0.71668369 -0.18304777
3.5832686 -0.73770684 -0.18279742
3.5816059 -0.76030189 -0.18294764
7.9195862 -1.7323048 -0.40580922
7.9370637 -1.7872293 -0.40726125
7.9531913 -1.8422077 -0.40866321
7.9495111 -1.8928239 -0.40906379
7.9193149 -1.9370564 -0.40811244
7.9111547 -1.986585 -0.40831274
7.9404035 -2.0458057 -0.41046575
7.9537725 -2.1013772 -0.41181761
7.976398 -2.1598005 -0.41367021
7.9745445 -2.2119057 -0.41427106
7.9781156 -2.2657065 -0.41517231
7.9611864 -2.3137805 -0.4150221
7.9468393 -2.3625858 -0.4150221
7.9446154 -2.4150791 -0.41567302
7.9449077 -2.4685225 -0.41647413
7.9553132 -2.5253849 -0.41782603
7.9539189 -2.5787711 -0.41857708
7.9502721 -2.6316071 -0.41922799
7.9434371 -2.6835363 -0.4197287
7.9438176 -2.7380846 -0.42062995
7.9438276 -2.7927382 -0.4215312
7.9218407 -2.8397429 -0.42128086
7.8817539 -2.8800695 -0.42007917
7.8704853 -2.9308167 -0.42042968
7.861692 -2.9825971 -0.42093036
7.8479013 -3.0325792 -0.42118073
7.8170643 -3.0759215 -0.42052981
7.8184395 -3.1319995 -0.42163134
7.7232399 -3.1489911 -0.41752562
7.7462068 -3.2139282 -0.41982883
7.8312349 -3.3056779 -0.42553681
7.8108039 -3.3536673 -0.42553681
7.7681122 -3.3919377 -0.42433512
7.7462411 -3.4391332 -0.42428505
7.8287683 -3.5334396 -0.42999303
7.7915077 -3.5743296 -0.42914185
7.8401165 -3.8920357 -0.43820453
7.8062773 -3.935123 -0.43765375
7.8237705 -4.0043349 -0.44000703
7.8345027 -4.0706859 -0.44200984
7.812912 -4.1205444 -0.44221011
7.7751541 -4.1618071 -0.44150913
7.744206 -4.2065759 -0.44120872
7.7182493 -4.254014 -0.44120872
7.5141749 -4.2018476 -0.43099442
7.8087983 -4.4297233 -0.44947028
7.7788744 -4.476059 -0.44932005
7.7529888 -4.5247121 -0.44942018
7.7852426 -4.6078091 -0.45292509
7.8039217 -4.6837611 -0.45567894
7.8185472 -4.7580376 -0.45823252
7.4177709 -4.5767341 -0.43635193
7.786665 -4.870574 -0.45983475
7.7819376 -4.9343057 -0.46133685
7.7683177 -4.9927621 -0.46233827
7.417028 -4.8315382 -0.44316146
7.3889093 -4.878058 -0.44326159
8.0021544 -5.3537273 -0.48206583
8.1121664 -5.4996877 -0.49072796
8.0675669 -5.5420074 -0.49007705
7.942421 -5.5280714 -0.48451927
7.3900619 -5.2112026 -0.45272481
7.3685122 -5.2639966 -0.45337573
7.3619642 -5.3278475 -0.45497796
7.3943777 -5.4207511 -0.45903364
7.3866363 -5.4850745 -0.46063587
7.3592267 -5.5350976 -0.46103644
7.3195643 -5.5759125 -0.46068594
7.1721377 -5.533474 -0.45352593
7.0357428 -5.4974346 -0.44701684
6.9306083 -5.4841032 -0.44246048
6.7939506 -5.4440842 -0.43585122
6.7394791 -5.4686766 -0.43449932
6.6432939 -5.4585662 -0.43044367
6.4615006 -5.3759384 -0.42078015
6.2886157 -5.2977247 -0.41161734
6.2301559 -5.3141737 -0.40991497
6.1097522 -5.2765737 -0.40410686
6.0208731 -5.2646546 -0.40035158
5.9428415 -5.2611141 -0.39729732
5.8844175 -5.274148 -0.39554489
5.8164444 -5.2779384 -0.39314151
5.7332025 -5.2669053 -0.38968667
5.6137505 -5.2210407 -0.38372836
5.5532508 -5.2286859 -0.38177562
5.4400973 -5.1854796 -0.37616777
5.3722444 -5.1840849 -0.37366429
5.3267603 -5.2036896 -0.37271294
5.2727175 -5.2145042 -0.37116078
5.1940408 -5.2001195 -0.36785617
5.1564245 -5.2262039 -0.3674556
5.0991654 -5.2319956 -0.36565307
5.0586553 -5.2545505 -0.36505225
5.0407715 -5.3006902 -0.36610371
4.9903741 -5.3125925 -0.36480188
4.9407001 -5.3248091 -0.36355013
4.8964629 -5.3425069 -0.36269894
4.7670722 -5.2658281 -0.35548887
4.7659602 -5.3299723 -0.35784215
4.7179604 -5.3418975 -0.35669056
4.6424208 -5.3218236 -0.35343599
4.5666547 -5.3002691 -0.35013139
4.5139828 -5.3046098 -0.3485792
4.4742808 -5.3237963 -0.34802845
4.4415307 -5.35115 -0.34802845
4.3883533 -5.3535843 -0.34642619
4.3485093 -5.3718705 -0.34587544
4.3154664 -5.3984513 -0.34587544
4.2785482 -5.420125 -0.345575
4.2464385 -5.4478512 -0.34567514
4.1946568 -5.4500599 -0.34417304
4.1454268 -5.4550195 -0.34287122
4.0920978 -5.453989 -0.34121892
4.0395331 -5.4533129 -0.33961669
4.0077648 -5.4804149 -0.33976689
3.976985 -5.5089521 -0.34001723
3.944267 -5.5348773 -0.34011737
3.8918447 -5.5328336 -0.33851513
3.8452923 -5.5385599 -0.33741361
3.7683327 -5.4994335 -0.33360827
3.7099023 -5.4860482 -0.33140519
3.6661923 -5.4937549 -0.33050394
3.6126409 -5.4861169 -0.32870141
3.5658517 -5.48808 -0.32749975
3.5337272 -5.5123792 -0.32764995
3.5110476 -5.5516844 -0.32870141
3.4769168 -5.5731235 -0.32870141
3.4442255 -5.5969043 -0.32885164
3.4087825 -5.6162248 -0.32875147
3.3768225 -5.6413198 -0.32900184
3.3330061 -5.6464515 -0.32810059
3.2817194 -5.6383104 -0.32644826
3.1819453 -5.5448599 -0.3198891
3.1419618 -5.5538478 -0.31928825
3.1005292 -5.559938 -0.31853721
3.0677989 -5.5814834 -0.31868741
3.0334938 -5.6002021 -0.31868741
2.9995446 -5.6195908 -0.31873748
2.9645422 -5.6370058 -0.31868741
2.9312766 -5.6577506 -0.31883761
2.9005916 -5.6836362 -0.31928825
2.8647659 -5.6995425 -0.31918812
2.8292973 -5.7161179 -0.31913805
2.7959206 -5.7369614 -0.31933832
2.7662828 -5.7657156 -0.31998923
2.7329853 -5.787096 -0.32023957
2.6932156 -5.7946992 -0.31973889
2.6559479 -5.8074822 -0.31953859
2.6239517 -5.8318667 -0.31998923
2.5990314 -5.8725166 -0.32134113
2.5633478 -5.8892694 -0.3213912
2.5185192 -5.8846865 -0.32028964
2.4788785 -5.8917437 -0.31983903
2.4407725 -5.9022279 -0.31958869
2.4022553 -5.9115415 -0.31928825
2.3614943 -5.9150395 -0.31868741
2.3244267 -5.9275579 -0.31858727
2.2865767 -5.9379807 -0.318387
2.2437422 -5.9350834 -0.31748575
2.19964 -5.9281383 -0.3163842
2.1580994 -5.9274459 -0.31563315
2.1250477 -5.9499822 -0.31613386
2.09114 -5.9704504 -0.3165344
2.0593317 -5.9973383 -0.31728545
2.0240865 -6.0145941 -0.31753582
1.9868307 -6.0259519 -0.31748575
1.9498188 -6.0380292 -0.31748575
1.9136366 -6.0527363 -0.31763595
1.8773474 -6.0672264 -0.31778616
1.8348762 -6.0614252 -0.31688491
1.7933975 -6.0582042 -0.31613386
1.7486966 -6.0431905 -0.31478196
1.7099533 -6.0480399 -0.31448153
1.6730767 -6.059381 -0.31453159
1.6387242 -6.0801406 -0.31508237
1.5970691 -6.0736604 -0.31423119
1.5567955 -6.0717363 -0.31363034
1.5202371 -6.0840812 -0.31378055
1.4871275 -6.1107626 -0.31468183
1.458351 -6.156703 -0.31658447
1.4402765 -6.2511821 -0.32099062
1.4145499 -6.3164291 -0.32389471
1.3846806 -6.3659792 -0.32599765
1.3546686 -6.4173527 -0.32820073
1.3194722 -6.4460921 -0.32925218
1.2806718 -6.4579854 -0.32945246
1.2429047 -6.4755306 -0.32995316
1.2188177 -6.5674858 -0.33425918
1.1767356 -6.5650091 -0.33375847
1.1427265 -6.6085196 -0.33561108
1.1088841 -6.6557994 -0.33766395
1.0726074 -6.6910768 -0.33911598
1.0333555 -6.7093768 -0.33971682
0.99187624 -6.7136154 -0.33961669
0.94954461 -6.7116637 -0.33921611
0.91811234 -6.7896152 -0.34287122
0.88371509 -6.8515816 -0.34572521
0.84640217 -6.8955364 -0.34767795
0.81909901 -7.0295644 -0.35418704
0.77080578 -6.9877996 -0.35183376
0.72667444 -6.9804773 -0.35123292
0.68567771 -7.0036907 -0.35218424
0.64187032 -6.9988151 -0.35173362
0.59729785 -6.9837146 -0.35078228
0.55285597 -6.9673357 -0.34978089
0.54193389 -7.4058857 -0.37166148
0.53472704 -7.980073 -0.40035158
0.5439564 -8.9402323 -0.4484188
0.49388692 -9.0311594 -0.45282495
0.43768921 -9.0180588 -0.45202383
0.38158637 -9.0026131 -0.45112258
0.3264125 -9.0067816 -0.45122272
0.27171215 -9.0275831 -0.45217404
0.21681663 -9.0500479 -0.45322552
0.16112261 -9.0422201 -0.45277488
0.1070577 -9.1648779 -0.45888343
0.051675517 -9.3201656 -0.46664429
-0.0055221431 -9.335288 -0.46739534
-0.063287839 -9.4069862 -0.47100037
-0.12327223 -9.5821857 -0.47981268
-0.18238808 -9.5982246 -0.48066387
-0.24145412 -9.6039133 -0.48101437
-0.3005656 -9.6082401 -0.48131478
-0.35925338 -9.5992298 -0.4809643
-0.41758087 -9.5838718 -0.48031339
-0.47588232 -9.5711546 -0.47981268
-0.53532547 -9.5810184 -0.48046359
-0.59280443 -9.5566196 -0.47941214
-0.64932442 -9.5219135 -0.47785997
-0.70795983 -9.5207376 -0.47801018
-0.7694121 -9.5540438 -0.47991282
-0.82914203 -9.5620785 -0.48056373
-0.88798302 -9.5588007 -0.48066387
-0.94937623 -9.5809994 -0.48206583
-1.0120167 -9.6117449 -0.48391843
-1.0715276 -9.6103172 -0.48416877
-1.1277891 -9.5807476 -0.48301718
-1.1952779 -9.6440201 -0.48657215
-1.2603617 -9.6820621 -0.48887536
-1.3205559 -9.6800833 -0.48917577
-1.3826077 -9.6905851 -0.49012712
-1.4449852 -9.7016754 -0.4911285
-1.5047928 -9.6946011 -0.49122864
-1.5626568 -9.6753254 -0.49072796
-1.622986 -9.6714649 -0.49102837
-1.688467 -9.6967459 -0.4928309
-1.7568027 -9.7353468 -0.49533439
-1.8247583 -9.7685623 -0.49758753
-1.8865572 -9.7669878 -0.49808824
-1.9464507 -9.755229 -0.49808824
-2.004458 -9.7342978 -0.4976376
-2.0641487 -9.7218161 -0.4976376
-2.1312323 -9.7431154 -0.49939007
-2.1951439 -9.7483683 -0.50034142
-2.2558191 -9.7386074 -0.50054169
-2.3303392 -9.7867632 -0.50374615
-2.3934309 -9.7848921 -0.50439703
-2.4541547 -9.7729282 -0.5045473
-2.5198059 -9.7799301 -0.50569886
-2.5843594 -9.7816658 -0.50660014
-2.6458964 -9.7714081 -0.50690055
-2.7100744 -9.7703876 -0.50770169
-2.7713375 -9.758379 -0.50795203
-2.8286531 -9.7325592 -0.50750142
-2.8857558 -9.7064037 -0.50705075
-2.9478736 -9.6971149 -0.50750142
-3.0200622 -9.7198563 -0.5096544
-3.0838761 -9.714469 -0.51035541
-3.1437333 -9.6963148 -0.51040548
-3.2028553 -9.6758938 -0.51035541
-3.254493 -9.6333513 -0.50915372
-3.3112624 -9.6065903 -0.50880325
-3.3877022 -9.6360292 -0.51145691
-3.4491236 -9.6216421 -0.51180744
-3.5142663 -9.6171827 -0.51270866
-3.5798328 -9.6132221 -0.51366001
-3.6483171 -9.6162872 -0.51501191
-3.7072527 -9.5937214 -0.51501191
-3.7675116 -9.5745106 -0.51521218
-3.8455029 -9.5994234 -0.51781583
-3.8873618 -9.53403 -0.51556265
-3.9346881 -9.4832458 -0.51411062
-3.9928019 -9.4589252 -0.51411062
-4.0558887 -9.4461784 -0.51476157
-4.1229653 -9.4421654 -0.51591319
-4.1897407 -9.4367714 -0.51701468
-4.234827 -9.3826666 -0.51546252
-4.2977324 -9.3683062 -0.51611346
-4.358933 -9.349906 -0.51656407
-4.4179306 -9.3265953 -0.51676434
-4.4711766 -9.2912121 -0.51631373
-4.5359974 -9.2797527 -0.51721495
-4.6008458 -9.267849 -0.51811624
-4.6666174 -9.2572803 -0.51911765
-4.7237864 -9.2293606 -0.51916772
-4.7761831 -9.1922264 -0.51871711
-4.8301659 -9.1583309 -0.51846671
-4.8919253 -9.1390867 -0.51906759
-4.9507704 -9.1141644 -0.51936799
-5.01335 -9.0958614 -0.520069
-5.0685797 -9.0640564 -0.52001888
-5.1255789 -9.0353918 -0.52016914
-5.1829143 -9.0072346 -0.52036941
-5.2355676 -8.9709501 -0.52011907
-5.2610078 -8.8888073 -0.51721495
-5.3051701 -8.8392324 -0.5162136
-5.3525562 -8.7954226 -0.51556265
-5.3964581 -8.7462654 -0.51461136
-5.4230103 -8.6698046 -0.51205778
-5.4643383 -8.6178102 -0.51095623
-5.4911928 -8.5437918 -0.50855285
-5.4568329 -8.3768806 -0.50059175
-5.4822669 -8.3040667 -0.49823844
-5.5081244 -8.2329178 -0.4959853
-5.496325 -8.1072073 -0.49042752
-5.4922409 -7.9951243 -0.48567089
-5.4995427 -7.9014349 -0.48201576
-5.5220203 -7.8308125 -0.47976261
-5.5641599 -7.7886558 -0.47926193
-5.5603156 -7.6831689 -0.47485575
