# .PCD v0.7 - Point Cloud Data file format
VERSION 0.7
FIELDS x y z
SIZE 4 4 4
TYPE F F F
COUNT 1 1 1
WIDTH 1454
HEIGHT 1
VIEWPOINT 0 0 0 1 0 0 0
POINTS 1454
DATA ascii
-1.6884382 4.4027119 -0.15684374
-1.6649146 4.4223423 -0.15717703
-1.6474509 4.4587235 -0.15811026
-1.6180171 4.4631104 -0.15791029
-1.6006513 4.5012035 -0.15891017
-1.5776112 4.5241518 -0.15937679
-1.545941 4.5223985 -0.15897684
-1.5159396 4.5251656 -0.15874353
-1.4897041 4.5391297 -0.15891017
-1.4501984 4.5120292 -0.15764365
-1.4209853 4.5160761 -0.15747701
-1.3979565 4.5399923 -0.15801027
-1.372092 4.5551829 -0.15824358
-1.3452461 4.5673513 -0.1583769
-1.3166428 4.5735989 -0.15831023
-1.295323 4.6056433 -0.15914348
-1.2702167 4.6250691 -0.15954344
-1.2493219 4.6607704 -0.16051
-1.2201946 4.6664147 -0.16044334
-1.2016672 4.7135196 -0.16180985
-1.1700711 4.710135 -0.16144322
-1.1442049 4.7298541 -0.16187651
-1.1213489 4.763052 -0.16277641
-1.0936645 4.7766619 -0.16300972
-1.0660726 4.7910872 -0.16327636
-1.0427803 4.8258672 -0.16424291
-1.0131497 4.8321753 -0.16424291
-0.98826212 4.8618059 -0.16504282
-0.96517408 4.9020991 -0.16620935
-0.9414413 4.9413085 -0.16734257
-0.91454619 4.9656672 -0.16797583
-0.88493586 4.9761052 -0.16814248
-0.86013502 5.0149326 -0.16927569
-0.83309746 5.0427952 -0.17004226
-0.8041805 5.0606437 -0.17047556
-0.77733952 5.0931463 -0.17140879
-0.74592912 5.0968313 -0.17137545
-0.71519661 5.1052709 -0.17150877
-0.69327998 5.1798954 -0.17387517
-0.66401619 5.2038803 -0.17454177
-0.63460469 5.2286911 -0.17524169
-0.60869044 5.2861018 -0.17704149
-0.57776105 5.303647 -0.1775081
-0.54449183 5.3001332 -0.17727479
-0.51244134 5.3083477 -0.17744145
-0.48220158 5.3372722 -0.17830801
-0.45145822 5.3640323 -0.17910792
-0.42235023 5.4155254 -0.18074107
-0.39406145 5.4867988 -0.18304081
-0.36202753 5.5140462 -0.18387406
-0.33151776 5.5720334 -0.18574052
-0.30287078 5.6777563 -0.18920679
-0.27440271 5.8142824 -0.19370629
-0.24163994 5.8867574 -0.1960727
-0.20740345 5.9420652 -0.19787249
-0.17927544 6.2319455 -0.20750475
-0.16372374 7.2311153 -0.24080104
-0.12182202 7.3808808 -0.24576715
-0.076970376 7.4234638 -0.24716699
-0.031743202 7.4987535 -0.24966672
0.014506675 7.6297345 -0.25403291
0.061790485 7.6884675 -0.25599936
0.10961254 7.7339129 -0.25753251
0.15847966 7.8030415 -0.25986558
0.20648696 7.8069181 -0.26003224
0.26506874 8.1341476 -0.27099767
0.31647936 8.1713171 -0.27229753
0.37005571 8.2461023 -0.2748639
0.42746025 8.3774281 -0.27933007
0.48369816 8.4594622 -0.28216308
0.54158968 8.5510931 -0.2853294
0.5982703 8.608429 -0.28736252
0.652812 8.6275167 -0.28812909
0.74483192 9.1014862 -0.30412731
0.80810601 9.1813707 -0.30696031
0.86601895 9.1931562 -0.30752695
0.92989349 9.2622528 -0.31002665
1.5796802 14.822765 -0.49670583
1.6750799 14.852521 -0.49803901
1.7768067 14.931284 -0.50103867
1.8763351 14.983569 -0.5031718
1.9615957 14.921236 -0.50147194
2.0551584 14.923771 -0.5019719
2.1468325 14.911869 -0.50200522
2.2372506 14.891498 -0.50177193
2.3222463 14.837006 -0.50040543
2.3841791 14.643928 -0.49437276
2.4508286 14.492044 -0.48973995
2.5188127 14.357618 -0.48570704
2.5807729 14.198324 -0.48084092
2.6212935 13.934701 -0.47244188
2.41624 12.42418 -0.42168087
2.4953794 12.42382 -0.4221808
2.5737939 12.41904 -0.42254743
2.6532876 12.418651 -0.42308071
2.7113969 12.320145 -0.42028102
2.7659695 12.210674 -0.4171147
2.8134067 12.075692 -0.41308182
2.868135 11.977528 -0.41031545
2.9217653 11.87915 -0.40754911
2.9787004 11.79801 -0.40538269
2.7711744 10.69878 -0.36815351
2.811121 10.584977 -0.36482054
2.8487265 10.467233 -0.36135426
2.8782859 10.325361 -0.35705474
2.9226663 10.241191 -0.35475498
2.9551983 10.119452 -0.3511554
2.9917812 10.015897 -0.34818906
3.0327513 9.930439 -0.34585598
3.0787404 9.8639402 -0.34418949
3.0970101 9.7125044 -0.33955669
3.1432421 9.6524534 -0.33812353
3.1749845 9.5504723 -0.33522385
3.1953208 9.4181795 -0.33125761
3.2363806 9.3502274 -0.32955781
3.2657504 9.2510262 -0.32675812
3.3085773 9.1922569 -0.32539159
3.3153563 9.0366659 -0.32059214
3.3665428 9.0049191 -0.32019219
3.3516667 8.8000908 -0.31362626
2.2310889 5.750946 -0.205305
2.1613436 5.4712868 -0.19577274
2.217242 5.5135612 -0.1977725
2.2423258 5.4785771 -0.19700593
2.2824299 5.480401 -0.19757253
2.3210814 5.4782567 -0.19800581
2.3471384 5.4464717 -0.19737256
2.4057801 5.4896402 -0.19947232
2.4308784 5.4556036 -0.1987724
2.4469924 5.4023461 -0.19737256
2.4612913 5.346374 -0.19587272
2.4728792 5.2859049 -0.19420624
0.83361793 1.7527735 -0.064320728
0.84652948 1.7521259 -0.064487375
0.84846431 1.7289511 -0.063820779
0.85816598 1.7219232 -0.063754119
0.86646044 1.7121656 -0.063587472
0.87694985 1.7068168 -0.063587472
0.89017749 1.7067217 -0.063787453
0.89969832 1.6994606 -0.063720793
0.91436368 1.7018334 -0.06402076
0.92957002 1.7049675 -0.064354055
0.94339854 1.7053546 -0.064587362
0.95922214 1.7091229 -0.06495399
0.97364473 1.7101547 -0.065220624
0.98611784 1.707611 -0.065353945
0.99910098 1.7058411 -0.065520592
2.2547259 3.7976291 -0.14687818
2.2888081 3.8017056 -0.14757811
1.0521967 1.7229936 -0.066920437
1.0722141 1.7318038 -0.067520365
1.104593 1.7599063 -0.068886884
1.0939214 1.719359 -0.067553699
1.0746738 1.6664088 -0.065720573
1.0799596 1.6522523 -0.065420605
1.0900773 1.6455947 -0.065420605
1.092916 1.6280853 -0.064987317
1.1073799 1.627961 -0.065253958
1.117915 1.6219587 -0.065287285
1.1267022 1.6134295 -0.065220624
1.1383117 1.6089342 -0.065320611
1.1499084 1.604357 -0.065420605
1.1884911 1.6369092 -0.067053758
1.2411292 1.6875694 -0.069453485
6.3107491 8.4757519 -0.35198864
5.1158457 6.783411 -0.28292969
6.741858 8.8265896 -0.36998662
7.4942012 9.6878729 -0.40804905
7.533165 9.6157427 -0.40694916
5.2273598 6.5884814 -0.28006333
7.0315547 8.7519789 -0.37398618
2.340385 2.8759918 -0.12324749
5.2562432 6.3800616 -0.27526388
5.1922255 6.2241197 -0.26989779
5.7133193 6.7640591 -0.29486167
7.6779799 8.8673038 -0.39075097
2.1640046 2.4677298 -0.10904907
2.1552229 2.4274948 -0.1078492
2.1313343 2.3711059 -0.10591608
2.1135616 2.3224962 -0.10431626
2.1237102 2.3050728 -0.10411628
2.1303167 2.2839575 -0.10374966
2.1429186 2.2693896 -0.103683
2.1395411 2.2381332 -0.10284976
2.1469798 2.218498 -0.10254979
2.1619503 2.2067108 -0.10261645
2.1761534 2.1941137 -0.10264979
2.1789553 2.1701381 -0.10214984
2.2043395 2.1686459 -0.10271645
2.2161713 2.153686 -0.10264979
2.2336695 2.144201 -0.10284976
2.2554851 2.1387091 -0.10324971
2.3210754 2.1740329 -0.10564945
2.3578427 2.1814747 -0.106716
2.3719213 2.1676404 -0.10674933
2.5157263 2.2709377 -0.11261534
2.5572095 2.2800739 -0.11384854
2.5254066 2.2240384 -0.11181543
2.5337276 2.2039082 -0.11158212
2.5365913 2.1791999 -0.11111551
2.5704877 2.1810577 -0.1120154
2.5470583 2.1344242 -0.11041559
2.5439405 2.1053708 -0.10971566
2.5390151 2.0751712 -0.10894908
2.554033 2.0614367 -0.10904907
2.5814812 2.0575655 -0.10968233
2.6191854 2.0614722 -0.11074888
2.6380973 2.0502701 -0.11101551
2.6403215 2.0261326 -0.11058223
2.6248267 1.9887632 -0.1094157
2.618576 1.958847 -0.10864911
2.6136653 1.9302708 -0.10794919
2.6246526 1.9136083 -0.10791586
5.921174 4.2626686 -0.2429008
5.969213 4.2418904 -0.2438007
5.8404937 4.0966973 -0.23750141
5.8819537 4.0721631 -0.238168
5.9175568 4.0433269 -0.23860128
6.1005173 4.1136804 -0.24496724
6.1164913 4.0700798 -0.24460062
6.1104403 4.0121737 -0.24336742
5.9479027 3.8534045 -0.23593491
6.1221647 3.9131999 -0.24190092
6.1621222 3.8856912 -0.24253418
7.931438 4.9338403 -0.31109321
8.3670349 5.1339107 -0.32695809
8.4146242 5.0923076 -0.32759136
8.4002275 5.0134311 -0.32582489
8.4807873 4.991199 -0.32775801
7.8551693 4.5582857 -0.30246082
8.2672787 4.7298956 -0.31722584
8.6199694 4.8617482 -0.32962447
5.7767186 3.2113194 -0.22000337
5.7595029 3.1556399 -0.21860352
5.6749892 3.0641983 -0.21467063
8.719924 4.6398182 -0.3289912
8.739377 4.5815854 -0.3286579
8.5906162 4.4365997 -0.32202533
2.8151455 1.4315716 -0.1049162
3.06692 1.5360563 -0.11398185
8.0039968 3.9486902 -0.29722807
7.9408751 3.8571403 -0.29399511
6.5578456 3.1356461 -0.24200091
6.6962991 3.0517156 -0.24500057
2.7935398 1.2520455 -0.10168322
2.8825545 1.2707798 -0.10464956
2.876544 1.2471029 -0.10414962
2.8657558 1.2215871 -0.10348302
2.845546 1.1923864 -0.10248314
2.8334036 1.1669074 -0.10178322
2.8349521 1.1472493 -0.10158323
2.841938 1.1298329 -0.10158323
2.8450935 1.1109188 -0.10144991
2.8518562 1.0934408 -0.10144991
2.8678648 1.0794442 -0.10178322
2.8753717 1.0621735 -0.10181654
2.8761976 1.0424659 -0.10161657
2.8646488 1.0184335 -0.1009833
2.853858 0.99491137 -0.10038337
2.8589633 0.97705829 -0.10035004
2.8639569 0.95918 -0.10031671
2.8697884 0.94158906 -0.10031671
2.8517253 0.91631383 -0.099483468
2.679976 0.84297884 -0.09328416
2.6726809 0.82269365 -0.092850879
2.6824632 0.8077209 -0.093017526
2.6777821 0.78842127 -0.092684232
2.6431928 0.76063436 -0.091317713
2.6516585 0.74548465 -0.091451034
2.6629291 0.73105407 -0.091684341
2.6692951 0.71521866 -0.091751002
2.6697657 0.69781482 -0.091617681
2.6749656 0.68166733 -0.091651008
2.6596992 0.66041958 -0.090984419
0.76657134 0.18488246 -0.025891678
0.77060986 0.18086289 -0.025991667
0.78826654 0.17992534 -0.026558271
0.7981357 0.1770401 -0.026858237
0.80116069 0.17256194 -0.026924897
0.79731375 0.16661677 -0.026758248
0.80125922 0.16231905 -0.026858237
0.80518192 0.15797916 -0.026958227
0.81497186 0.15472031 -0.027258193
0.81295723 0.14917336 -0.027158204
0.80992126 0.14348187 -0.027024886
0.8098014 0.1383405 -0.026991555
0.81457919 0.13402118 -0.027124874
0.81933445 0.1296484 -0.027258193
0.8211025 0.12476953 -0.027291523
0.82679707 0.12045327 -0.02745817
0.82455122 0.11496151 -0.027358182
0.87378025 0.11640264 -0.028991332
0.94189268 0.11964962 -0.031257749
0.96344411 0.11639939 -0.031957667
1.0028621 0.1149492 -0.033257525
1.0194454 0.11052729 -0.033790797
1.0310407 0.10539486 -0.034157425
1.0426108 0.10012424 -0.03452405
1.039224 0.093364812 -0.034390729
1.0606915 0.088749267 -0.035090651
1.0452735 0.080994047 -0.03455738
1.0567163 0.075367689 -0.034924004
1.0761075 0.070128694 -0.035557266
1.0735245 0.06334608 -0.03545728
1.0679048 0.056437753 -0.035257302
1.0911926 0.050970376 -0.036023881
1.093482 0.04435619 -0.036090542
1.0767534 0.037051339 -0.035523936
1.0889487 0.030789925 -0.035923894
1.0861197 0.024039542 -0.035823904
1.0832489 0.017325042 -0.035723913
1.0853335 0.010698924 -0.035790574
1.0893764 0.00405651 -0.035923894
1.1975092 -0.00050667208 -0.059424933
1.2304413 -0.0080769835 -0.061077245
1.2373593 -0.015716778 -0.061427735
1.2462265 -0.023479767 -0.061878365
1.2460591 -0.031126028 -0.061878365
1.2498375 -0.038896125 -0.062078644
1.2475793 -0.0464895 -0.061978504
1.2372925 -0.053708632 -0.061477803
1.2439224 -0.061646853 -0.061828293
1.2425236 -0.06922251 -0.061778225
1.2410785 -0.076783337 -0.061728153
1.2365984 -0.084125109 -0.061527874
1.2310789 -0.091340721 -0.061277524
1.22054 -0.098090805 -0.060776822
1.2129501 -0.10497392 -0.060426332
1.2063165 -0.11186003 -0.060125913
1.2115705 -0.11985078 -0.060426332
1.216772 -0.12791021 -0.060726754
1.2159642 -0.13537377 -0.060726754
1.2170944 -0.14306581 -0.060826894
1.2082644 -0.14954813 -0.060426332
1.1587951 -0.15064065 -0.057972904
3.7413986 -0.5336619 -0.1888559
3.6471717 -0.54307038 -0.18424946
3.6437712 -0.56543881 -0.18424946
3.6865735 -0.59527147 -0.18660274
3.6129186 -0.60614341 -0.18304777
3.4940107 -0.60825205 -0.17718959
3.5128188 -0.63375932 -0.17834119
3.5363531 -0.66043729 -0.17974316
3.5204668 -0.67985028 -0.17914231
3.5162292 -0.70143867 -0.17914231
3.5275104 -0.72622389 -0.17994343
3.5327578 -0.74992919 -0.18044414
3.5427246 -0.77479333 -0.18119518
3.5622625 -0.80200219 -0.18244694
3.6156533 -0.83736873 -0.18545114
3.7192638 -0.88545138 -0.19105898
3.6293588 -0.88760847 -0.18670289
13.029568 -3.3571565 -0.6739341
12.948828 -3.5063543 -0.67193133
12.821239 -3.6412523 -0.66757518
12.752044 -3.8766327 -0.66757518
5.129406 -1.5936463 -0.26866749
4.9262905 -1.5637403 -0.25850326
4.8947515 -1.586853 -0.25735167
4.8963003 -1.6206231 -0.25795251
4.8768024 -1.6474389 -0.2574518
4.8911514 -1.685794 -0.25875363
4.9410172 -1.7369752 -0.26195809
4.9359069 -1.7692823 -0.26225853
4.8001947 -1.7539415 -0.2555992
4.7996378 -1.787196 -0.25614998
4.7941842 -1.8187383 -0.25645041
4.7894554 -1.8506407 -0.25680089
4.725965 -1.8595126 -0.25399697
4.6931429 -1.8799329 -0.25284535
4.6620979 -1.900775 -0.25179389
4.6964717 -1.9484838 -0.25429741
4.8528094 -2.0483458 -0.26346019
6.0698924 -2.6061287 -0.33055401
6.1151109 -2.6701028 -0.33390871
6.0922227 -2.7047372 -0.3335582
6.106463 -2.7560377 -0.3352606
6.1166701 -2.8059485 -0.3367627
6.0305429 -2.8113527 -0.33295736
7.5945206 -3.597414 -0.42068002
7.6748991 -3.6933196 -0.426388
7.6996479 -3.7635889 -0.42904171
7.741714 -3.8431828 -0.43269682
7.7581186 -3.9108448 -0.43494996
7.764204 -3.973846 -0.43665233
7.7990532 -4.0522652 -0.44000703
7.8208628 -4.1247382 -0.44266075
7.8579235 -4.2061138 -0.44621572
7.9039321 -4.2933431 -0.45032147
7.9124269 -4.3610444 -0.45232427
7.9238734 -4.4309611 -0.45452735
7.9425769 -4.5056167 -0.45718104
7.9727807 -4.5876417 -0.46053573
7.9876103 -4.6616473 -0.46303925
8.0044079 -4.7375331 -0.46569294
8.0462646 -4.8292189 -0.46984875
8.0642595 -4.9075756 -0.47265267
8.0943422 -4.9942007 -0.47620764
8.1414452 -5.0925021 -0.4808141
8.1834269 -5.1888924 -0.48517019
8.1993237 -5.2697883 -0.48802418
8.2120237 -5.3494372 -0.49072796
8.2382221 -5.4387946 -0.49428293
8.2802334 -5.5397811 -0.49883929
8.3229656 -5.6426072 -0.50349581
8.3466339 -5.7337222 -0.50705075
8.4154005 -5.8572903 -0.51340967
8.4731655 -5.9750094 -0.51916772
8.7849741 -6.2759585 -0.54064775
8.7681456 -6.3455539 -0.54199964
8.7266283 -6.3974633 -0.54184943
8.8050795 -6.5384192 -0.54920971
8.924428 -6.7123938 -0.55922371
8.9641085 -6.8287621 -0.56433088
8.9418077 -6.8988881 -0.56558263
8.9300003 -6.9776077 -0.56753534
9.0240774 -7.1407275 -0.57629758
8.9933414 -7.2065816 -0.5771488
8.9334431 -7.2490411 -0.57614738
9.1442118 -7.513598 -0.59272057
9.1017761 -7.5727577 -0.59297091
9.0849276 -7.6535597 -0.59492362
9.0362759 -7.7078633 -0.59482348
9.1248655 -7.8806705 -0.60383612
9.119194 -7.9739861 -0.60669011
9.1299171 -8.0827541 -0.61069566
9.1627026 -8.2126169 -0.61625344
9.2090273 -8.3566074 -0.62281263
9.253191 -8.5007963 -0.62932169
9.266675 -8.6186304 -0.63382804
9.3954 -8.8464966 -0.6463455
9.505043 -9.0604086 -0.65771139
9.5103579 -9.1775122 -0.66196734
9.6196079 -9.3976154 -0.67358363
9.6533689 -9.547061 -0.68004262
9.6884766 -9.700099 -0.68670195
9.7346926 -9.8667202 -0.6942625
9.6676941 -9.9198284 -0.69381189
9.5969486 -9.9688873 -0.69311088
9.5528059 -10.04568 -0.69436264
9.5197048 -10.134681 -0.69646561
9.4457922 -10.180455 -0.6956144
9.3898964 -10.245584 -0.69611514
9.3235025 -10.299305 -0.69586474
9.2501459 -10.345151 -0.69511372
9.1712894 -10.384497 -0.6939621
9.0745726 -10.402942 -0.69145858
8.8886671 -10.316932 -0.68209553
8.6277914 -10.13928 -0.66682416
8.5390701 -10.160679 -0.66477126
8.4427595 -10.172151 -0.6621176
8.1516285 -9.9449148 -0.64404231
7.9710636 -9.8472481 -0.63452899
7.8618512 -9.8351212 -0.63062352
7.7407146 -9.8063478 -0.62571669
7.6404896 -9.8024569 -0.62246215
7.5649705 -9.8293667 -0.6212104
7.5256658 -9.9034309 -0.62296283
7.4527702 -9.933444 -0.62196141
7.3488789 -9.9212008 -0.61835641
7.275485 -9.9491758 -0.61730492
7.1879954 -9.9571896 -0.61505175
7.1001034 -9.9636917 -0.61274856
7.0192981 -9.9792938 -0.6110462
6.9311643 -9.9836159 -0.60869288
6.8725982 -10.030077 -0.60894322
6.8243523 -10.091914 -0.61014491
6.7689538 -10.143566 -0.61074573
6.721416 -10.207431 -0.61209762
6.6929379 -10.301244 -0.61525208
6.6915865 -10.438812 -0.62101012
6.6551676 -10.523569 -0.62361372
6.610558 -10.596407 -0.62551641
6.5605941 -10.661437 -0.62696844
6.5442801 -10.782602 -0.63172507
6.4836388 -10.831981 -0.63227588
6.462234 -10.948109 -0.6367321
6.4672785 -11.111855 -0.64394218
6.4362555 -11.216298 -0.64769739
6.3997674 -11.312953 -0.65100205
6.5364666 -11.721864 -0.67223173
6.5269547 -11.875535 -0.6787408
6.4815531 -11.966295 -0.68164486
6.4724331 -12.126552 -0.68850446
6.4490376 -12.263274 -0.69401217
6.4595804 -12.468449 -0.70337528
6.563632 -12.861914 -0.72330314
6.6563635 -13.243728 -0.74247992
6.8908453 -13.922538 -0.77817982
7.1334229 -14.63792 -0.81573236
7.4197402 -15.465737 -0.85934335
7.7025504 -16.311136 -0.90370536
7.640625 -16.440512 -0.90826172
7.4980693 -16.396255 -0.90325469
7.3780632 -16.399145 -0.90090144
7.2429471 -16.366476 -0.89664549
7.1101046 -16.336432 -0.89258981
7.0435247 -16.458717 -0.89689583
6.97997 -16.590923 -0.90175259
6.9440618 -16.79311 -0.91041476
6.8747272 -16.918676 -0.91492105
7.1225529 -17.841732 -0.96248752
7.0359125 -17.943678 -0.96564192
6.9759212 -18.116999 -0.97265172
6.9006467 -18.254753 -0.97775888
6.8347125 -18.421289 -0.98441821
6.8083329 -18.701256 -0.997136
6.6951351 -18.747381 -0.99738634
6.5971432 -18.837126 -0.99998999
6.4117079 -18.674156 -0.98922491
6.2861748 -18.680962 -0.98752254
6.1010737 -18.505762 -0.97625679
6.0675054 -18.790913 -0.98932505
5.9689498 -18.881115 -0.99212897
5.8600702 -18.940285 -0.99333066
5.7469273 -18.986401 -0.9938814
5.6334386 -19.031839 -0.99443221
5.5148897 -19.060291 -0.9941318
5.4241881 -19.186995 -0.99898857
5.3108749 -19.236282 -0.99983978
5.2319841 -19.414124 -1.0074003
5.1076837 -19.426542 -1.0063989
4.9625945 -19.356901 -1.0011916
4.7875676 -19.162188 -0.98957539
4.6354256 -19.04952 -0.98226517
4.476562 -18.900724 -0.97315246
4.3040061 -18.682577 -0.96053481
4.1781611 -18.658928 -0.95798123
4.06041 -18.669575 -0.95723021
3.9501104 -18.714659 -0.95828164
3.8426144 -18.774748 -0.96013427
3.7568672 -18.946882 -0.96774489
3.4848769 -18.158417 -0.926337
3.3633721 -18.125448 -0.92358315
3.2543833 -18.158522 -0.92423403
3.1447749 -18.188976 -0.92478484
3.0362282 -18.226648 -0.92573613
2.9274955 -18.264658 -0.92673755
2.8155224 -18.283262 -0.92678761
2.7038693 -18.304148 -0.92698789
2.5958421 -18.351049 -0.92854005
2.4880104 -18.402264 -0.93034261
2.3786256 -18.444918 -0.93174458
2.2692978 -18.490889 -0.93334681
2.1577616 -18.521328 -0.93419796
2.0462656 -18.554073 -0.93519938
1.934139 -18.583168 -0.93605059
1.8218294 -18.612577 -0.93695182
1.7091405 -18.640314 -0.93780303
1.5957545 -18.662392 -0.93840384
1.4833463 -18.698713 -0.93975574
1.3762354 -18.812052 -0.94501311
1.2625831 -18.847048 -0.946365
1.1486742 -18.88335 -0.94781703
1.0337132 -18.906996 -0.94866818
0.91947311 -18.949892 -0.95052081
0.80525273 -19.004072 -0.95297426
0.68960667 -19.035604 -0.95432609
0.57324374 -19.054453 -0.95507717
0.45717725 -19.093555 -0.95687968
0.33999506 -19.095003 -0.95682961
0.21445428 -18.378679 -0.9208293
0.089299373 -16.136501 -0.80837208
-0.0096272212 -15.995922 -0.80131221
-0.10762107 -15.972591 -0.80016059
-0.20364277 -15.817836 -0.79244977
-0.29699054 -15.621569 -0.78268617
-0.35482174 -14.108828 -0.70693022
-0.43963513 -14.050482 -0.7041263
-0.5238207 -13.993627 -0.70142251
-0.6071946 -13.933273 -0.69856852
-0.69193184 -13.914323 -0.6978175
-0.77857751 -13.932752 -0.69896913
-0.8655991 -13.952632 -0.70022082
-0.95221412 -13.962005 -0.7009719
-1.040903 -13.996735 -0.70302474
-1.1327003 -14.063753 -0.70672995
-1.3274553 -15.307265 -0.76966792
-1.4179349 -15.262038 -0.76781535
-1.5065304 -15.202362 -0.76526177
-1.5924599 -15.123305 -0.7617569
-1.6798006 -15.064612 -0.75930345
-1.7723205 -15.055014 -0.75935352
-1.8351747 -14.805976 -0.74733675
-1.9032931 -14.62013 -0.73852438
-1.9685258 -14.429062 -0.72946173
-2.0464418 -14.342558 -0.72570646
-2.1204278 -14.235885 -0.72094983
-2.1930294 -14.127863 -0.71614313
-2.2605629 -13.995825 -0.71013469
-2.3273861 -13.868419 -0.70437664
-2.3833072 -13.686607 -0.69586474
-2.4312317 -13.472205 -0.68570054
-2.4991767 -13.378492 -0.68169492
-2.5421948 -13.160899 -0.67138052
-2.5924108 -12.992261 -0.66356963
-2.6638212 -12.936003 -0.66151673
-2.729038 -12.852981 -0.65811199
-2.8003805 -12.801846 -0.65635955
-2.8626409 -12.71232 -0.65265435
-2.9385595 -12.68576 -0.65220374
-2.899271 -12.175872 -0.62686831
-2.8970332 -11.843528 -0.61064559
-2.9044521 -11.565928 -0.59722686
-2.9621563 -11.496629 -0.59457314
-3.0127413 -11.40292 -0.59066767
-3.0205195 -11.154781 -0.57875103
-3.0766261 -11.091767 -0.57644778
-3.1154287 -10.96988 -0.57109028
-3.1723661 -10.915073 -0.56923771
-3.2150853 -10.81403 -0.56498176
-3.2674341 -10.748232 -0.56257838
-3.3321369 -10.724167 -0.56237811
-3.3906231 -10.680673 -0.56117642
-3.4597917 -10.671068 -0.56177729
-3.5361881 -10.682823 -0.56352973
-3.6157365 -10.702558 -0.56573284
-3.6956592 -10.721715 -0.56793588
-3.7676711 -10.71674 -0.56888723
-3.8461647 -10.729145 -0.57078987
-3.9232376 -10.7363 -0.57244217
-4.0336561 -10.831827 -0.57885116
-4.1301584 -10.886245 -0.58310711
-4.2289186 -10.943611 -0.58756334
-4.3139081 -10.962996 -0.59001678
-4.3996658 -10.982676 -0.5925203
-4.511847 -11.065526 -0.59847862
-4.616405 -11.126192 -0.60328531
-4.7412972 -11.231995 -0.61059552
-4.8479562 -11.290792 -0.61540228
-4.9467206 -11.328564 -0.61910743
-5.0753117 -11.431269 -0.62641764
-5.1712432 -11.457262 -0.62957209
-5.3259888 -11.609593 -0.63973629
-5.4291983 -11.64549 -0.64354163
-5.4813104 -11.571342 -0.64128846
-5.6284342 -11.695883 -0.65010077
-5.5246449 -11.302216 -0.63007277
-5.5992193 -11.278839 -0.63067359
-5.7960057 -11.497549 -0.64489347
-5.8987532 -11.524892 -0.64844847
-6.0393548 -11.62319 -0.65605909
-6.5243115 -12.370375 -0.70052129
-7.0101643 -13.096166 -0.74408215
-7.0994473 -13.06958 -0.7450335
-6.9813566 -12.666282 -0.72445476
-7.003859 -12.524704 -0.71879685
-7.0968404 -12.510159 -0.72044915
-7.1804414 -12.478498 -0.7211501
-7.0867109 -12.142653 -0.70422643
-7.1158071 -12.022449 -0.69977021
-7.1745362 -11.953727 -0.69831818
-7.244113 -11.903507 -0.69796771
-7.3600202 -11.928532 -0.70207345
-7.5639005 -12.092289 -0.7144407
-7.6443725 -12.055772 -0.71504158
-7.487617 -11.649888 -0.69366169
-7.440659 -11.422132 -0.68279648
-7.4918942 -11.347924 -0.68109411
-7.5375013 -11.266047 -0.67894107
-7.5818262 -11.183213 -0.67673802
-7.6367297 -11.116724 -0.67553633
-7.6899614 -11.048345 -0.67423451
-7.7530041 -10.994422 -0.67383397
-7.7965145 -10.913324 -0.67178106
-7.8486915 -10.845054 -0.67052937
-7.9091825 -10.788635 -0.67002863
-7.970468 -10.733488 -0.66962808
-8.0469837 -10.698748 -0.67052937
-8.1257944 -10.666649 -0.67163086
-8.2020712 -10.630822 -0.67253214
-8.2739115 -10.588952 -0.67308289
-8.3523626 -10.555215 -0.67418444
-8.4082279 -10.492856 -0.67348349
-8.4963665 -10.470536 -0.67538613
-8.5851822 -10.448301 -0.67733884
-8.6612663 -10.410013 -0.67829019
-8.741066 -10.375769 -0.67954195
-8.8259554 -10.347014 -0.68119425
-8.9349747 -10.345574 -0.68469918
-9.0502234 -10.349951 -0.68865466
-9.1605644 -10.347318 -0.69220966
-9.2805452 -10.35413 -0.69646561
-9.3694067 -10.325096 -0.69836825
-9.4758282 -10.314483 -0.70157272
-9.6021976 -10.324159 -0.70622927
-9.7043905 -10.306492 -0.70908326
-9.8301573 -10.312538 -0.71363962
-9.9293137 -10.289399 -0.71624327
-10.087181 -10.325438 -0.7230528
-10.27887 -10.3933 -0.73221558
-10.44138 -10.428844 -0.73922539
-10.510861 -10.370193 -0.73962593
-10.608626 -10.338963 -0.74202931
-10.685536 -10.286836 -0.74298066
-10.778128 -10.249294 -0.7450335
-10.888132 -10.227413 -0.74828804
-11.000468 -10.206604 -0.75169283
-11.075404 -10.150386 -0.75254399
-11.14266 -10.086929 -0.75289452
-11.284008 -10.0896 -0.75825197
-11.345704 -10.020172 -0.75825197
-11.418262 -9.9602156 -0.75900304
-11.490513 -9.899745 -0.75975406
-11.595158 -9.8665934 -0.76265812
-11.697533 -9.8306017 -0.76541197
-11.852161 -9.8370981 -0.77157062
-11.981044 -9.8205366 -0.77602684
-12.069799 -9.7700872 -0.77787942
-12.201293 -9.7532148 -0.78248584
-12.270316 -9.6855917 -0.78308672
-12.338967 -9.6174879 -0.78368753
-12.499849 -9.6201735 -0.79014659
-12.576931 -9.5571938 -0.79129821
-4.9219189 -3.6929169 -0.3078723
-4.9661551 -3.6786973 -0.30922419
-4.9846025 -3.6452086 -0.30897385
-5.0303597 -3.6315076 -0.31042588
-5.0598679 -3.6057897 -0.31087649
-5.0696435 -3.5660565 -0.31012544
-5.0938902 -3.5365911 -0.31027564
-13.426206 -9.1995268 -0.81533182
-13.520458 -9.1427069 -0.817635
-13.60621 -9.0795326 -0.8194375
-13.735069 -9.0442095 -0.82384372
-13.824643 -8.9820709 -0.82589656
-5.4282961 -3.4798298 -0.32264295
-5.418313 -3.4267061 -0.32079035
-5.3960204 -3.366436 -0.3182368
-5.4038157 -3.325412 -0.31748575
-5.438633 -3.3010013 -0.31833693
-5.439075 -3.2557712 -0.31718531
-5.0951271 -3.0075951 -0.2960057
-5.0780945 -2.955678 -0.29395282
-5.0788093 -2.9145222 -0.29295143
-5.1044207 -2.8877301 -0.29340208
-5.0827899 -2.8344676 -0.2911489
-5.1298451 -2.8195825 -0.2928513
-5.1584659 -2.7942367 -0.29350221
-5.1966605 -2.7738185 -0.29470387
-15.907899 -8.3656034 -0.90045083
-16.016573 -8.297698 -0.90370536
-16.285139 -8.3104877 -0.91597247
-16.45005 -8.2678146 -0.92238146
-16.657116 -8.2442513 -0.9311437
-16.96596 -8.2678938 -0.94556385
-17.245995 -8.2737961 -0.9583317
-17.631495 -8.3260384 -0.97690767
-17.886942 -8.3128233 -0.98822349
-18.597027 -8.5044565 -1.0245743
-19.195347 -8.6360464 -1.0546163
-19.642527 -8.6927061 -1.0762466
-20.444599 -8.8980389 -1.1172038
-20.737545 -8.874588 -1.1302221
-21.211399 -8.9237823 -1.153054
-21.606325 -8.9342871 -1.1715298
-8.4486599 -3.4331496 -0.45658022
-22.046408 -8.8010311 -1.1894549
-22.139046 -8.6809034 -1.1915578
-20.62606 -7.9419975 -1.1074402
-22.335463 -8.4431782 -1.1964647
-22.391529 -8.3077078 -1.196715
-21.758862 -7.9214368 -1.160264
-22.456991 -8.0198755 -1.1948624
-22.494467 -7.8779702 -1.1942616
-22.520655 -7.7323394 -1.19311
-22.504253 -7.572669 -1.1897553
-22.511404 -7.4216218 -1.1877024
-22.553669 -7.2824345 -1.1875522
-22.601736 -7.1451144 -1.1877525
-22.610804 -6.9956717 -1.1859499
-22.573963 -6.832788 -1.1817942
-22.559917 -6.6777077 -1.1788901
-22.659948 -6.5563664 -1.1819944
-22.712244 -6.4207368 -1.1826453
-22.627985 -6.2472348 -1.1762364
-22.679392 -6.1119132 -1.1769373
-22.722263 -5.9741635 -1.1772377
-22.752687 -5.8331418 -1.1769373
-22.68321 -5.3723812 -1.1680249
-22.778036 -5.247447 -1.1712294
-22.78739 -5.1025658 -1.1700778
-22.806559 -4.9601021 -1.169477
-22.808224 -4.8140893 -1.1680249
-22.683714 -4.642611 -1.1601639
-22.611847 -4.4835258 -1.1550567
-22.62422 -4.3418746 -1.1543057
-22.671057 -4.2067995 -1.1553572
-22.722982 -4.0723701 -1.1567091
-22.731796 -3.9301455 -1.155908
-22.700315 -3.7814023 -1.1531041
-22.729008 -3.642993 -1.1534045
-22.737112 -3.5013337 -1.1527035
-22.694935 -3.3524156 -1.1494989
-22.646843 -3.2034478 -1.1460441
-22.607679 -3.0565348 -1.14309
-22.605206 -2.915077 -1.1420386
-22.638529 -2.7782655 -1.1428397
-22.527176 -2.6243982 -1.1363807
-22.537889 -2.4855773 -1.1361303
-22.498083 -2.3415549 -1.1333765
-22.494135 -2.201714 -1.1324751
-22.477385 -2.0609157 -1.1309731
-22.48065 -1.9221927 -1.1305225
-13.001781 -1.0314864 -0.65325516
-12.672185 -0.92713624 -0.63638157
-12.224222 -0.8189947 -0.61359972
-11.862157 -0.72166127 -0.59517395
-11.472445 -0.62733084 -0.5753963
-11.202743 -0.54366618 -0.56167716
-10.947424 -0.46396947 -0.54870903
-10.752443 -0.38963169 -0.53879517
-10.601893 -0.31905538 -0.53113443
-10.388983 -0.24885994 -0.52036941
-10.417275 -0.1855894 -0.5217213
-10.421214 -0.12170163 -0.52187151
-10.358845 -0.057408676 -0.51871711
-10.341024 0.0061419983 -0.51781583
-10.339159 0.1964854 -0.51781583
-10.266366 0.44733444 -0.5145613
-10.286371 0.51146054 -0.51571286
-10.322927 0.57679647 -0.51771569
-10.351091 0.6421054 -0.51931792
-10.388807 0.70846134 -0.52142084
-10.43008 0.77560049 -0.52372408
-10.446031 0.84126776 -0.52477556
-10.486443 0.90931749 -0.52707875
-10.497572 0.97521484 -0.52792996
-10.534126 1.0438442 -0.530083
-10.658633 1.1222684 -0.5366922
-10.828228 1.2073513 -0.54560471
-10.70258 1.259872 -0.53964633
-21.260405 2.6352913 -1.0733926
-21.218084 2.7623405 -1.0720907
-21.184902 2.8903196 -1.0712897
-21.154905 3.0185602 -1.0706888
-21.13302 3.147866 -1.0705386
-21.098505 3.2751787 -1.0697875
-21.036602 3.3978858 -1.0676847
-20.935574 3.5135095 -1.0636289
-20.87623 3.6353903 -1.0617263
-9.8523083 1.7779119 -0.50129271
-20.690638 3.8652546 -1.0546163
-20.589062 3.9771721 -1.0506608
-20.575045 4.1055794 -1.0512116
-20.543596 4.2305393 -1.0509112
-20.537769 4.3608694 -1.0519626
-20.49111 4.4825354 -1.0509613
-20.450554 4.60533 -1.0503104
-20.395641 4.7246394 -1.0489584
-20.32546 4.8399787 -1.0468554
-20.278889 4.9605675 -1.0460043
-20.215136 5.076632 -1.0443019
-20.144918 5.1906056 -1.0422992
-19.994886 5.2829871 -1.0361906
-19.938957 5.3993092 -1.0349889
-19.861181 5.5092697 -1.0326856
-19.790495 5.6206627 -1.0307831
-19.707682 5.7280512 -1.0282795
-19.644403 5.8406129 -1.0268275
-19.585262 5.9540668 -1.0256258
-19.535007 6.0699782 -1.0249249
-19.502155 6.1912394 -1.0251752
-19.446697 6.3052411 -1.0242739
-19.388681 6.4181676 -1.0232725
-19.320549 6.5274229 -1.0217704
-19.265024 6.6406407 -1.0209693
-19.214495 6.7554111 -1.0204686
-19.16328 6.8698115 -1.0199679
-19.093563 6.977324 -1.0185158
-14.675769 5.4651861 -0.78448868
-18.948608 7.1891403 -1.0154115
-18.892962 7.300951 -1.0148107
-18.838514 7.4130812 -1.01431
-18.753735 7.5129328 -1.012207
-18.652718 7.6056132 -1.0092529
-18.569723 7.7049928 -1.0073001
-18.499094 7.8090787 -1.0060484
-18.427887 7.9125881 -1.0047967
-18.366175 8.0199146 -1.0040957
-18.310232 8.1296206 -1.0037452
-18.255453 8.2397623 -1.0034949
-18.131021 8.3178864 -0.99943918
-18.019899 8.4011259 -0.99613458
-17.966206 8.5106802 -0.99603444
-17.917248 8.6224909 -0.99623471
-17.863106 8.7318287 -0.99618465
-17.797564 8.8354969 -0.99553376
-17.725178 8.9355421 -0.99453235
-15.847461 8.1112585 -0.8918888
-15.816004 8.2180147 -0.89294028
-15.689309 8.2748346 -0.88863426
-15.558112 8.3280544 -0.88407791
-15.536559 8.4395695 -0.88578027
-17.308178 9.539957 -0.99017626
-17.275467 9.6606035 -0.99167836
-17.217602 9.7674074 -0.99177849
-11.035457 6.3500481 -0.63768339
-17.103346 9.981986 -0.99217904
-16.997082 10.060288 -0.98957539
-16.168613 9.7043743 -0.94476277
-16.108765 9.8034 -0.94476277
-15.973511 9.8559046 -0.94035661
-16.51222 10.328732 -0.97580618
-16.532038 10.482803 -0.98076308
-13.558747 8.7145233 -0.80742073
-13.44979 8.7615738 -0.80411613
-13.332432 8.8021145 -0.80031079
-13.227537 8.8498764 -0.79725653
-13.109334 8.8877163 -0.79340112
-12.906375 8.8661909 -0.78438854
-12.859928 8.950922 -0.78488922
-7.1974378 5.0753636 -0.44090828
-7.1750994 5.1258168 -0.44145906
-7.1499853 5.1744304 -0.44185963
-7.0101676 5.1390753 -0.43515024
-5.0148134 3.7237442 -0.31252882
-4.9775038 3.7436376 -0.31162754
-4.8678427 3.7081375 -0.30616993
-4.8347187 3.7300045 -0.30551901
-4.6283746 3.6163177 -0.29385269
-4.5614567 3.6093223 -0.2909987
-4.4901237 3.5978959 -0.2878443
-4.3632669 3.5404198 -0.28108484
-4.2990203 3.5322518 -0.27833098
-4.2511625 3.5368443 -0.27662861
-4.1934819 3.5326183 -0.27427533
-4.1215773 3.5155034 -0.2709707
-4.0734739 3.5178778 -0.26921827
-4.0367751 3.5296571 -0.26821685
-3.9881213 3.5305262 -0.26641434
-3.9916694 3.5775955 -0.26811671
-3.8653579 3.5073853 -0.26105684
-3.8378804 3.5256312 -0.26065627
-3.7942357 3.5287077 -0.25915417
-3.6954367 3.479347 -0.25384676
-3.6002812 3.4316657 -0.24873962
-3.5310061 3.4072247 -0.24538493
-3.4543097 3.374387 -0.24147947
-3.4058459 3.3681285 -0.23952673
-3.3582954 3.3621101 -0.23762408
-3.292711 3.3371508 -0.2344196
-3.2533517 3.3379796 -0.23306771
-3.2044103 3.3283782 -0.23101483
-3.1453867 3.3074467 -0.22821091
-3.1687949 3.3732746 -0.23141541
-3.1419234 3.386065 -0.23096476
-3.1123154 3.3957076 -0.23031385
-3.0954428 3.419183 -0.23061427
-3.0764019 3.4403455 -0.23076449
-3.0539122 3.4576602 -0.23066434
-3.0483954 3.4943969 -0.23186603
-3.0223334 3.5077393 -0.23151554
-2.9891033 3.5125263 -0.23061427
-2.9797032 3.5453284 -0.23156561
-2.9693747 3.5773785 -0.23246686
-2.9638295 3.6156139 -0.23376869
-2.9503858 3.6445997 -0.23446967
-2.9404395 3.6782372 -0.23547107
-2.9369977 3.7205129 -0.23702323
-2.8975363 3.717195 -0.23567136
-2.8655365 3.7230318 -0.23492029
-2.8535154 3.7548578 -0.23582156
-2.835217 3.7786875 -0.23622212
-2.7965224 3.775146 -0.23492029
-2.7621047 3.7769165 -0.23396897
-2.7336171 3.7865052 -0.23351833
-2.7068546 3.7983267 -0.23321792
-2.6817739 3.8124135 -0.23306771
-2.6543438 3.8230538 -0.23271722
-2.6161587 3.817847 -0.23141541
-2.5876486 3.8263814 -0.23096476
-2.5624585 3.8396947 -0.23081456
-2.5355549 3.8503401 -0.23051414
-2.5042641 3.8541005 -0.22981316
-2.4546976 3.8290341 -0.22740979
-2.4290218 3.840647 -0.22720952
-2.3948381 3.8385315 -0.22620812
-2.3607719 3.8361413 -0.22520672
-2.3345985 3.8462856 -0.22495636
-2.3078766 3.855396 -0.22465594
-2.303468 3.9021683 -0.22655861
-2.2955575 3.943851 -0.22816084
-2.2688298 3.9535306 -0.2279105
-2.2435451 3.9656389 -0.22781035
-2.2196567 3.9802029 -0.22786044
-2.1773944 3.9613626 -0.22600783
-2.1478148 3.964988 -0.22545707
-2.1225049 3.9763298 -0.22535692
-2.0966723 3.9866264 -0.22520672
-2.0717118 3.9985297 -0.22515665
-2.05077 4.0182829 -0.22555721
-2.0197968 4.0182972 -0.22485623
-1.998204 4.0368805 -0.22520672
-1.9742715 4.0508609 -0.22530685
-1.9493788 4.0628986 -0.22530685
-1.9256921 4.0774927 -0.22545707
-1.9107387 4.1109691 -0.22665875
-1.9041688 4.1634884 -0.22891189
-1.8794059 4.1769156 -0.22901204
-1.8561665 4.1938486 -0.22931246
-1.8264129 4.1960011 -0.22881176
-1.797096 4.1988649 -0.22836113
-1.7651018 4.1950831 -0.22756001
-1.7355118 4.1966052 -0.2270593
-1.7146167 4.2192035 -0.22771022
-1.6986934 4.2546892 -0.22906211
-1.6725551 4.2650323 -0.22906211
-1.6442007 4.2696218 -0.22876169
-1.6151466 4.2721567 -0.22836113
-1.5927243 4.2922869 -0.22891189
-1.5673822 4.3047943 -0.22906211
-1.5369083 4.3030438 -0.22846127
-1.5111367 4.3142781 -0.2285614
-1.4869065 4.3300815 -0.22891189
-1.4622208 4.3448029 -0.22921231
-1.4314688 4.341362 -0.2285614
-1.4075658 4.3586178 -0.22901204
-1.3856119 4.3824091 -0.22981316
-1.3595815 4.3936911 -0.22996336
-1.3343327 4.4076862 -0.23026378
-1.3089633 4.4215364 -0.23056421
-1.2759794 4.4093375 -0.22951274
-1.2489003 4.4170837 -0.22951274
-1.2369237 4.4795394 -0.23236673
-1.2094145 4.4870443 -0.23236673
-1.1823677 4.4963126 -0.23246686
-1.1584768 4.5179949 -0.23321792
-1.1319436 4.5298629 -0.23346826
-1.1053082 4.5415754 -0.23371862
-1.0813336 4.5647936 -0.2345698
-1.0557704 4.5820484 -0.23512058
-1.0311272 4.6040339 -0.2359217
-1.0039192 4.6151538 -0.23617205
-0.97640729 4.6251359 -0.23637232
-0.95481813 4.6643076 -0.23807471
-0.92967677 4.6877127 -0.23897597
-0.90070784 4.692348 -0.2389259
-0.8720814 4.6987681 -0.23897597
-0.8420006 4.6971488 -0.23862548
-0.83477151 4.8272138 -0.24498437
-0.80513656 4.8322453 -0.24498437
-0.77894843 4.8587899 -0.24608591
-0.7486648 4.8605165 -0.24593569
-0.72028655 4.8748989 -0.2464364
-0.69497693 4.9118605 -0.24808872
-0.67031115 4.9566121 -0.25014159
-0.64141804 4.9725184 -0.25074241
-0.61527443 5.0120473 -0.25254494
-0.58809191 5.0464816 -0.2540971
-0.56105715 5.0857329 -0.25589964
-0.5306682 5.0970268 -0.25630018
-0.49986982 5.1051569 -0.25655055
-0.46981227 5.1220522 -0.25725153
-0.4384602 5.125834 -0.2573016
-0.40715834 5.1304188 -0.25740173
-0.37924111 5.1816287 -0.25985515
-0.34990966 5.2207289 -0.26170775
-0.31780866 5.2217808 -0.26165769
-0.29175869 5.3333306 -0.26716539
-0.26144806 5.3848991 -0.26966888
-0.23047322 5.4352965 -0.27212232
-0.20152833 5.5583758 -0.27823085
-0.17159191 5.6982708 -0.28519058
-0.13801067 5.7571273 -0.28809464
-0.10678745 5.9885392 -0.2996608
-0.07077381 6.0519986 -0.30281523
-0.034305148 6.1731653 -0.30887368
0.0040048216 6.8733802 -0.34397277
0.047338933 7.0450063 -0.35258481
0.091183223 7.0925193 -0.35498816
0.13679029 7.2016683 -0.36049587
0.18250899 7.2615972 -0.36355013
0.23109335 7.3891158 -0.37000918
0.28027749 7.4903579 -0.37516639
0.33045164 7.5852828 -0.38002318
0.38041168 7.6519408 -0.38347802
0.43566129 7.7980447 -0.39093843
0.48325354 7.7912364 -0.39073816
0.54036295 7.9246359 -0.39759773
0.59075552 7.945075 -0.39879942
0.64206076 7.9731569 -0.40040165
0.70322603 8.1103592 -0.40751159
0.75778216 8.1576042 -0.41011524
0.81934726 8.269083 -0.41597342
0.88984007 8.4516258 -0.42543668
0.94323123 8.4599028 -0.42613766
0.99757493 8.4747858 -0.42718911
1.1714416 9.4517345 -0.47685856
1.2279959 9.4334755 -0.47630778
1.3156952 9.6444588 -0.48737326
1.3972812 9.7934132 -0.49533439
1.4301224 9.601903 -0.48607144
1.4176141 9.1330414 -0.46273881
1.4551518 9.009799 -0.4569307
1.5385108 9.1681452 -0.4654426
1.5585808 8.950922 -0.45487782
1.6026525 8.8812361 -0.45182356
1.6549156 8.8594532 -0.45122272
1.7079191 8.842268 -0.45087224
1.7672237 8.8570871 -0.45217404
1.8992982 9.2236691 -0.47150108
1.9556504 9.2108641 -0.47145101
1.9993237 9.140151 -0.46844679
2.00139 8.8880234 -0.45612958
2.0466466 8.8356829 -0.45407671
2.0358088 8.5499458 -0.44000703
2.0896559 8.5431147 -0.44030747
2.1442256 8.5388498 -0.44075808
2.1360202 8.290513 -0.42859107
2.1541915 8.1536531 -0.42218211
2.8289003 10.447188 -0.54199964
2.8796012 10.381514 -0.53949612
2.9132309 10.257967 -0.53398842
2.9641311 10.19866 -0.53183544
2.9953425 10.074975 -0.52632773
3.023406 9.9455605 -0.52051961
3.0618498 9.8543367 -0.51671427
3.0989869 9.7620659 -0.51285887
3.1320274 9.6602125 -0.50850278
3.1677017 9.5697021 -0.50474757
3.1975892 9.4649277 -0.50024128
3.2360754 9.3884754 -0.49723706
1.9804599 5.6335382 -0.29875955
2.011282 5.6109385 -0.29820877
2.0504713 5.6116252 -0.29890975
2.0862594 5.6026816 -0.29911005
2.1181176 5.5832386 -0.29875955
2.1271343 5.5049253 -0.29525465
2.1440485 5.4490185 -0.29295143
2.1585 5.3884773 -0.29039785
2.1613541 5.301146 -0.28639227
2.1153724 5.0986753 -0.2761279
2.115932 5.0129104 -0.27217239
2.0977869 4.8860359 -0.2659637
2.0897572 4.7861199 -0.26120704
2.0595067 4.6390238 -0.25384676
2.0567048 4.557116 -0.25004146
2.0458965 4.4599876 -0.24538493
2.0436819 4.3839865 -0.24188003
2.0136755 4.2513194 -0.23522072
0.8465181 1.7595174 -0.097277857
0.85115767 1.7417282 -0.096576877
0.85960811 1.732 -0.09632653
0.86752176 1.7213418 -0.096026108
0.88170779 1.7230989 -0.096426666
0.89134294 1.715884 -0.09632653
0.90185463 1.7103825 -0.09632653
0.9194026 1.7180245 -0.097077578
0.93135709 1.7149837 -0.097227789
0.9466837 1.7179835 -0.097728483
0.96061957 1.7182442 -0.098078974
0.9755798 1.7201358 -0.098529607
0.98163265 1.7063266 -0.098078974
2.2567217 3.86707 -0.22385482
2.2656541 3.8282254 -0.2224028
2.3050346 3.8407979 -0.22395496
2.3342695 3.8359671 -0.22450574
1.080713 1.751909 -0.10258528
1.0930312 1.747785 -0.10273549
1.0957121 1.7283934 -0.10198443
1.0900964 1.6964328 -0.10048234
1.0977591 1.685528 -0.10023199
1.1014773 1.6687587 -0.099631146
1.106142 1.6536679 -0.099130444
1.1140261 1.6435431 -0.098930165
1.120131 1.6309141 -0.098579675
1.1249819 1.6166329 -0.098129049
1.1348802 1.6096998 -0.098129049
1.1470581 1.6059567 -0.098329328
1.1890963 1.6433876 -0.10108317
1.2091963 1.6497535 -0.10193437
1.2204872 1.6439066 -0.10203451
2.3654671 2.9153593 -0.18760414
2.3757021 2.8915303 -0.1870033
2.3991485 2.8838086 -0.18745394
2.3801191 2.8254962 -0.18459995
2.2364626 2.5579116 -0.16972916
2.1435401 2.4215035 -0.16151768
2.161691 2.4120238 -0.16176802
2.1194005 2.3358481 -0.15751207
2.1140978 2.3014708 -0.15606004
2.1336212 2.294306 -0.1564606
2.1325958 2.2651744 -0.15535906
2.1471436 2.2527692 -0.15540913
2.1546841 2.2330844 -0.1549585
2.1690433 2.2205358 -0.15500857
2.1756043 2.200084 -0.15450788
2.1798763 2.1775181 -0.15385696
2.1867976 2.1577888 -0.15340634
2.2200236 2.1638477 -0.1548083
2.2311003 2.1481073 -0.15465808
2.2579904 2.1474535 -0.15560941
2.314075 2.1739011 -0.15856354
2.3756924 2.2044947 -0.16186817
2.3781295 2.1797543 -0.16111711
2.4847541 2.2495742 -0.16742593
2.5461607 2.2768908 -0.17063041
2.5391226 2.2427135 -0.16922845
2.5430515 2.2185569 -0.16857754
2.5649397 2.2100818 -0.16912831
2.5746489 2.191066 -0.16887796
2.565871 2.1565928 -0.16742593
2.5175729 2.0897806 -0.16342033
2.5419345 2.0837905 -0.16417138
2.5585542 2.071296 -0.16442174
2.5665343 2.0518165 -0.16412131
2.6214092 2.0694451 -0.16682509
2.6435106 2.060689 -0.16742593
2.656105 2.04443 -0.16742593
2.6606472 2.0220513 -0.16692524
2.6354558 1.9775174 -0.16457194
2.630686 1.9488257 -0.16352047
2.6305015 1.9238046 -0.16276942
2.5426507 1.8357266 -0.15661082
5.869987 4.1830559 -0.36074623
5.9494596 4.1848817 -0.36405084
6.289248 4.3664389 -0.38322765
6.2936759 4.3125248 -0.38187575
6.2869244 4.2514486 -0.37987295
5.9058161 3.9411557 -0.35533866
5.8898478 3.8784797 -0.35293531
6.2531519 4.0085649 -0.37176162
7.5826445 4.7953858 -0.44916984
7.862751 4.9052401 -0.46399057
9.0418749 5.5640259 -0.53163517
9.0553532 5.4960051 -0.53043348
9.0666246 5.4270034 -0.52913165
9.1031942 5.3732996 -0.52933192
9.060894 5.2736359 -0.52497584
7.923624 4.5468965 -0.45738134
9.0153961 5.1000876 -0.51866704
9.1660252 5.1113114 -0.52552658
9.2339764 5.0751772 -0.52762955
6.0015407 3.2508702 -0.34156939
9.296442 4.9619503 -0.52767962
5.7545743 3.0263669 -0.32534674
5.7278085 2.9675703 -0.32279316
2.9498591 1.5055586 -0.16542314
2.9938445 1.5049217 -0.16737586
8.2671976 4.091886 -0.46183756
9.4278879 4.5945358 -0.52517611
5.9115939 2.836266 -0.32810059
3.2141116 1.5179942 -0.17759015
8.0128031 3.7240312 -0.44236034
6.3152132 2.8881271 -0.34752774
2.7460248 1.2356626 -0.15035206
2.8768523 1.2733531 -0.15711151
2.892853 1.2592641 -0.15756214
2.8693066 1.2281305 -0.15585977
2.8629792 1.2046922 -0.15510871
2.8564727 1.1813781 -0.15435766
2.8497887 1.1581894 -0.15360661
2.8531313 1.1392006 -0.15340634
2.856348 1.1202142 -0.15320605
2.8015735 1.0396562 -0.14920045
2.9064417 1.0583199 -0.15445781
2.9081779 1.0387869 -0.15420745
2.9031856 1.0169618 -0.15360661
2.9046478 0.99750751 -0.15335627
2.9050341 0.97775501 -0.15305585
2.902442 0.95709729 -0.15260521
2.8787968 0.92975706 -0.15105304
2.6797037 0.84735185 -0.140288
2.6877148 0.83177924 -0.1404382
2.6832089 0.8123787 -0.13993751
2.6804817 0.79363185 -0.13953695
2.6613159 0.77023029 -0.13828519
2.6659918 0.75388634 -0.13828519
2.6753809 0.73884279 -0.13853554
2.6750424 0.72111368 -0.13828519
2.6823144 0.70544821 -0.13843539
2.673048 0.68550426 -0.13773441
2.6801109 0.66981614 -0.13788463
0.76756895 0.18700536 -0.038996372
0.76870197 0.18229212 -0.038996372
0.78245836 0.18048665 -0.039647281
0.79037333 0.17720975 -0.039997771
0.79046988 0.17214455 -0.039947703
0.79053402 0.16708481 -0.039897632
0.78860897 0.1616303 -0.039747421
0.7944842 0.15775965 -0.039997771
0.83074784 0.159658 -0.04180029
0.83171183 0.15455762 -0.04180029
0.83657682 0.15015611 -0.042000573
0.83157754 0.14399931 -0.041700151
0.806831 0.13462757 -0.040398333
0.80961424 0.1299905 -0.040498473
0.80644804 0.12441237 -0.040298194
0.81114841 0.12004551 -0.040498473
0.81879199 0.11604524 -0.040848963
0.8194887 0.11101905 -0.040848963
0.86373842 0.11160862 -0.043052044
0.89712024 0.11032105 -0.044704352
0.96821487 0.11301921 -0.048259322
1.0036355 0.11090774 -0.050011773
1.006284 0.10495422 -0.050111912
1.0238069 0.10043159 -0.050963104
1.017442 0.093509473 -0.050612614
1.0229721 0.087690189 -0.050862964
1.028469 0.08180654 -0.051113311
1.0369203 0.076077305 -0.051513873
1.0433466 0.07011392 -0.051814292
1.0507356 0.064135157 -0.052164782
1.0521065 0.057741266 -0.052214853
1.0574288 0.051526528 -0.052465204
1.0657079 0.045375455 -0.052865762
1.0709567 0.039016269 -0.053116113
1.0691794 0.032384224 -0.053015973
1.069358 0.025823254 -0.053015973
1.1054455 0.019900966 -0.054818492
1.0975574 0.01302458 -0.054417934
1.1325722 0.0064827926 -0.056170382
1.1522088 -0.003139924 -0.079521298
1.1601481 -0.010275933 -0.080077954
1.1879925 -0.01779752 -0.082026266
1.231745 -0.025989529 -0.085087888
1.2325596 -0.033573523 -0.085157469
1.2273452 -0.040971939 -0.084809557
1.2220865 -0.048307635 -0.084461644
1.2197741 -0.055715322 -0.084322482
1.2144278 -0.062943138 -0.08397457
1.2170066 -0.070565194 -0.084183313
1.2165507 -0.078031279 -0.084183313
1.2100781 -0.085077815 -0.08376582
1.2095332 -0.092501104 -0.08376582
1.2109314 -0.10008421 -0.083904989
1.19837 -0.10645957 -0.083069995
1.2006737 -0.11409213 -0.083278745
1.1989584 -0.12135725 -0.083209164
1.2041428 -0.12934774 -0.083626658
1.2092739 -0.13740639 -0.084044151
1.2093987 -0.14494196 -0.084113732
1.2134355 -0.15298125 -0.084461644
1.2025838 -0.15912057 -0.08376582
4.0248947 -0.55617583 -0.28256264
3.6136296 -0.52202749 -0.25382513
3.6340337 -0.54775482 -0.2554951
3.6513004 -0.57328826 -0.25695631
3.642791 -0.59487844 -0.2566084
3.5948124 -0.60972005 -0.25347722
3.533035 -0.62157804 -0.24937184
3.5242474 -0.64235109 -0.24902393
3.5202396 -0.66396344 -0.24902393
3.4837868 -0.67925656 -0.24672772
3.5421443 -0.713211 -0.25118098
3.5474689 -0.73695904 -0.2518768
3.5740962 -0.76539117 -0.25410345
3.5683584 -0.78709227 -0.25403386
3.5800002 -0.81272399 -0.25521675
3.6623802 -0.85507303 -0.26147917
3.7075088 -0.889624 -0.26509747
5.294416 -1.3045275 -0.37949085
4.2901444 -1.0851682 -0.30782104
12.554458 -3.5042396 -0.90831679
10.391841 -3.1079986 -0.7557227
6.7917495 -2.1226552 -0.49548465
4.8674612 -1.554287 -0.35555452
4.8265338 -1.5739217 -0.35325831
4.8385563 -1.6107514 -0.3548587
4.8266921 -1.6397685 -0.35471955
4.8269091 -1.6729457 -0.35548493
4.9397702 -1.7460684 -0.36460024
4.9130082 -1.7705976 -0.36341733
4.7952976 -1.7615099 -0.35548493
4.7806616 -1.7895018 -0.35520661
4.7602701 -1.8152485 -0.35451078
4.7527618 -1.8458669 -0.35478911
4.7181535 -1.8658261 -0.35304958
4.6844053 -1.885803 -0.35137957
4.6708999 -1.9137541 -0.35124043
4.7308927 -1.9723109 -0.35666785
4.8399358 -2.052702 -0.36585271
5.1936626 -2.2403691 -0.39368567
5.3122892 -2.3302867 -0.4037751
5.5858035 -2.4912081 -0.42576313
5.8202796 -2.6386843 -0.44489828
5.9870038 -2.7586586 -0.45895392
6.1199427 -2.8655493 -0.47050458
6.0941372 -2.8991904 -0.46987835
6.0861139 -2.9413025 -0.47064376
6.1082511 -2.9983683 -0.47377497
6.0986667 -3.0402412 -0.47447079
6.0816779 -3.0785055 -0.47460994
7.8053412 -4.0111575 -0.61126971
7.8097711 -4.0741987 -0.61356592
7.8242989 -4.1430459 -0.61669713
7.8725467 -4.230638 -0.62254202
7.8989911 -4.3075161 -0.62671697
7.9186754 -4.3814964 -0.63040483
7.9542766 -4.4651561 -0.63541478
7.9796109 -4.5439873 -0.63965929
8.0042753 -4.6232958 -0.64390385
8.0325689 -4.7055979 -0.64849627
8.0438557 -4.7787409 -0.65176666
8.0741997 -4.864037 -0.65663743
8.1123114 -4.9550829 -0.66220397
8.1487589 -5.0462532 -0.66770101
8.1607332 -5.1232061 -0.67124969
8.16786 -5.1978168 -0.67445052
8.2020426 -5.2905498 -0.6799475
8.2512569 -5.3942661 -0.68676656
8.2637434 -5.4750948 -0.6905936
8.3103342 -5.5796309 -0.69734311
8.3501759 -5.681015 -0.70360547
8.3775845 -5.7751703 -0.70889378
8.3796139 -5.8527398 -0.71209455
8.4314947 -5.9662724 -0.71960944
8.4579706 -6.0632262 -0.72503686
8.5110178 -6.1806555 -0.73283011
8.5195427 -6.2670436 -0.73686588
8.5473261 -6.3686676 -0.74264121
8.552681 -6.4546428 -0.7465378
8.9694519 -6.8559175 -0.78661728
8.9627142 -6.9383016 -0.78974849
8.9568729 -7.0220909 -0.79301882
8.9542465 -7.1091704 -0.79663712
8.9555511 -7.2002301 -0.80067289
8.9877939 -7.3173943 -0.80756158
9.1290083 -7.5259595 -0.82440048
9.0841904 -7.5831103 -0.82453966
9.027585 -7.6303363 -0.8236351
9.0086403 -7.7095828 -0.8262096
9.0719976 -7.8607373 -0.83643824
9.1270866 -8.0070353 -0.84604061
9.1620693 -8.137742 -0.85390341
9.2328796 -8.3025255 -0.86524534
9.2437296 -8.4154291 -0.87109023
9.347436 -8.6153107 -0.88584173
9.3323269 -8.7078915 -0.88945997
9.3809757 -8.8615742 -0.89927113
5.6788845 -5.4311309 -0.54725391
5.6554871 -5.4755878 -0.54822809
5.6310458 -5.5192628 -0.54913265
9.1967945 -9.1249571 -0.90281981
9.1462622 -9.1868715 -0.90337646
9.031662 -9.1837873 -0.89760113
8.9626284 -9.2261524 -0.89634866
8.8892708 -9.2636986 -0.89467865
8.8212824 -9.3064842 -0.89356536
8.7551479 -9.3509684 -0.8926608
8.6237745 -9.324688 -0.88507628
8.509203 -9.3148251 -0.87916178
8.365674 -9.2713232 -0.87018567
8.2429152 -9.2487555 -0.86329705
8.1570072 -9.2662134 -0.86023539
8.0581036 -9.2679119 -0.85578215
7.9536381 -9.2619362 -0.85070264
7.8250299 -9.22612 -0.84297895
7.7721167 -9.2785482 -0.84339648
7.7029552 -9.3114586 -0.84207439
7.6286345 -9.3376904 -0.84019566
7.5617995 -9.3726778 -0.83915192
7.4600096 -9.3635054 -0.83421159
