# .PCD v0.7 - Point Cloud Data file format
VERSION 0.7
FIELDS x y z
SIZE 4 4 4
TYPE F F F
COUNT 1 1 1
WIDTH 1519
HEIGHT 1
VIEWPOINT 0 0 0 1 0 0 0
POINTS 1519
DATA ascii
7.4920321 0.19781867 0.70730275
7.5627789 0.15325476 0.71389031
7.6372414 0.1078862 0.72085434
7.7552323 0.061958391 0.7319591
18.096931 -0.0019536235 1.359802
18.090595 -0.11295713 1.3593521
18.080589 -0.22384605 1.3586773
18.067907 -0.33457956 1.3578526
18.046572 -0.44496953 1.3564279
18.03553 -0.55544758 1.3558282
18.012848 -0.66540235 1.3544035
18.020382 -0.77642924 1.3553033
18.01926 -0.88718158 1.3556032
18.008501 -0.99745351 1.3552283
18.019957 -1.1090348 1.3565779
18.016792 -1.2198515 1.3568778
18.005985 -1.3301573 1.3566529
17.992514 -1.4402173 1.3562779
18.023079 -1.5540152 1.3592771
18.002281 -1.6635644 1.3584524
18.026468 -1.7774165 1.3610766
18.032084 -1.8897576 1.3623513
17.97555 -1.9954156 1.3589772
18.001171 -2.222204 1.3628762
18.017855 -2.3365898 1.3652005
18.048632 -2.4532778 1.3686495
17.924639 -2.5485394 1.3604019
18.031963 -2.6767735 1.3697742
18.048702 -2.7925479 1.3723234
18.079472 -2.9110057 1.3759974
17.997339 -3.0111904 1.3711238
17.97179 -3.2341144 1.3720986
17.963373 -3.3465173 1.3729982
5.6752806 -1.1299855 0.43418959
5.6594496 -1.1629816 0.43351477
5.6453776 -1.1962392 0.43298993
5.6710567 -1.2380838 0.43553922
5.7314591 -1.2881562 0.44078773
5.7195611 -1.3224014 0.4404878
5.7317128 -1.3623111 0.44206235
5.6186209 -1.3719207 0.43396467
5.4901538 -1.3763169 0.4246673
5.2507849 -1.3506352 0.40674737
5.1247616 -1.3518136 0.39759997
5.0268431 -1.3590411 0.39062697
4.873292 -1.3496892 0.37930515
4.7641821 -1.3510139 0.37143239
4.5202069 -1.3118813 0.35298765
4.3476429 -1.2908 0.34009129
4.3272357 -1.3136885 0.33911657
4.2895684 -1.3310581 0.33679223
4.2318892 -1.3416898 0.33289334
4.1514735 -1.3442951 0.32719496
4.0910711 -1.3525351 0.32307112
3.9296217 -1.3259876 0.31092456
3.8723795 -1.3332022 0.30702567
3.7850897 -1.3291974 0.30072746
3.7393076 -1.338957 0.2977283
3.6832454 -1.3444457 0.29390439
3.560647 -1.4249469 0.28745621
3.5758495 -1.4565442 0.28940567
3.518019 -1.4582292 0.2854318
3.560463 -1.5014776 0.28963062
3.5356028 -1.5166157 0.28835598
3.4732141 -1.5151646 0.28400719
3.4310341 -1.5218973 0.28130797
3.4398136 -1.5511161 0.28280753
3.4474564 -1.5800843 0.28423214
3.4449284 -1.6045748 0.28483197
3.4827929 -1.6482823 0.28880584
3.4510431 -1.6592548 0.28700635
3.4139137 -1.6672753 0.28475699
3.3911114 -1.6819903 0.28370729
3.3931966 -1.7090439 0.28475699
3.3968527 -1.7370937 0.28595665
3.3870153 -1.7583631 0.28603163
3.3779268 -1.7800418 0.2861816
3.3783734 -1.8068465 0.28715631
3.3812475 -1.8351501 0.28835598
3.4083605 -1.8770217 0.29165503
3.4107087 -1.9056795 0.2928547
3.4041572 -1.9295206 0.29330456
3.4112742 -1.9613035 0.29495409
3.3948681 -1.9796866 0.29457921
3.3843741 -2.0014949 0.29472917
3.3797269 -2.0268378 0.29540396
3.3876777 -2.059968 0.29720345
3.3792188 -2.0833318 0.29757836
3.3629894 -2.1019135 0.29727843
3.4056299 -2.1577232 0.30222702
3.3906476 -2.1775017 0.30207708
3.3513124 -2.181406 0.29975274
3.3545139 -2.2129076 0.30125231
3.3640871 -2.2489626 0.3033517
3.3626096 -2.2779491 0.30447641
3.3757026 -2.3171573 0.30695069
3.3892589 -2.3571806 0.30949998
3.3926668 -2.3905656 0.31114951
3.4022858 -2.4287148 0.31339887
3.4552028 -2.4986184 0.31969708
3.4132569 -2.50033 0.31722277
3.3634119 -2.4956808 0.3139987
3.3799253 -2.5402305 0.31699786
3.3722105 -2.5669603 0.31774762
3.3887796 -2.612561 0.32082176
3.4017706 -2.6560066 0.32359597
3.4034028 -2.6910517 0.32532048
3.3977256 -2.7206082 0.32637018
3.415828 -2.7696617 0.32974422
14.019481 -11.508021 1.3628762
14.022993 -11.655652 1.370149
14.03056 -11.808252 1.3779469
14.023117 -11.949739 1.384395
14.022769 -12.098743 1.391668
14.027125 -12.253439 1.3995408
14.021892 -12.401374 1.4065887
13.993824 -12.530414 1.4114623
13.972826 -12.666941 1.4171607
10.744469 -9.861289 1.095652
10.546416 -9.799428 1.081556
10.392388 -9.7758217 1.0718837
10.194278 -9.7080631 1.0575627
10.056981 -9.6956873 1.0494651
9.9430618 -9.7042818 1.0437666
9.8187771 -9.701334 1.0369436
9.7188768 -9.7212038 1.0326698
9.6380243 -9.7593699 1.0304204
9.5626402 -9.8026209 1.0287709
9.4974689 -9.8560858 1.028246
9.3983116 -9.8737297 1.0240473
9.3238888 -9.9166813 1.0225477
9.2486143 -9.9583616 1.0209731
9.1866627 -10.014188 1.0208981
8.091156 -8.9294853 0.90513098
7.9723668 -8.9076347 0.89793301
3.9968433 -4.5217509 0.45285931
3.9637759 -4.5401807 0.45225948
3.9351916 -4.5636616 0.4521845
3.8922429 -4.570262 0.45045999
3.8211155 -4.5429335 0.44543642
3.7963552 -4.5701289 0.4458113
3.7486327 -4.5694394 0.44348696
3.7073405 -4.5760851 0.44191241
3.6343331 -4.5426888 0.43651393
3.6063912 -4.5649028 0.43651393
3.5390534 -4.5366306 0.43171531
3.4874146 -4.5274534 0.42879114
3.4354191 -4.5170207 0.42579198
3.3872769 -4.5109062 0.42324269
3.3345883 -4.4979639 0.4200936
3.2751184 -4.4748902 0.41604474
3.2365015 -4.4795456 0.41462016
3.1747863 -4.4514246 0.41019639
3.1261706 -4.4406543 0.40742218
3.0880511 -4.4441943 0.4059976
3.0500064 -4.4474349 0.40457299
2.9622853 -4.3768845 0.39647529
2.9813511 -4.463799 0.40269852
2.9467704 -4.4711852 0.4017238
2.9122119 -4.4783154 0.40074909
2.8555949 -4.4507818 0.39670023
2.8159626 -4.4488416 0.39497572
2.794951 -4.4761858 0.39587545
2.7475569 -4.460989 0.39302626
2.6828492 -4.4164062 0.38762781
2.6551874 -4.4319296 0.38755283
2.6137383 -4.4241004 0.38545343
2.5709794 -4.4133458 0.38312909
2.5244775 -4.3953171 0.38020492
2.4959862 -4.4081211 0.37997997
2.4528499 -4.3946214 0.37750569
2.4167044 -4.3929896 0.37608108
2.4030149 -4.4322796 0.37818047
2.3687236 -4.4337487 0.37705579
2.3498371 -4.4640813 0.37840542
2.3196466 -4.473105 0.37795556
2.2758219 -4.4552865 0.37525633
2.2314072 -4.4353189 0.37240714
2.1700542 -4.3801293 0.36663377
2.1326418 -4.3718538 0.36483428
2.0945494 -4.3614874 0.36288482
2.0639119 -4.3661437 0.36221001
2.0316129 -4.3669724 0.36123529
2.0014579 -4.3721027 0.36063546
1.9803283 -4.3970299 0.36168516
1.948867 -4.3990698 0.36086041
1.9182522 -4.4027181 0.36018559
1.8786312 -4.3850756 0.35778627
1.8385253 -4.3652759 0.35523701
1.8075089 -4.3663402 0.35441223
1.782187 -4.381043 0.35471216
1.7486082 -4.3752294 0.35336253
1.72501 -4.3942299 0.35403734
1.6933504 -4.3926368 0.3530626
1.6568322 -4.3777647 0.35103819
1.6348027 -4.4009342 0.35208789
1.5999109 -4.3893352 0.35036337
1.5759711 -4.4075198 0.35103819
1.5449362 -4.4058151 0.35013846
1.5169005 -4.4123831 0.34991351
1.48502 -4.407433 0.34878883
1.4560722 -4.4107809 0.34833896
1.4234563 -4.402554 0.34698933
1.3909963 -4.394094 0.34563971
1.361056 -4.3930211 0.34488994
1.330892 -4.3907933 0.34406516
1.2962699 -4.373064 0.34204075
1.2671914 -4.3732734 0.34144092
1.2340827 -4.3588996 0.3397164
1.2059842 -4.3615842 0.33934149
1.1778995 -4.3640881 0.33896661
1.1528783 -4.3779836 0.33949146
1.1279792 -4.3927016 0.34009129
1.1022159 -4.4043765 0.34046617
1.0749341 -4.4100881 0.34039122
1.0462416 -4.4098091 0.33986637
1.0191638 -4.4161458 0.33986637
0.98898995 -4.4086943 0.33881664
0.95788366 -4.3961682 0.33739206
0.93151063 -4.4048896 0.33761698
0.91067976 -4.440804 0.33994132
0.89683294 -4.513793 0.34511486
0.86685836 -4.5074606 0.34421512
0.83918476 -4.5126944 0.34421512
0.81606692 -4.5432763 0.34616455
0.78374386 -4.5226526 0.34421512
0.75006098 -4.4919691 0.3415159
0.72422636 -4.5073166 0.34234065
0.70036381 -4.5363126 0.34421512
0.6757338 -4.5622253 0.34586465
0.64898956 -4.5751715 0.34653947
0.6215753 -4.5840077 0.34691435
0.59855926 -4.6272926 0.34991351
0.57918316 -4.7041154 0.35546193
0.55424964 -4.7412553 0.35801122
0.52976078 -4.7861938 0.36116031
0.50069457 -4.7923298 0.36138526
0.46520042 -5.0513206 0.38050482
0.64491874 -7.5030923 0.56532741
0.60903013 -7.6341429 0.57492465
0.56195658 -7.6347523 0.57469976
0.51503289 -7.6370616 0.57462478
0.46785766 -7.6351023 0.57424986
0.42127562 -7.6428075 0.57462478
0.37417686 -7.6412644 0.57432485
0.32711291 -7.639431 0.57402492
0.28034198 -7.6442838 0.57424986
0.23315759 -7.6368899 0.57357508
0.18644054 -7.6441579 0.57402492
0.13978934 -7.6591163 0.57507461
0.093058906 -7.681767 0.57672417
0.045904581 -7.6792016 0.57649922
-0.0012149038 -7.6783414 0.57642424
-0.04840257 -7.690155 0.57732397
-0.095809102 -7.7076616 0.5786736
-0.14306377 -7.7049346 0.57852364
-0.19055855 -7.712883 0.57919848
-0.23858549 -7.7344937 0.58092296
-0.28629637 -7.7398591 0.58144784
-0.33536872 -7.7748189 0.58422202
-0.38786981 -7.8702202 0.59156996
-0.44662428 -8.0568686 0.60581589
-0.65491444 -10.63679 0.80038571
-0.73417175 -10.839513 0.81598127
-0.80419248 -10.882539 0.81958026
-9.3162556 -116.43317 8.7817211
-12.023429 -114.76217 8.6753263
-13.476096 -114.99225 8.7045679
-13.311964 -89.693588 6.8170538
-20.082796 -120.05427 9.1514416
-18.774342 -91.412567 7.0158973
-7.9852881 -29.548645 2.30056
-8.163785 -29.489479 2.2998104
-8.3394089 -29.420605 2.2983856
-7.4578948 -20.440556 1.6351238
-7.5751829 -20.372911 1.6333994
-7.6943946 -20.311129 1.6321998
-7.8221073 -20.271906 1.6328745
-7.9481692 -20.228168 1.6332494
-6.6481886 -16.619064 1.3449562
-6.7030354 -16.462511 1.3355839
-6.7649903 -16.327105 1.3279361
-6.8232141 -16.186049 1.3198383
-6.8709249 -16.023815 1.3100162
-6.9715075 -15.986839 1.3104661
-7.0718946 -15.949231 1.3109158
-7.1843753 -15.938267 1.3136151
-7.2990632 -15.931054 1.3166893
-7.4181418 -15.932073 1.3205131
-7.5285521 -15.913298 1.3227625
-7.6385789 -15.892869 1.3249369
-7.7468877 -15.868103 1.3268113
-7.8790989 -15.89085 1.3327347
-8.0549259 -15.998075 1.345856
-8.132967 -15.909282 1.342557
-8.281415 -15.957326 1.3508795
-8.3968306 -15.939737 1.3537288
-8.5226841 -15.94068 1.3582275
-8.6731167 -15.985378 1.3665501
-8.8022957 -15.988642 1.3714237
-8.9332991 -15.993531 1.3765223
-9.0553522 -15.980929 1.3801962
-9.1780834 -15.968294 1.3839451
-9.2794046 -15.917709 1.38447
-8.4477425 -14.288728 1.2471839
-8.5024443 -14.181887 1.2423853
-8.5224857 -14.019526 1.2327131
-8.5277796 -13.836236 1.2211664
-8.5369587 -13.662716 1.2104443
-8.6110268 -13.594913 1.2090948
-8.6765041 -13.514128 1.2066205
-8.7418594 -13.433889 1.2042211
-8.8252211 -13.381662 1.2043711
-8.9199076 -13.346329 1.2060956
-9.0212002 -13.320245 1.2087198
-9.1512833 -13.335353 1.215168
-9.2699356 -13.33217 1.2200416
-9.3837233 -13.320693 1.2242404
-9.501194 -13.31319 1.2288891
-9.6358652 -13.328181 1.2357122
-9.7539921 -13.318686 1.2403609
-9.8616695 -13.293826 1.24366
-10.011936 -13.324749 1.2522825
-8.8821583 -11.671197 1.1018752
-8.8251638 -11.449822 1.0860547
-8.8909578 -11.389955 1.0855298
-8.9198656 -11.283554 1.0805812
-8.9608908 -11.193579 1.0772072
-8.9986362 -11.100427 1.0735332
-8.9691477 -10.926301 1.0619864
-9.0219994 -10.85419 1.0603369
-9.0775137 -10.785658 1.0590624
-9.0988979 -10.677384 1.0538888
-9.1740122 -10.632679 1.0550134
-9.2469521 -10.5852 1.0559132
-9.3474007 -10.5686 1.059962
-9.4173937 -10.51699 1.0605619
-9.5473804 -10.531411 1.0679098
-9.6711531 -10.537285 1.074508
-9.7967129 -10.543494 1.081256
-9.8933334 -10.517323 1.08478
-9.977622 -10.477364 1.0869544
-10.086015 -10.461892 1.091753
-10.200162 -10.451193 1.0971515
-10.356606 -10.482047 1.1070487
-10.476437 -10.474003 1.112972
-10.569595 -10.438253 1.1160462
-10.675556 -10.414288 1.1204699
-10.784492 -10.392182 1.1251936
-8.7448969 -8.2220421 0.90160698
-9.1930151 -7.7332511 0.9023568
-9.3049517 -7.6344051 0.90408128
-9.4345179 -7.6443429 0.91210401
-9.4687881 -7.5763412 0.91090435
-9.5244856 -7.5255179 0.91180408
-9.6215839 -7.5068097 0.91667771
-9.8423424 -7.4865842 0.92889923
-9.9550695 -7.4763565 0.93519747
-10.063233 -7.461462 0.94104582
-10.165151 -7.4408073 0.94629431
-10.41186 -7.5237336 0.96496403
-10.464324 -7.4643388 0.96556383
-10.611027 -7.4711833 0.9748612
-10.771306 -7.485611 0.98535824
-10.973272 -7.5265536 0.99960417
-11.124119 -7.5300775 1.0091265
-11.239763 -7.5082107 1.0154247
-11.477108 -7.5653386 1.0326698
-11.687985 -7.6018891 1.0474406
-11.857776 -7.6092033 1.0584625
-12.428815 -7.6564078 1.0967016
-17.340708 -10.536314 1.5247552
-17.557283 -10.520957 1.5381014
-17.705641 -10.462749 1.5454494
-17.971113 -10.471394 1.5629944
-18.119762 -10.409611 1.5703423
-18.372446 -10.40537 1.5866877
-18.940935 -10.57439 1.6301754
-19.223871 -10.578163 1.6489199
-29.439991 -15.965557 2.5172486
-29.532124 -15.781796 2.5167987
-29.923986 -15.755936 2.5419166
-30.852163 -16.003658 2.6123967
-30.826351 -15.750981 2.6019745
-30.997238 -15.599194 2.6082728
-30.673328 -15.201027 2.5731077
-22.776617 -11.113843 1.9046724
-23.056301 -8.8911991 1.8571359
-23.052601 -8.7276688 1.8524872
-23.144043 -8.6002989 1.8555614
-23.482113 -8.5623255 1.8784299
-23.776451 -8.5047359 1.8977743
-32.37117 -11.355734 2.5785062
-32.445896 -11.158839 2.5789561
-32.529816 -10.96496 2.5802307
-36.192726 -11.952909 2.865
-32.211258 -10.419159 2.544616
-36.251125 -11.480771 2.8582518
-36.133247 -11.199958 2.8434811
-36.306259 -11.009871 2.8517287
-36.563381 -10.843318 2.8666496
-36.796829 -10.667356 2.8797708
-36.990158 -10.477795 2.889818
-37.079697 -10.257809 2.8918424
-37.140015 -10.029579 2.8916924
-37.771709 -9.9519186 2.9360797
-37.814674 -9.7155018 2.9347303
-57.299255 -14.347707 4.4404531
-58.646603 -14.303267 4.5380006
-60.393303 -14.337258 4.6662889
-63.006855 -14.143283 4.8544855
-64.879303 -14.14603 4.9919968
-67.763588 -13.906102 5.2004375
-87.171921 -9.1191645 6.5893435
-91.208298 -6.1583152 6.8726878
-47.934261 -1.7614491 3.6057148
-47.951145 -1.4675105 3.6062398
-48.053951 -1.1755784 3.6133628
-70.454269 -1.2913847 5.2974601
-13.381243 0.0016192624 1.0052276
-13.364029 0.083619781 1.003953
-13.34432 0.1653845 1.0025283
-13.343054 0.24726059 1.0025283
-13.329322 0.32883286 1.0016286
-13.333035 0.4107978 1.0020785
-13.343217 0.49307811 1.0030532
-13.355881 0.57562745 1.0042529
-13.384964 0.65918374 1.0067272
-13.407552 0.74278796 1.0087516
-13.43459 0.8270002 1.011151
-13.473039 0.91237998 1.01445
-105.0281 9.7022371 7.9298129
-85.317879 8.938776 6.4492831
-84.809486 9.4119568 6.4150929
-105.091 15.597071 7.9874716
-8.5645885 1.3254946 0.65072817
-8.0925903 1.3033766 0.61541319
-7.8120046 1.3074355 0.59464407
-7.5837574 1.3171413 0.57784885
-7.47052 1.3447558 0.56982613
-7.2562604 1.352224 0.55408061
-7.0598226 1.3605099 0.53968465
-6.996573 1.3929043 0.53548586
-6.8892384 1.4155469 0.52791303
-6.8296943 1.4470487 0.52401412
-6.7505398 1.473622 0.51861566
-6.7073178 1.5073653 0.51599139
-6.6503353 1.5374908 0.51231742
-6.5641317 1.56006 0.50639409
-6.5021229 1.5875404 0.50234526
-6.4429283 1.6150463 0.49852136
-6.4087529 1.6483414 0.49664688
-6.3850188 1.6840746 0.49559718
-6.3553119 1.7180182 0.49409759
-6.2917933 1.7423497 0.48997378
-6.2637148 1.7760279 0.48862416
-6.2613192 1.8169283 0.48929897
-6.2290211 1.8490719 0.48764944
-6.1860685 1.8777031 0.48517513
-6.1649065 1.9126707 0.48442534
-6.1292892 1.9429314 0.48255089
-6.0982776 1.9743625 0.4810513
-6.077527 2.0089278 0.48037648
-6.0367389 2.0366209 0.47812712
-6.0156426 2.070703 0.47745231
-5.958601 2.0920541 0.47392833
-5.9494076 2.12992 0.47422823
-5.9231114 2.1616001 0.47317854
-5.9013247 2.1947753 0.47250372
-5.8980045 2.2348297 0.4733285
-5.879529 2.2691822 0.47295359
-5.8701353 2.307039 0.4733285
-5.8595729 2.3444953 0.4736284
-5.8330703 2.3755167 0.47265369
-5.8137784 2.4093547 0.4722788
-5.8154254 2.4519536 0.4736284
-5.8085198 2.4911268 0.47430322
-5.7931252 2.5267203 0.47430322
-5.7638383 2.5561562 0.47317854
-5.7698641 2.6013083 0.47497803
-5.745635 2.6329248 0.47430322
-5.6832666 2.6466649 0.47047931
-5.6777372 2.686604 0.47137904
-5.6773238 2.7291663 0.47272867
-5.660471 2.7639503 0.47272867
-5.643405 2.7986302 0.47272867
-5.6100945 2.8251336 0.47137904
-5.5722327 2.8490644 0.46965453
-5.5652671 2.8887131 0.47055429
-5.5403795 2.9190886 0.46995446
-5.5170875 2.9502079 0.46950457
-5.4988818 2.9840045 0.46950457
-5.4970665 3.0268259 0.47092918
-5.4940615 3.0692506 0.4722788
-5.4777284 3.1043782 0.47250372
-5.4533896 3.1349494 0.47205386
-5.4357743 3.1693559 0.47220382
-5.4205174 3.2051868 0.4725787
-5.3879194 3.2306955 0.47145402
-5.3884454 3.2761252 0.47325352
-5.3699398 3.310173 0.47340348
-5.3495283 3.3430598 0.47340348
-5.3381815 3.38169 0.47422823
-5.3475404 3.4337745 0.47692746
-5.3380723 3.4741356 0.47797719
-5.3124924 3.5040791 0.47760227
-5.2950373 3.5393803 0.47797719
-5.2740464 3.5723627 0.47805214
-5.279161 3.623275 0.48052645
-5.2658358 3.6618607 0.48135123
-5.2465286 3.6963992 0.48165113
-5.2359247 3.7372103 0.48277581
-5.2436042 3.7914665 0.485625
-5.2258735 3.8276937 0.48614985
-5.205492 3.8620632 0.48644978
-5.193656 3.9029152 0.48757446
-5.1878619 3.9485984 0.48929897
-5.2030277 4.0107923 0.49304789
-5.2396345 4.0904994 0.49889624
-5.2926679 4.1844087 0.50639409
-5.3104887 4.2517023 0.51059294
-5.3633161 4.3482547 0.51824075
-5.4051347 4.4373884 0.52491385
-5.452961 4.5329332 0.53226179
-5.8362851 4.912384 0.57267529
-5.8455019 4.9817333 0.57657421
-5.8767371 5.0709205 0.58272249
-5.8965812 5.1514926 0.58782101
-5.8783069 5.1994672 0.58917063
-5.879724 5.2653708 0.59254467
-5.9174933 5.3649726 0.59966767
-5.8609529 5.3796048 0.59726834
-5.8826246 5.4663711 0.60289174
-5.8555102 5.508512 0.60356653
-5.8887615 5.6082888 0.61053956
-6.1277685 5.9079943 0.63910645
-6.1413593 5.9942341 0.644355
-6.120779 6.0479231 0.64607948
-6.096951 6.0987639 0.64750409
-6.0818381 6.1587625 0.64990342
-6.0508976 6.2031016 0.65065318
-6.1192856 6.3506885 0.66219991
-6.2225256 6.5376234 0.67772049
-6.5245295 6.9396386 0.71528482
-6.5042205 7.003653 0.71775913
-6.5069656 7.0933962 0.72285771
-6.7023721 7.3969803 0.74962509
-23.762009 31.637638 2.974169
-23.857885 32.17453 3.0108335
-22.026348 30.876682 2.850904
-22.999666 32.663097 3.002811
-21.718628 32.510422 2.938854
-20.354004 31.292435 2.8059168
-21.278654 33.157288 2.9614227
-11.57865 18.288807 1.6266513
-20.889177 33.446362 2.9641218
-11.368513 18.454138 1.6288257
-8.281148 13.629424 1.1982229
-8.2158175 13.710773 1.2009221
-7.7114601 13.050105 1.1388397
-7.6478086 13.125607 1.141314
-7.5522251 13.146347 1.1390647
-7.4837041 13.214131 1.1409391
-7.5225539 13.474857 1.1594589
-7.3878098 13.426408 1.1513611
-7.9675126 14.692551 1.2558064
-9.3389339 17.47632 1.4889903
-9.1990757 17.734776 1.5012869
-9.0932598 17.797102 1.5018117
-7.1306872 14.170236 1.1918497
-8.8635492 17.885906 1.5000123
-8.7405176 17.913071 1.4977629
-8.6028051 17.908838 1.4929643
-8.173893 17.286983 1.4368801
-11.055822 23.757544 1.9693791
-10.940981 23.892931 1.9750025
-6.8671217 15.243413 1.2561814
-6.7641673 15.264294 1.2544569
-12.881177 29.554922 2.4232254
-9.6587849 22.538355 1.8428149
-9.3234835 22.515146 1.8314182
-8.7348518 21.465422 1.7415937
-8.6555481 21.650095 1.7522407
-8.6537685 22.03694 1.779233
-8.5919466 22.280354 1.7946037
-8.5429974 22.564865 1.8132733
-8.4686451 22.789782 1.8271444
-8.8708172 24.328079 1.9461356
-8.8987169 24.8778 1.9857244
-8.1015329 23.095179 1.839366
-8.9069014 26.424555 2.0957932
-8.74053 26.4664 2.0948186
-10.111189 58.300686 4.4481759
-9.3574476 55.993256 4.2676272
-8.6165838 53.58041 4.0795803
-7.9530611 51.467152 3.9148521
-6.7227755 45.347996 3.4460852
-6.4519696 45.441708 3.450134
-5.7372289 42.270027 3.2065282
-5.4210234 41.866341 3.1733124
-5.1640344 41.898815 3.1733124
-4.881928 41.71677 3.157192
-4.4936175 40.552635 3.0669177
-4.1088867 39.281216 2.9687705
-3.7555606 38.165428 2.8826201
-3.4122396 37.005127 2.7933204
-3.1027083 36.067619 2.7210407
-2.8135462 35.237083 2.6570089
-2.5215037 34.225384 2.5794809
-2.2578409 33.446262 2.5196478
-1.9976671 32.564705 2.4522421
-1.7533462 31.770853 2.3915844
-1.51816 30.961315 2.3298769
-1.3068686 30.473904 2.2925375
-1.0868531 29.583492 2.2249815
-0.88730633 29.001541 2.1807442
-0.69713879 28.507996 2.1432548
-0.51053858 27.875641 2.0954182
-0.33965757 27.892208 2.096468
-0.16886464 27.9526 2.1008918
0.0026569911 28.01693 2.1056905
0.17481935 28.057268 2.1087644
0.34752607 28.10054 2.1121385
0.52200484 28.209543 2.1205361
0.69606721 28.245684 2.1235354
0.87043947 28.275768 2.1261597
1.0464941 28.339647 2.1314082
1.2249522 28.439293 2.1394308
1.4019774 28.483032 2.1433296
1.5790894 28.516708 2.1465538
1.7567285 28.550276 2.1498528
1.9367241 28.610592 2.1552513
2.1200957 28.70458 2.163274
2.303262 28.779497 2.1699471
2.4874268 28.853247 2.1766202
2.6702902 28.90099 2.1814189
2.8538332 28.947571 2.1862175
3.0399179 29.010839 2.1923659
3.2321656 29.120485 2.2021132
3.4150791 29.136751 2.2048872
3.6035655 29.19442 2.2108855
3.793144 29.252851 2.2170339
3.9880064 29.342659 2.2256563
4.1723247 29.348242 2.2279806
4.3732572 29.46314 2.2387028
4.5644751 29.503746 2.2438762
4.7677665 29.614002 2.2544482
4.9655075 29.680573 2.261796
5.1563997 29.700638 2.2656951
5.3593779 29.784248 2.2745426
5.559011 29.841974 2.2815156
5.7567244 29.883678 2.2873638
5.9629431 29.963198 2.2962112
6.1631312 30.006145 2.3023596
6.372128 30.085804 2.3114321
6.5899858 30.199099 2.3232038
6.7915516 30.231066 2.3288271
6.9742236 30.177166 2.3279274
6.9299321 29.16847 2.2533236
7.0652738 28.947149 2.2395275
7.2449384 28.911959 2.2402022
6.8081675 26.47859 2.0547798
6.8230634 25.877062 2.0112922
6.7801142 25.088648 1.9531837
6.9200945 24.996597 1.9492848
7.0684452 24.936398 1.9479351
8.6661758 29.873594 2.3378994
6.6383524 22.368912 1.7535154
6.6816716 22.018589 1.7292222
6.6887474 21.564774 1.6967564
6.6823778 21.08605 1.6622661
6.7956672 20.995316 1.6583673
6.9318728 20.975948 1.6601667
9.851676 29.20936 2.3169055
10.032662 29.154018 2.3173554
6.5228972 18.582844 1.4799179
6.5474186 18.29273 1.4599736
6.5320601 17.902788 1.4320065
6.5319753 17.567015 1.4083133
6.5174232 17.203951 1.3823706
6.4929228 16.826853 1.3552283
6.45894 16.437721 1.3270363
6.522274 16.30427 1.3194635
6.6315928 16.287031 1.3213379
6.7386551 16.263538 1.3227625
6.8526502 16.255884 1.3255367
6.9723058 16.260273 1.3293606
7.0854969 16.248262 1.3319099
7.204865 16.249149 1.3355839
7.3163152 16.231001 1.3377583
7.4381962 16.234758 1.3418071
7.5545058 16.224974 1.3448063
7.6790767 16.231497 1.3492301
7.7992597 16.227217 1.352829
7.9218659 16.226549 1.3568028
8.0381126 16.211584 1.359652
8.1607504 16.208275 1.3635509
8.2791119 16.195189 1.3667001
8.4017525 16.189224 1.3705239
8.5348549 16.201773 1.3759974
8.6627836 16.202742 1.3805711
8.7791576 16.18084 1.3832704
8.9071293 16.179081 1.3877691
9.8743467 16.243549 1.4284075
9.9874334 16.204727 1.430357
10.094601 16.155827 1.4314817
4.0851345 6.111691 0.55183125
4.1292677 6.0964179 0.55273098
4.1423368 6.0356107 0.5495069
4.1525388 5.9715991 0.5459829
4.1667061 5.9142127 0.54305869
4.1890149 5.8690538 0.54125923
4.2150159 5.8295016 0.53998458
4.239512 5.7882428 0.53855997
4.2713838 5.7573156 0.53811014
4.3108225 5.7365789 0.53863496
4.3453364 5.7092266 0.53855997
4.3784595 5.6800871 0.53833503
4.4205923 5.6625476 0.53923482
4.5090518 5.7033772 0.54575795
4.5321221 5.6608119 0.54433334
4.6006789 5.6747279 0.54838222
4.6543913 5.6695156 0.55063158
4.6584969 5.6040392 0.54703259
4.7473712 5.640202 0.55340576
4.7987051 5.6307011 0.55535525
4.8605223 5.6328621 0.55850434
4.9343538 5.6479936 0.56300306
5.0144982 5.6691523 0.56817657
5.0551753 5.6449633 0.56885141
5.1098089 5.6360035 0.57110077
15.05421 16.202286 1.6620413
15.157441 16.11397 1.6624911
15.246403 16.010551 1.6614414
15.374113 15.94757 1.6646655
15.574752 15.95856 1.6757624
15.820253 16.012373 1.6915829
15.954874 15.951664 1.6954818
16.181576 15.980999 1.7091279
16.337858 15.93851 1.7152761
16.58326 15.98051 1.7307218
16.741673 15.936209 1.73702
16.947382 15.934966 1.7481918
17.151512 15.92976 1.7591387
17.348866 15.915903 1.7693359
17.532648 15.887498 1.7781084
17.744226 15.882041 1.7896551
17.940702 15.860712 1.7996272
18.140587 15.84019 1.8098993
18.337114 15.814551 1.8197964
4.8511314 4.1314979 0.4782021
4.8748641 4.1003704 0.47805214
19.161991 15.920437 1.8722817
19.435848 15.947415 1.8894517
19.58989 15.873689 1.8949252
19.82551 15.864091 1.9082714
20.103209 15.884962 1.9255915
20.377974 15.899952 1.9425367
20.644981 15.905465 1.9586571
20.853296 15.863016 1.9691541
21.06904 15.823996 1.9803259
21.225813 15.738968 1.9859494
21.47084 15.717405 1.9998205
3.8886797 2.7374847 0.35666159
3.9561708 2.748858 0.36131027
3.8973107 2.6726363 0.35441223
3.8145459 2.5815895 0.34541479
3.7930019 2.5332074 0.34204075
3.8101389 2.5109839 0.34219068
3.7744842 2.4543905 0.33761698
3.7869556 2.429569 0.33739206
3.6829972 2.331073 0.32682005
3.6997685 2.3100154 0.32704499
3.7121749 2.2862244 0.32689503
3.7329507 2.2675464 0.32749486
3.7390954 2.2399855 0.32682005
3.753628 2.2175081 0.32689503
3.7697482 2.1959405 0.32711998
3.7701819 2.1653171 0.3259953
3.7695143 2.1342797 0.32479563
3.7442293 2.0897212 0.32149658
3.7220356 2.0474772 0.31849742
3.7573195 2.0369608 0.32044688
3.7503991 2.0035279 0.31879732
3.7432101 1.9702569 0.31714779
3.7499182 1.9444969 0.31669793
3.7564509 1.9187287 0.31624806
3.7699347 1.89654 0.31639802
3.7698853 1.8676159 0.31542328
3.7678313 1.8378894 0.3142986
3.7772398 1.8138723 0.31414866
3.7819881 1.7876774 0.31362379
3.782037 1.7593888 0.31272405
3.7818816 1.7311673 0.31182432
3.7815225 1.703014 0.31092456
3.780961 1.6749306 0.31002483
3.7856822 1.6493089 0.30957496
3.8012302 1.6284062 0.31002483
3.8148263 1.6066004 0.31032473
3.8153992 1.5793475 0.30957496
3.8250179 1.5559068 0.30957496
3.8223064 1.4733962 0.30710065
3.8900273 1.4721606 0.31182432
3.9017911 1.4493062 0.31204924
3.9321578 1.4331956 0.31377375
3.9493279 1.4120641 0.31444857
3.9720323 1.3927566 0.31557325
3.9786174 1.3677098 0.31542328
4.0370164 1.360154 0.31939715
4.0642238 1.3416125 0.32089674
4.1264596 1.3341438 0.32517052
4.2163234 1.3346928 0.3316187
4.3958788 1.3619417 0.34511486
4.4709516 1.3552015 0.35036337
4.6005979 1.3637522 0.35988566
4.6644282 1.3516024 0.36423445
4.728281 1.3387203 0.3685832
4.9295835 1.3631276 0.38365394
5.0456767 1.3619736 0.39205155
5.1175809 1.3477576 0.39700013
5.3855577 1.383086 0.41716942
5.5293674 1.3839265 0.42766646
5.6569157 1.3790364 0.43688884
5.9805913 1.4191604 0.46125692
5.9493504 1.3732378 0.45818278
5.9489079 1.3347417 0.45750797
5.9267917 1.253587 0.45458382
5.9099512 1.2121856 0.45270935
18.069786 3.0193155 1.3765973
18.096834 2.9098096 1.377272
18.120258 2.7996285 1.3777219
18.123287 2.6863444 1.3766723
5.8813448 0.83446395 0.44573632
5.8517694 0.79366642 0.44311208
5.7932382 0.74954939 0.43831342
5.7828827 0.71215868 0.43718874
5.798038 0.67793733 0.43801352
5.8328137 0.64575362 0.44033787
5.8495588 0.61130083 0.44131258
5.8522072 0.57529938 0.4412376
5.8655572 0.5402959 0.4419874
5.8777032 0.50506473 0.44266218
5.894608 0.47010174 0.44371191
5.9182653 0.43546328 0.44528645
5.9516683 0.40122399 0.4476108
7.528604 0.46132237 0.56622714
7.554193 0.41638336 0.56795162
7.5386777 0.36914438 0.56660205
7.5348229 0.3226245 0.56615216
7.5516086 0.2769351 0.56727684
7.4614677 0.22778647 0.56037879
7.3490796 0.17921771 0.55183125
7.5614085 0.13799748 0.56772673
7.5182405 0.091063634 0.56442767
18.081646 0.10899638 1.3586773
7.6111403 0.0088032084 0.44214687
18.066236 -0.090246685 1.0504894
18.031403 -0.20071913 1.0485145
18.013863 -0.31107798 1.047585
18.013609 -0.42164984 1.0477012
18.017668 -0.53237778 1.0481079
18.031023 -0.64352763 1.0490953
17.983845 -0.75235701 1.0465976
17.994844 -0.86345536 1.047527
17.991201 -0.97396135 1.0476432
17.970936 -1.0834937 1.0468299
17.959967 -1.1934761 1.0465976
17.969231 -1.3048832 1.047585
17.960886 -1.4151157 1.047585
17.958828 -1.5258868 1.0479916
17.985912 -1.6394047 1.0501409
17.976507 -1.7498301 1.0501989
17.996216 -1.8632865 1.0519997
17.985435 -1.973783 1.0520577
17.98687 -2.0857124 1.052871
18.007425 -2.2001555 1.0548459
17.960911 -2.3064091 1.052929
17.961264 -2.4185703 1.0538003
17.968821 -2.5319371 1.0551363
17.906527 -2.6353116 1.0524062
17.939356 -2.7527056 1.0553106
17.954453 -2.9809818 1.058273
18.021414 -3.105844 1.0633266
17.992191 -3.2146068 1.0627457
17.994705 -3.3291216 1.0640817
18.000486 -3.5591826 1.0669279
5.9074302 -1.2813342 0.35100874
5.732851 -1.2803425 0.34107593
5.5760264 -1.2812828 0.33218864
5.5039368 -1.3003207 0.32835492
5.2727246 -1.2798963 0.31499496
5.1766233 -1.2902507 0.30970907
5.0602865 -1.294279 0.30320337
4.975965 -1.3052897 0.2986145
4.9003782 -1.3176485 0.29454842
4.7824817 -1.3174617 0.28792655
4.5667744 -1.2882292 0.27537981
4.5252147 -1.3065324 0.27334678
4.34478 -1.2833616 0.26289114
4.2594161 -1.2866105 0.25818613
4.1961174 -1.2956363 0.2548171
4.1357265 -1.3048356 0.25162232
4.0763326 -1.3136494 0.24848564
4.0160403 -1.3214722 0.24529088
3.9113293 -1.313664 0.23936602
3.8465323 -1.318217 0.23588082
3.7950225 -1.3266379 0.23320884
3.7557797 -1.3388351 0.23129196
3.7118404 -1.3488961 0.22908467
3.610815 -1.3373156 0.22333409
3.5689175 -1.3467555 0.22124296
3.5307684 -1.3571651 0.21938418
3.5177267 -1.3769842 0.21909375
3.5166302 -1.4014997 0.21955845
3.488538 -1.4151691 0.21833862
3.4917848 -1.4415008 0.21909375
3.4773517 -1.4605789 0.21874523
3.4664884 -1.4811035 0.21862906
3.5021987 -1.5218434 0.2214753
3.4151795 -1.5090041 0.21653794
3.384001 -1.5201119 0.21514384
3.4617879 -1.5806586 0.22072017
3.473757 -1.6119564 0.22211426
3.4376154 -1.6208918 0.22042975
3.435708 -1.6458362 0.22095253
3.4327259 -1.6703813 0.22141722
3.4045129 -1.6825655 0.22025548
3.4048314 -1.7087977 0.22095253
3.4058452 -1.7355502 0.22170766
3.3995652 -1.7587092 0.22199808
3.3931291 -1.7818563 0.22228852
3.3821321 -1.8026427 0.22228852
3.308665 -1.7896358 0.21816435
3.3702579 -1.8497754 0.22298557
3.3980918 -1.8922786 0.22559947
3.3925014 -1.9165307 0.22600608
3.4369771 -1.9695773 0.22978172
3.4481306 -2.0041754 0.23135005
3.4409282 -2.028337 0.23169857
3.4618354 -2.0693905 0.23396395
3.4541948 -2.093698 0.23431247
3.4574428 -2.1247852 0.23541613
3.4731479 -2.1639102 0.23739107
3.4403925 -2.1729181 0.23605508
3.4765985 -2.2257473 0.23948219
3.4553394 -2.2421463 0.23895942
3.4682071 -2.2808604 0.24081819
3.4607923 -2.3065276 0.24128288
3.4589837 -2.3361008 0.2421542
3.4627092 -2.3696854 0.24343209
3.4653313 -2.4028344 0.24465191
3.3990607 -2.3878953 0.24099246
3.3680785 -2.3971283 0.23983072
3.3994625 -2.4510312 0.24314167
3.4278913 -2.5036418 0.24627835
3.3619056 -2.4872193 0.24261889
3.3689492 -2.5245645 0.24424531
3.3812268 -2.566314 0.24627835
3.3677907 -2.5888379 0.24645261
3.3802001 -2.6315324 0.24854372
3.4854989 -2.748033 0.25754717
3.489635 -2.7861869 0.25911552
3.4973147 -2.8276327 0.26097429
3.3802567 -2.7674525 0.25348109
10.906281 -9.0420437 0.82360256
10.716789 -8.9964638 0.81343734
10.589886 -9.0012751 0.8079772
10.472409 -9.0126839 0.80321407
10.301003 -8.975771 0.79426873
10.109486 -8.9186058 0.78369695
9.9257641 -8.8654175 0.77364796
9.7845469 -8.8478127 0.76685178
9.6932564 -8.8739767 0.76394743
9.4680262 -8.7751665 0.75041324
9.4307489 -8.8488073 0.75174922
9.3769999 -8.9071941 0.75180733
9.3243284 -8.9666386 0.75198156
9.2913094 -9.0452709 0.75378227
9.2150135 -9.081789 0.75209779
9.137207 -9.1163015 0.75029707
9.0712662 -9.1622629 0.74948388
4.5204329 -4.6220126 0.37546328
4.4760346 -4.6331487 0.37412727
4.3034806 -4.5095763 0.36198714
4.2729902 -4.5329909 0.3617548
4.1379752 -4.4991131 0.35495865
4.072701 -4.4830375 0.35170579
4.0531178 -4.5168595 0.35240284
4.0107594 -4.5252075 0.35112494
3.9395196 -4.500154 0.3472912
3.8922453 -4.501586 0.3455486
3.8295438 -4.4843879 0.34241191
3.8174026 -4.5261164 0.343806
3.6880066 -4.4831862 0.33706793
3.7454047 -4.6103382 0.34490964
3.6008544 -4.4883919 0.33410552
3.5614681 -4.4955339 0.33300185
3.5141344 -4.4921393 0.33114308
3.4523313 -4.4693727 0.32789022
3.4048653 -4.4642758 0.32597336
3.3407779 -4.4364357 0.32243007
3.3045599 -4.4448333 0.32155877
3.2677739 -4.4521489 0.32062939
3.2280943 -4.4551387 0.31940958
3.1797903 -4.4456296 0.31731844
3.1501496 -4.4617944 0.3170861
3.1267085 -4.486773 0.31749269
3.0753596 -4.4713259 0.31505305
3.0501087 -4.4934163 0.31528541
3.0080354 -4.4904814 0.31377515
2.881263 -4.4175148 0.30616578
2.8346562 -4.4048882 0.30407467
2.8139956 -4.432312 0.30477169
2.7729697 -4.4274969 0.30326146
2.7405045 -4.4359345 0.30268058
2.7049232 -4.4390264 0.3017512
2.6457546 -4.4024863 0.29814982
2.6069858 -4.3988843 0.29681382
2.5839751 -4.4216928 0.29727852
2.5363624 -4.401999 0.29489696
2.5033882 -4.4070621 0.29419991
2.4836154 -4.4354057 0.29507121
2.4520123 -4.4426951 0.29454842
2.4061038 -4.4234538 0.29228306
2.3803315 -4.440774 0.29245731
2.3441811 -4.4385233 0.29135367
2.2855711 -4.392601 0.28740376
2.2822521 -4.4527407 0.29042429
2.2319448 -4.4212089 0.28746185
2.1972203 -4.4196234 0.28647438
2.1683049 -4.4294353 0.28624204
2.1207168 -4.4003878 0.28351197
2.0825527 -4.3898659 0.2820017
2.0458646 -4.3817558 0.2806657
2.0068543 -4.367919 0.27898118
1.9763149 -4.371963 0.27845842
1.9441792 -4.3721485 0.27770329
1.908916 -4.3647876 0.27648345
1.8773659 -4.3654122 0.27578643
1.8509336 -4.377769 0.27584451
1.8202065 -4.3798251 0.27526364
1.7921659 -4.3881383 0.27508938
1.7618614 -4.3907137 0.27456659
1.7272004 -4.3819375 0.27334678
1.6981188 -4.3868666 0.27299824
1.671524 -4.3981366 0.27305633
1.6441573 -4.4073749 0.27299824
1.6098772 -4.3976932 0.27177843
1.5990576 -4.4525876 0.27456659
1.5518103 -4.405818 0.27108139
1.5231184 -4.4105387 0.27079096
1.4569391 -4.39289 0.26858366
1.4222474 -4.3780098 0.26713148
1.392332 -4.3771405 0.26655063
1.362184 -4.3751159 0.26591167
1.3280414 -4.3595171 0.26445949
1.2981318 -4.3570595 0.26382056
1.2669069 -4.3496065 0.26289114
1.2369153 -4.3457761 0.26219413
1.2118311 -4.359055 0.26254264
1.18297 -4.3587008 0.26207796
1.1546701 -4.3600869 0.26172942
1.1286441 -4.3699894 0.26190367
1.1001035 -4.3700557 0.26149708
1.0744573 -4.3815718 0.2617875
1.0475522 -4.3880816 0.2617875
1.0197046 -4.3905373 0.26155517
0.9925257 -4.3957372 0.26149708
0.96254134 -4.3880925 0.26068386
0.93539053 -4.3929396 0.26062578
0.91124451 -4.4122839 0.261439
0.88513345 -4.4226866 0.26172942
0.85646081 -4.4201937 0.26126474
0.8306098 -4.4322348 0.26167133
0.8012647 -4.4254594 0.26097429
0.77426726 -4.4312763 0.26103237
0.74888611 -4.4467726 0.26167133
0.72941256 -4.4995713 0.26451758
0.70025343 -4.4940982 0.26393673
0.67546928 -4.5170693 0.26504037
0.65071267 -4.5418816 0.26626018
0.62256104 -4.5438108 0.26614401
0.59648061 -4.5614038 0.26695722
0.56946766 -4.5729032 0.26742193
0.54174989 -4.5792856 0.26759619
0.52297884 -4.6658602 0.27247548
0.5030604 -4.7513809 0.27729666
0.48607069 -4.8765655 0.28444135
0.48177329 -5.1537948 0.30047327
0.45126921 -5.1695833 0.3012284
0.6094411 -7.514595 0.43796462
0.57077742 -7.6177454 0.4437733
0.52429891 -7.6250882 0.44400564
0.47750238 -7.6281614 0.44400564
0.43085653 -7.6339374 0.44417989
0.38500965 -7.6563787 0.44534165
0.33789179 -7.6556053 0.44516736
0.29060856 -7.6495533 0.44470268
0.24334881 -7.6412144 0.44412181
0.19643298 -7.6415658 0.44406372
0.149444 -7.6376362 0.4437733
0.10257753 -7.6384101 0.4437733
0.055844996 -7.6578631 0.44487694
0.0088618174 -7.6630526 0.44516736
-0.038252927 -7.6819305 0.44627103
-0.085176304 -7.6625843 0.44516736
-0.13108751 -7.5980358 0.44144982
-0.17971578 -7.682919 0.44644529
-0.22703089 -7.6876593 0.44679379
-0.27419722 -7.6861215 0.44679379
-0.32581934 -7.7910199 0.4530091
-0.3745752 -7.8088179 0.45417082
-0.43295363 -7.9997611 0.46543965
-0.63580698 -10.547001 0.61408365
-0.70382047 -10.592708 0.616988
-0.78304917 -10.78434 0.62843108
-5.6414809 -71.594635 4.177938
-6.113215 -71.941635 4.2003016
-6.613255 -72.547005 4.2379417
-8.7754774 -84.748787 4.9567652
-9.8286142 -84.753716 4.9637356
-10.367964 -84.851357 4.9730878
-10.923758 -85.061417 4.9892359
-9.2875881 -53.888035 3.1809952
-9.573638 -53.581398 3.1662991
-9.8955069 -53.485325 3.16415
-10.236448 -53.491253 3.1681581
-8.552392 -43.25201 2.5646367
-8.3839703 -35.4823 2.1206796
-8.5280428 -35.127506 2.1025567
-8.7318296 -35.028023 2.0997684
-7.7718644 -30.38168 1.8239726
-7.8504653 -29.923027 1.7992857
-7.9094739 -29.411547 1.771404
-8.0531969 -29.229643 1.763388
-8.2332077 -29.18256 1.7635623
-6.1285233 -21.223532 1.2846371
-6.2091351 -21.017982 1.2744719
-6.2051725 -20.539888 1.247752
-6.3419857 -20.53672 1.2499012
-6.5144424 -20.644985 1.2589047
-6.6137381 -20.52006 1.2537349
-6.7498212 -20.510386 1.2556518
-6.9384861 -20.65596 1.2671529
-7.0466475 -20.559168 1.263842
-7.1575074 -20.472195 1.26117
-7.2792997 -20.417547 1.2605311
-7.4034195 -20.369684 1.2603568
-7.5365887 -20.34634 1.2617509
-7.6715126 -20.326801 1.2634354
-7.8000317 -20.289597 1.2640743
-7.9305663 -20.257158 1.2650619
-6.7860961 -17.025429 1.0657082
-6.7076507 -16.532961 1.0374199
-6.7407703 -16.326319 1.0270224
-6.7596231 -16.091368 1.0148242
-6.8233171 -15.967887 1.0096544
-6.9155951 -15.912901 1.0088412
-7.0001917 -15.840948 1.0069824
-7.1144409 -15.835943 1.0094221
-7.2301364 -15.832857 1.012036
-7.3502636 -15.838 1.0152308
-7.4924412 -15.888313 1.0213879
-7.6497464 -15.967186 1.029462
-7.7606812 -15.946877 1.0312046
-7.8676729 -15.917751 1.0324244
-7.9817648 -15.902189 1.0345737
-8.1045732 -15.902724 1.0378264
-8.2139263 -15.87575 1.0393367
-8.3487825 -15.896641 1.0440418
-8.4898386 -15.927044 1.0494438
-8.607831 -15.912409 1.0519415
-8.7495003 -15.939804 1.0572855
-8.8719139 -15.930299 1.060248
-8.9778414 -15.890338 1.0612354
-8.2327681 -14.365107 0.96266222
-8.2816219 -14.247001 0.95813143
-8.2857351 -14.05488 0.94860524
-8.3313503 -13.936083 0.9440164
-8.2997446 -13.691764 0.93088877
-8.3616438 -13.604859 0.92844915
-8.4233189 -13.518558 0.92606759
-8.5007772 -13.458179 0.92548668
-8.5950375 -13.424262 0.92676461
-8.6603985 -13.345311 0.92496395
-8.7443151 -13.295257 0.92519629
-8.8528595 -13.282057 0.92804253
-8.9833632 -13.300286 0.93315417
-9.0851011 -13.274574 0.93524528
-9.1788969 -13.236627 0.9365232
-9.3563604 -13.317288 0.94628173
-9.4749479 -13.31168 0.94999933
-9.5891466 -13.298638 0.9532522
-9.6358232 -13.191987 0.94982505
-8.4875441 -11.181895 0.81610936
-8.6083231 -11.197671 0.82110482
-8.6915874 -11.163546 0.82249892
-8.5794296 -10.881098 0.80553758
-8.7499733 -10.821572 0.80902278
-8.8041916 -10.753003 0.80791914
-8.8553505 -10.681104 0.80658311
-8.8995399 -10.601335 0.80466628
-8.9799385 -10.564785 0.80606037
-9.0595722 -10.52689 0.80739635
-9.0951357 -10.437985 0.80484051
-9.2679853 -10.505505 0.81442481
-9.348897 -10.467052 0.81587702
-9.4196415 -10.416897 0.81645787
-9.6701126 -10.562867 0.8325479
-9.7394934 -10.508459 0.83295453
-9.8263311 -10.472526 0.83487135
-9.9130936 -10.435921 0.83678824
-10.020536 -10.420231 0.84044772
-10.099606 -10.374288 0.84172559
-8.4973507 -8.6220207 0.7036534
-8.4725313 -8.4919815 0.6972639
-8.49681 -8.4124432 0.6949985
-8.5339928 -8.3461895 0.69383675
-8.5297575 -8.2402601 0.68936408
-8.5628242 -8.1712275 0.68796998
-8.6004505 -8.1068916 0.68698251
-8.5776968 -7.9866209 0.68123192
-8.6052313 -7.9142404 0.67954743
-8.6100321 -7.8216867 0.67612028
-8.8183613 -7.9127192 0.688667
-8.6911736 -7.7028589 0.67501664
-8.7457848 -7.6559615 0.67559749
-8.7480402 -7.5636315 0.6721704
-8.7927666 -7.5085154 0.67205423
-8.8608036 -7.4730873 0.67373872
-8.9141617 -7.4249668 0.67431962
-9.0081253 -7.4100852 0.67797905
-9.0913916 -7.3855162 0.68082529
-9.2533436 -7.423296 0.6895383
-9.6148615 -7.6168156 0.71300536
-9.5489721 -7.4697199 0.70469898
-9.624649 -7.4341774 0.70690626
-9.7470827 -7.4337044 0.71254069
-9.8634901 -7.4272017 0.71771038
-9.9905977 -7.4272923 0.72363526
-10.104392 -7.4160581 0.72857261
-10.229739 -7.4119058 0.7343232
-10.389519 -7.4308834 0.74251342
-10.567038 -7.4602675 0.7519235
-10.750218 -7.4911733 0.76168209
-10.866721 -7.473721 0.76667756
-10.971022 -7.4467092 0.77080166
-11.16083 -7.4759207 0.78090876
-11.219816 -7.4161062 0.78183818
-11.559449 -7.5390854 0.80228472
-11.6609 -7.5036707 0.80611843
-11.834831 -7.5133066 0.81494761
-12.000854 -7.5157881 0.82319593
-12.399091 -7.5549521 0.84410715
-17.03348 -10.235877 1.1555684
-17.083082 -10.123535 1.1546971
-17.176769 -10.03716 1.1568463
-17.374706 -10.010318 1.166024
-17.509586 -9.9454288 1.1709613
-17.634741 -9.8738956 1.1752597
-17.76754 -9.805541 1.1800809
-18.045742 -9.8151054 1.1945446
-18.492783 -9.9116955 1.2201027
-18.651239 -9.8497868 1.2265503
-19.162992 -9.9701481 1.2561746
-22.483463 -11.522942 1.4692949
-22.619694 -11.418058 1.4735932
-22.63122 -11.250167 1.4698176
-22.62809 -11.075981 1.4651707
-22.657852 -10.918728 1.462731
-22.660381 -10.749119 1.4586068
-22.673445 -10.585381 1.4552379
-22.676281 -10.417721 1.451288
-22.710667 -10.265228 1.4494292
-22.732176 -10.107433 1.4468153
-22.739799 -9.9441624 1.4433881
-22.726101 -9.7725029 1.4386832
-22.743338 -9.6149921 1.4360112
-22.763187 -9.4591722 1.4335715
-22.76627 -9.2970543 1.4301444
-22.777487 -9.1389732 1.4272982
-22.817347 -8.9928179 1.4263107
-22.844164 -8.8418341 1.4245681
-22.89332 -8.6997252 1.4242777
-22.944401 -8.5583925 1.4241614
-23.006794 -8.4212217 1.4248004
-23.105949 -8.2971029 1.4277629
-23.481287 -8.269577 1.4478028
-24.039267 -8.3006372 1.4790534
-28.033945 -9.4878254 1.7213333
-28.248932 -9.367795 1.7309756
-28.773024 -9.3460207 1.7595544
-31.649647 -10.066115 1.9317235
-31.710815 -9.871727 1.9317235
-31.856739 -9.703146 1.9369513
-31.94725 -9.5168991 1.9388682
-32.203453 -9.3784752 1.9508921
-35.711311 -10.162745 2.1596558
-35.704704 -9.9244528 2.1555316
-36.147427 -9.8089781 2.1785922
-36.228161 -9.5926189 2.1798701
-36.323071 -9.3796301 2.1820774
-36.914341 -9.2910824 2.2141411
-37.110279 -9.0986366 2.2225058
-37.210075 -8.881422 2.2251778
-37.362087 -8.6757441 2.2310445
-46.989513 -9.1026697 2.7842045
-52.958172 -9.2509308 3.1273229
-87.095428 -12.474252 5.1186528
-151.35382 -18.841427 8.8737869
-85.792961 -9.0798683 5.0190344
-85.100388 -6.899549 4.9671044
-13.138613 -0.17628936 0.76383126
-14.030279 -0.016050482 0.81564468
-14.053075 0.070152961 0.81698066
-13.987494 0.15565665 0.813205
-13.791467 0.74655783 0.80292368
-13.766697 0.82996482 0.80176193
-13.219951 1.1231885 0.7712664
-27.726976 2.527411 1.6192749
-27.70101 2.6965256 1.6186939
-85.579926 8.8615417 5.005384
-8.5472069 0.99100167 0.49994317
-8.5013275 1.0385844 0.49761972
-8.172987 1.0493999 0.47874153
-7.635097 1.0279806 0.44754893
-7.526825 1.0604609 0.44156599
-7.3779521 1.0856917 0.43320149
-7.1422229 1.0958109 0.41972539
-6.9815784 1.1150477 0.41066384
-6.8643041 1.1395503 0.40415815
-6.894567 1.1880909 0.40636542
-6.7623386 1.2080721 0.39898843
-6.6841202 1.2364655 0.39480618
-6.6126733 1.2652584 0.39103052
-6.5822606 1.301355 0.38969454
-6.5115504 1.3289403 0.38597697
-6.4866667 1.3653733 0.3849895
-6.4167027 1.3918149 0.38133004
-6.3554296 1.4194089 0.37819335
-6.3106017 1.450105 0.37604415
-6.2539787 1.4775497 0.37319788
-6.1894979 1.5024705 0.36988696
-6.1695065 1.537764 0.369248
-6.1406116 1.5706421 0.36808625
-6.1125121 1.6034772 0.36698261
-6.0668879 1.6313598 0.36483341
-6.0394397 1.6637816 0.36378783
-6.0243134 1.6994522 0.36349741
-6.0041814 1.7336152 0.36291653
-5.9915161 1.7698578 0.36280036
-5.9442291 1.7956165 0.36059308
-5.9254684 1.8296993 0.36012837
-5.916986 1.8669239 0.36030263
-5.9044695 1.9028884 0.36024454
-5.8737168 1.9328402 0.35908282
-5.8361955 1.9602611 0.35751447
-5.8127246 1.9921501 0.35681742
-5.7890835 2.0238249 0.35612038
-5.7577496 2.0526028 0.35495865
-5.7450466 2.087893 0.35495865
-5.7265105 2.1210241 0.35461015
-5.7021804 2.1518912 0.3539131
-5.6898012 2.187197 0.35397118
-5.6855698 2.2257071 0.35455206
-5.6912804 2.2683136 0.35577187
-5.6615291 2.2968116 0.3547844
-5.6270289 2.3231249 0.35350648
-5.606226 2.3549013 0.35309988
-5.6026874 2.3939638 0.35379693
-5.5943017 2.4310815 0.35420352
-5.567409 2.4601159 0.35344839
-5.5494771 2.4930031 0.35327414
-5.5313516 2.525763 0.35309988
-5.4903946 2.547888 0.35147345
-5.4584045 2.5738635 0.3504279
-5.44521 2.6086013 0.35060215
-5.4183297 2.6367211 0.3499051
-5.3939943 2.6659365 0.34938234
-5.3748584 2.6976397 0.34920806
-5.3377471 2.7201424 0.34787208
-5.3094296 2.7468791 0.34711695
-5.3136868 2.7905459 0.34851104
-5.3123217 2.8315504 0.3495566
-5.3062625 2.8702679 0.35031173
-5.2771745 2.8965275 0.3495566
-5.2549415 2.9264245 0.34926614
-5.2438397 2.9625416 0.34973085
-5.2489491 3.0080645 0.3512992
-5.2631903 3.0592802 0.35350648
-5.2589393 3.1001358 0.35449398
-5.2458162 3.1359317 0.35490057
-5.1769614 3.1380446 0.35153154
-5.1788721 3.1828191 0.35298371
-5.1583977 3.2140081 0.35292563
-5.1554604 3.2562621 0.35408735
-5.1538796 3.2996769 0.35536528
-5.135211 3.3323255 0.35548145
-5.1205058 3.3676119 0.35588804
-5.1155295 3.4094872 0.35699168
-5.0986495 3.4436052 0.35728213
-5.078248 3.475389 0.35734022
-5.0691328 3.5150166 0.35821152
-5.0719752 3.5632713 0.35995412
-5.0670958 3.6064827 0.36117393
-5.040823 3.6345863 0.3608835
-5.0224571 3.6683922 0.36117393
-5.0126939 3.7086408 0.36210331
-5.0154076 3.758487 0.36396211
-4.9914565 3.7885864 0.36390403
-4.978405 3.8270519 0.36465913
-4.9548287 3.857527 0.36465913
-4.9624238 3.9125817 0.36698261
-4.9687476 3.9672508 0.369248
-4.9675999 4.0164948 0.3709906
-4.9351377 4.040575 0.37040973
-5.017077 4.1593485 0.3784838
-5.0595107 4.2471819 0.38365352
-5.0531321 4.2949572 0.38516375
-5.2786536 4.5427365 0.40450665
-5.3251934 4.6399689 0.41025725
-5.2726669 4.651422 0.40839848
-5.2544508 4.6929975 0.40921167
-5.2907166 4.7840738 0.4143233
-5.461545 4.9998078 0.43012291
-5.4856782 5.0841217 0.43447942
-5.5861483 5.2413278 0.44499311
-5.6074443 5.3263845 0.44929153
-5.6156716 5.4001341 0.45260248
-5.583147 5.4351859 0.45266056
-5.8874278 5.8022051 0.48025176
-5.8495955 5.8361049 0.48007751
-5.801033 5.8591175 0.47903195
-5.8787475 6.0109406 0.48850009
-5.8410606 6.0461807 0.488442
-5.8010955 6.0790181 0.48820966
-5.7705331 6.1217628 0.48879051
-5.7587128 6.1848197 0.49099782
-5.7936392 6.2993975 0.49727118
-5.780386 6.3629079 0.49947849
-5.9552498 6.6367741 0.51812434
-6.0521407 6.8285918 0.53020638
-6.1067867 6.9760208 0.53874511
-6.2486444 7.2270799 0.55518371
-6.296886 7.3738484 0.56349009
-6.3036547 7.4741616 0.5681951
-6.2653418 7.5219045 0.56889218
-23.727631 31.917276 2.3133533
-22.377323 32.968613 2.3177099
-12.66809 19.423857 1.3485906
-12.575139 19.542356 1.3514369
-12.543276 19.758215 1.3610212
-12.453596 19.885572 1.3645064
-12.569545 20.347206 1.3908777
-12.616394 20.706135 1.4101044
-7.7503433 13.078315 0.88383853
-7.633183 13.062701 0.8795982
-7.5678387 13.135242 0.8813408
-7.4974542 13.19966 0.88256061
-7.4431453 13.293324 0.88575536
-7.7463598 14.036234 0.93210858
-7.5740018 14.131116 0.9321667
-9.4339476 17.863802 1.174737
-9.2034407 17.689318 1.1595182
-9.0797024 17.716139 1.1576014
-8.9834232 17.796471 1.1592277
-8.816287 17.735043 1.1516765
-8.6967678 17.767284 1.1502824
-7.356792 15.266191 0.98531604
-11.250134 23.7166 1.5266265
-11.062168 23.694725 1.5208178
-10.926574 23.783928 1.5222119
-10.659546 23.583073 1.5051343
-8.7062168 19.908865 1.2636096
-12.739292 29.625574 1.8756697
-12.577875 29.751919 1.8787483
-9.1759043 22.469595 1.4114985
-12.045209 30.021015 1.8814204
-8.9225378 22.639019 1.415158
-8.6843662 22.437311 1.3991841
-8.4743109 22.718977 1.4101626
-8.7355394 23.865532 1.4780079
-8.6311111 24.036129 1.4852687
-9.0357027 26.168125 1.6100972
-10.16293 58.179153 3.4357057
-9.4054804 55.862953 3.2954261
-8.6805267 53.562408 3.1564825
-7.9686532 51.155525 3.0116723
-5.7526836 41.999176 2.465831
-5.460712 41.772354 2.4504962
-5.2145343 41.887299 2.4553175
-4.934207 41.722206 2.4438162
-4.5032625 40.191116 2.3524458
-4.1486664 39.198421 2.2927907
-3.7768326 37.905899 2.2157676
-3.468667 37.120251 2.1685431
-3.1485071 36.082653 2.1067388
-2.8427472 35.06147 2.0460382
-2.5553076 34.11359 1.9897522
-2.3015156 33.48225 1.9520538
-2.045532 32.688686 1.9050035
-1.7932464 31.784628 1.8516219
-1.5568446 30.972466 1.8037002
-1.3471955 30.537619 1.7778517
-1.1244608 29.614553 1.7236568
-0.92637718 29.107027 1.693742
-0.72800428 28.342718 1.6489571
-0.54645741 27.956385 1.6262453
-0.37481633 27.952227 1.6258386
-0.20339194 27.966978 1.6265937
-0.03182542 28.002638 1.6286268
0.14016108 28.03525 1.6305437
0.31265786 28.076786 1.6330414
0.48622155 28.149204 1.6373979
0.66045189 28.210562 1.6411735
0.83542401 28.269844 1.6448911
1.0114334 28.336018 1.6490734
1.1869504 28.369175 1.6513968
1.3638217 28.420191 1.6548239
