# .PCD v0.7 - Point Cloud Data file format
VERSION 0.7
FIELDS x y z
SIZE 4 4 4
TYPE F F F
COUNT 1 1 1
WIDTH 1534
HEIGHT 1
VIEWPOINT 0 0 0 1 0 0 0
POINTS 1534
DATA ascii
8.6957712 3.0771995 1.7123408
8.7822924 3.0473175 1.7256815
8.8855247 3.0221887 1.7423118
8.9719877 2.9903097 1.7556527
9.0770836 2.963587 1.7726485
9.1756315 2.9335895 1.7883649
9.2356806 2.890451 1.7965887
9.3181047 2.8535964 1.8091985
9.4211416 2.8220465 1.8258288
9.5090437 2.7849162 1.839535
9.5467463 2.7324705 1.8435556
29.042854 3.6616576 5.4389853
0.9686321 0.097356491 0.17870003
0.98150545 0.086506769 0.18089303
0.9643811 0.079024605 0.17760353
0.9491632 0.071905881 0.17467953
0.91526073 0.063666359 0.16828327
0.9097473 0.057671472 0.16718677
0.89143538 0.051006474 0.16371451
0.85049427 0.043397393 0.156039
0.8605659 0.038626924 0.15786649
0.81493974 0.021520445 0.14927723
0.85339105 0.017329771 0.1564045
0.86724401 0.012299502 0.15896299
0.87615126 0.0070563355 0.16060776
0.9054662 0.002947463 0.15012991
0.90152258 -0.0025962512 0.14946698
0.89951742 -0.0081096496 0.1491355
0.8955065 -0.01356825 0.14847256
0.89343446 -0.019020326 0.14814109
0.89132935 -0.02444749 0.14780961
0.88919139 -0.029849539 0.14747813
0.88800609 -0.03526561 0.1473124
0.88875812 -0.040759034 0.14747813
0.88947618 -0.046263017 0.14764388
0.88917553 -0.051719867 0.14764388
0.89080966 -0.05730179 0.14797534
0.89634365 -0.063183911 0.14896977
0.89593905 -0.068682581 0.14896977
0.8974663 -0.074341893 0.14930123
0.89502877 -0.079671964 0.14896977
0.89452296 -0.085162252 0.14896977
0.89398366 -0.090649344 0.14896977
0.8992936 -0.096767269 0.14996418
0.89574343 -0.10194824 0.14946698
0.89118457 -0.10697156 0.14880402
0.89246815 -0.11268523 0.1491355
0.89762551 -0.11893763 0.15012991
0.88711101 -0.12308577 0.14847256
0.8843872 -0.12824321 0.14814109
0.88553369 -0.13396271 0.14847256
0.89053977 -0.14031588 0.14946698
0.88284999 -0.14465982 0.14830682
0.87708491 -0.14924599 0.14747813
0.85867238 -0.15153615 0.14449489
32.260334 -6.109314 5.5160027
32.185463 -6.2999458 5.5097046
31.726688 -6.4125199 5.4377751
32.667595 -6.8115964 5.606163
37.831867 -8.618001 6.5188723
31.195318 -7.3078084 5.382585
31.077442 -7.683682 5.3781104
30.880602 -8.0383863 5.3607082
30.980347 -8.4716196 5.3956785
33.53167 -9.3908062 5.8501267
33.396629 -9.5743608 5.8367023
37.756454 -11.075446 6.6106901
33.454205 -10.036746 5.8678608
34.349461 -11.465064 6.0838146
29.659973 -12.822523 5.428494
29.382126 -12.916956 5.3920321
28.674616 -13.028115 5.2910991
28.772306 -13.286088 5.3240805
17.643625 -8.411355 3.2828741
16.926899 -8.1975012 3.1587379
17.398376 -8.5580254 3.2565222
17.144392 -8.5641384 3.2187343
17.109989 -8.6785412 3.2222147
17.270344 -8.8935289 3.2626543
16.934908 -8.8526754 3.2094531
16.727821 -8.8755293 3.1804492
17.299082 -9.3151131 3.2999451
17.208714 -9.4031143 3.2936471
17.214518 -9.5439129 3.3059115
17.60087 -9.8997936 3.3917627
17.067837 -9.7383146 3.3004422
17.070923 -9.8794117 3.3127067
16.69105 -9.7967701 3.2505558
16.834002 -10.020059 3.2903323
16.689461 -10.073221 3.2740903
16.451538 -10.067848 3.2394514
16.611519 -10.306383 3.2833714
16.506227 -10.381863 3.2750845
16.645943 -10.612839 3.31569
16.546551 -10.692831 3.3088949
16.508678 -10.81253 3.3145299
16.437092 -10.910349 3.3135355
22.228142 -30.953362 6.4023595
21.898645 -30.892859 6.3619199
21.541899 -30.788277 6.3130279
21.247789 -30.768127 6.2820354
21.043602 -30.875921 6.2775602
20.523525 -30.513485 6.1781187
19.992884 -30.122015 6.0738707
19.665045 -30.026325 6.0301161
19.395868 -30.015553 6.0039301
19.204441 -30.12319 6.0017753
18.742559 -29.800522 5.9144325
18.302526 -29.50099 5.8325586
18.029545 -29.463009 5.8030577
17.691984 -29.313877 5.7521768
17.498671 -29.399847 5.7478676
17.140743 -29.204735 5.6890311
16.714745 -28.883434 5.606329
16.43507 -28.806427 5.5716901
16.194193 -28.793268 5.5498128
15.826914 -28.548817 5.48385
15.598485 -28.548466 5.4652877
15.258451 -28.337996 5.4069486
15.006638 -28.284731 5.3791046
14.719508 -28.159534 5.3380022
14.480985 -28.12219 5.3139706
14.301912 -28.1982 5.3116503
14.125538 -28.279249 5.3104901
13.966116 -28.394592 5.3159595
13.356658 -27.581524 5.1482344
13.135821 -27.555246 5.12818
12.904922 -27.504087 5.103817
12.65365 -27.404581 5.0708356
12.455892 -27.417061 5.0589027
12.295074 -27.510078 5.0620518
11.985956 -27.266315 5.0035467
11.787123 -27.26693 4.9902878
11.557876 -27.193525 4.9637699
11.225429 -26.868103 4.891675
10.991811 -26.769531 4.8613453
10.747282 -26.638016 4.8253803
10.528402 -26.564106 4.8001885
10.322284 -26.517927 4.7803001
10.130156 -26.504305 4.7665439
9.9784231 -26.59551 4.7718477
9.7782478 -26.55629 4.7539482
9.5430794 -26.416374 4.7183146
9.2852964 -26.204865 4.6702514
9.076107 -26.122545 4.6455564
8.8282204 -25.921026 4.5999794
8.6268597 -25.848421 4.5776048
8.4392881 -25.812757 4.5620255
8.2335358 -25.716599 4.536005
8.0369511 -25.643358 4.5142937
7.8438902 -25.576221 4.4939079
7.6445899 -25.483126 4.4692135
7.4450636 -25.382874 4.4435244
7.2505903 -25.293465 4.4199896
7.0681314 -25.240614 4.4030848
6.8954391 -25.218822 4.3918147
6.707263 -25.135836 4.3701034
6.5218573 -25.05722 4.3493862
6.3366985 -24.973459 4.3280063
6.1554189 -24.898903 4.3084493
5.9866018 -24.870047 4.2970138
5.8001542 -24.762283 4.2721534
5.6248922 -24.695482 4.2545853
5.4549313 -24.646725 4.2403316
5.2700343 -24.523539 4.2134824
5.108191 -24.501348 4.2042012
4.9429111 -24.458767 4.1916056
4.7720966 -24.383144 4.1735401
4.6027641 -24.308289 4.1558065
4.444294 -24.285629 4.1471882
4.2764969 -24.206589 4.1291227
4.1058626 -24.103075 4.10708
3.9470372 -24.06164 4.0958099
3.7828825 -23.981173 4.0780764
3.6241467 -23.927879 4.0651488
3.4633741 -23.854025 4.0489068
3.3085303 -23.814264 4.038631
3.151581 -23.752975 4.0248747
2.9952617 -23.688704 4.0107875
2.8370252 -23.599913 3.992722
2.6874747 -23.575724 3.9857612
2.5373769 -23.541763 3.9773085
2.3826153 -23.455833 3.9602377
2.2315323 -23.395403 3.9476418
2.0827701 -23.3507 3.9378633
1.9312142 -23.263779 3.921124
1.7845813 -23.225044 3.9126716
1.6396085 -23.201128 3.9068708
1.4915056 -23.122179 3.8919544
1.3453525 -23.058044 3.8796899
1.2012761 -23.016621 3.8714032
1.0570785 -22.959526 3.8606303
0.91358757 -22.900545 3.8496919
0.77102667 -22.845596 3.839582
0.62922895 -22.791735 3.8298035
0.48793089 -22.728125 3.8185334
0.3475883 -22.6735 3.8089206
0.20791632 -22.616037 3.7989764
0.06890548 -22.53898 3.7858834
-0.069304109 -22.51038 3.7810769
-0.2072147 -22.486851 3.7772651
-0.34393042 -22.403313 3.763509
-0.48030707 -22.350496 3.7550564
-0.61634833 -22.307697 3.7484269
-0.74838668 -22.160583 3.7243953
-0.88619637 -22.201887 3.7321849
-1.0386559 -22.548706 3.7915184
-1.1985416 -22.954552 3.8609619
-1.3684461 -23.44492 3.9448242
-1.5357746 -23.800205 4.0061469
-1.7202413 -24.33433 4.0977988
-1.9045165 -24.77857 4.1745348
-2.1038556 -25.336433 4.2706614
-2.3061666 -25.848562 4.3593302
-2.512311 -26.332632 4.4435244
-2.7434218 -27.001545 4.5592079
-2.9641228 -27.495037 4.6455564
-3.2129908 -28.179844 4.764555
-1.4293498 -11.888629 2.0103521
-1.5271416 -12.076288 2.0436652
-1.6320895 -12.299359 2.0831103
-1.7115984 -12.318418 2.0880826
-4.5967345 -31.654579 5.3736353
-4.9307599 -32.549145 5.5305877
-2.6047654 -16.510559 2.8070457
-2.7207127 -16.583796 2.8222935
-2.7886286 -16.368469 2.7884834
-2.8867803 -16.338427 2.7863288
-2.9575031 -16.159376 2.7588165
-3.2489078 -17.156382 2.932508
-3.233252 -16.518665 2.8267684
-3.182349 -15.745516 2.69766
-3.2402513 -15.540336 2.6658387
-3.3297417 -15.493165 2.6611979
-3.3904283 -15.317422 2.6345146
-3.4990261 -15.360753 2.6456189
-3.6408985 -15.542551 2.6807549
-3.7613571 -15.624425 2.6988201
-3.8453209 -15.553185 2.6905334
-3.9181218 -15.440401 2.6751199
-3.9285703 -15.09254 2.6189353
-4.2748771 -16.019068 2.7843399
-4.1946421 -15.339982 2.670645
-4.2620916 -15.218992 2.6540713
-4.3423476 -15.147051 2.646116
-4.657279 -15.877157 2.7787049
-4.7293897 -15.764216 2.7639544
-4.8031831 -15.660418 2.7508612
-4.7401986 -15.123438 2.6615295
-5.1188993 -15.987246 2.8191445
-5.0382171 -15.409069 2.7225204
-5.1738853 -15.501343 2.7443976
-5.1862311 -15.226594 2.7013061
-5.3507733 -15.399423 2.7377682
-5.4217744 -15.300303 2.7260008
-5.4890804 -15.193477 2.7129076
-5.606739 -15.22614 2.7248406
-5.7201538 -15.245004 2.7344534
-6.1561913 -16.105913 2.8957145
-6.2463131 -16.045782 2.891737
-6.0939126 -15.374578 2.777379
-6.265995 -15.529861 2.8123493
-7.072928 -17.224394 3.127248
-7.0963583 -16.984127 3.091449
-6.3505688 -14.940859 2.7263322
-6.4339066 -14.882602 2.7228518
-6.564395 -14.93222 2.7392597
-6.7078061 -15.007802 2.7606397
-7.5834084 -16.691116 3.0790188
-10.356893 -22.428949 4.1498399
-10.498089 -22.373013 4.1513314
-10.708165 -22.461287 4.1798382
-11.264453 -23.259645 4.3412652
-12.604426 -25.624466 4.7972054
-11.379365 -22.780006 4.2774568
-12.658739 -24.956873 4.7009125
-12.713206 -24.687601 4.664782
-11.910503 -22.784306 4.3187251
-12.206775 -23.006111 4.3749094
-12.217258 -22.688528 4.3286691
-12.459331 -22.801794 4.3647995
-12.595658 -22.718878 4.3636394
-12.742073 -22.654057 4.3661256
-38.774136 -63.358513 12.481727
-11.575518 -18.657026 3.6879332
-37.017159 -42.646564 9.4885321
-37.290504 -42.432705 9.4916811
-36.702843 -40.744591 9.2140732
-36.477684 -39.99836 9.0957375
-39.824825 -42.085785 9.7356443
-37.50621 -38.673698 9.0519829
-37.74004 -38.440022 9.0513201
-37.950859 -38.18325 9.0455198
-33.924622 -33.716072 8.0361862
-33.954224 -33.333874 7.9945865
-33.912457 -32.886677 7.9370761
-34.216156 -32.776207 7.9609423
-34.542698 -32.68494 7.9901118
-34.805996 -32.531631 8.0046968
-34.981766 -32.296047 7.999393
-2.5780718 -2.3512378 0.58435857
-2.5997777 -2.341975 0.58601594
-2.6413596 -2.3502324 0.59214818
-2.6609163 -2.3385379 0.59330833
-2.6692572 -2.3169954 0.59198242
-2.6721928 -2.290946 0.58949637
-2.6869521 -2.2751439 0.58966213
-37.12199 -31.040421 8.1303244
-37.330002 -30.827131 8.1343021
-52.133919 -42.516788 11.30384
-49.125732 -39.564117 10.598633
-52.637074 -41.86216 11.300691
-49.723881 -39.049656 10.623493
-50.006191 -38.77766 10.632774
-44.593212 -33.712051 9.3929024
-44.91935 -33.527458 9.4180946
-38.412518 -28.30551 8.0169611
-38.462662 -27.979942 7.9914374
-38.007217 -27.293585 7.8618321
-37.775719 -26.777565 7.7797928
-37.431873 -26.190233 7.6757102
-37.112282 -25.628876 7.5777602
-36.639736 -24.971909 7.4498119
-36.497684 -24.548485 7.3901467
-36.088074 -23.952692 7.2772808
-35.788872 -23.439047 7.1877832
-35.618095 -23.016157 7.124969
-35.301292 -22.5056 7.0338144
-34.62146 -21.774572 6.8715587
-34.429268 -21.36001 6.8072529
-34.812878 -21.303293 6.8571396
-35.105888 -21.187632 6.8891268
-33.310726 -19.82638 6.5127397
-35.575878 -20.880024 6.9305606
-35.783558 -20.707771 6.9461398
-33.367653 -19.037373 6.4542351
-32.944038 -18.528679 6.350153
-32.850105 -18.211433 6.3103762
-32.805458 -17.924414 6.2805433
-32.504112 -17.501646 6.2021503
-25.71221 -13.641789 4.8896861
-32.067951 -16.76248 6.079174
-24.469601 -12.600182 4.6235137
-24.55261 -12.452924 4.6246738
-31.501173 -15.734871 5.9157581
-31.378553 -15.43378 5.8748217
-24.515833 -11.872087 4.5757818
-24.663885 -11.757506 4.5898695
-24.818592 -11.644907 4.6052828
-30.331442 -14.005061 5.612627
-30.292002 -13.76199 5.5895896
-30.337156 -13.558559 5.5824628
-24.928074 -10.95811 4.5742903
-22.474728 -9.7155552 4.1128807
-23.172867 -9.8490334 4.2295589
-29.630705 -12.379616 5.3948498
-29.696983 -12.193828 5.3931923
-29.786791 -12.017653 5.3960099
-30.058914 -11.913507 5.4319744
-30.271137 -11.783217 5.4571667
-24.992647 -9.5523987 4.4945712
-31.417583 -11.568181 5.6245599
-31.593708 -11.413385 5.6434541
-31.822098 -11.275636 5.6717949
-31.849697 -11.065926 5.6645021
-25.390789 -8.6476355 4.5058413
-25.391922 -8.4745073 4.4967256
-32.329193 -10.569738 5.7142234
-25.818972 -8.2663116 4.5540705
-25.691353 -8.0519924 4.5227461
-33.101879 -10.151854 5.8168139
-30.838923 -9.251215 5.4089375
-30.874289 -9.0557108 5.4052911
-25.829079 -7.4041247 4.5136309
-33.677223 -9.4305706 5.8754845
-25.953192 -7.0962276 4.519763
-33.169167 -8.8508205 5.7674246
-33.091148 -8.612854 5.7445531
-32.992344 -8.3713274 5.7183666
-32.882252 -8.128973 5.6905231
-32.782898 -7.8912859 5.664834
-32.663631 -7.6508527 5.6359959
-32.647461 -7.4360528 5.6252227
-34.787678 -7.699297 5.9858646
-34.81884 -7.4823837 5.9832129
-37.223564 -7.7604971 6.3882718
-34.697311 -7.0119557 5.9470825
-34.707745 -6.7926745 5.9416132
-38.248634 -7.2422543 6.5402522
-38.745373 -7.0903282 6.617651
-38.801743 -6.8548594 6.6199713
-39.254303 -6.6866946 6.6900773
-39.4902 -6.4777946 6.7233906
-30.428915 -4.7999229 5.1750836
-30.996021 -4.6946406 5.2665701
-30.720728 -4.460299 5.2150259
-40.815285 -5.6703577 6.9232683
-29.508127 -3.9151378 5.0005636
-30.668474 -3.8777466 5.1931486
-42.658802 -4.8626657 7.2136378
-42.678032 -4.5997682 7.2119808
-29.978334 -3.0451107 5.0620518
-30.144693 -2.8752484 5.0870776
-30.155874 -2.6897042 5.0860834
-32.092182 -2.6640222 5.4099317
-33.375366 -2.5644364 5.6235657
-30.458012 -2.152389 5.1295061
-30.452929 -1.9643192 5.126523
-33.154053 -1.9343358 5.5793142
-32.168491 -1.480993 5.4099317
-10.598978 -0.42293292 1.7806419
-12.558793 -0.42393672 2.1097939
-10.894178 -0.30086154 1.8295341
-11.519922 -0.24740364 1.934445
-12.276542 -0.18828698 2.061399
-45.364052 -0.41685802 7.6221776
-11.902199 -0.036475196 1.9982535
-11.947562 0.036696047 2.0058773
-12.080239 0.11123208 2.0282516
-11.792388 0.18094549 1.9800225
-11.958665 0.2569021 2.0081975
-11.956863 0.33027425 2.0081975
-11.268629 0.38046184 1.8928453
-10.879811 0.43417627 1.8278767
-11.404969 0.5252521 1.9167113
-11.385776 0.59439898 1.9140595
-11.28248 0.658445 1.8973202
-11.366797 0.7333765 1.9122365
-11.396515 0.80554229 1.9180372
-11.352026 0.87243146 1.9114077
-11.24818 0.93390828 1.8948342
-11.357164 1.0131626 1.9142252
-10.840242 1.0341219 1.8280425
-10.649244 1.0818751 1.7968841
-11.178733 1.2050201 1.8875418
-11.208362 1.2778343 1.8938397
-10.909513 1.3116167 1.8446161
-11.863003 1.5001665 2.0075347
-11.606242 1.5401042 1.9656035
-11.640529 1.617398 1.9730616
-11.641121 1.6903514 1.9748846
-12.100501 1.8329452 2.0547695
-10.677526 1.6844584 1.8146179
-10.471385 1.71785 1.7813048
-11.105189 1.8918844 1.8911879
-11.145813 1.9692551 1.9001377
-11.235376 2.0562503 1.91754
-12.053905 2.282594 2.0597415
-11.678681 2.2858503 1.9979221
-11.237188 2.2711098 1.9246666
-9.8772659 2.0593987 1.6936305
-9.830699 2.1127126 1.6878297
-9.789609 2.2299056 1.6853436
-26.596125 6.5756798 4.6022997
-26.468292 6.7166724 4.5872173
-26.474298 6.8913741 4.5955043
-26.451525 7.0590272 4.5989847
-26.305931 7.1933646 4.5812511
-26.110308 7.3123522 4.5548992
-26.069687 7.473783 4.5557275
-26.249937 7.875319 4.6037912
-26.322744 8.0735416 4.6251712
-26.427038 8.2832775 4.6523519
-36.744461 11.765334 6.4820786
-36.668766 11.989653 6.4815817
-36.737633 12.262194 6.5069389
-43.233685 15.022587 7.6899638
-33.994244 17.505863 6.4240708
-34.446617 18.82239 6.594945
-37.72348 20.914557 7.2469511
-34.395828 19.625282 6.6532841
-34.365234 19.888323 6.6708522
-36.629456 21.80311 7.1619282
-32.578991 19.93758 6.41711
-34.06329 21.134321 6.734992
-32.295979 20.313295 6.4099836
-33.123672 21.118652 6.5999169
-32.111362 20.751446 6.423408
-32.363739 21.19718 6.4998126
-31.851826 21.142302 6.4229107
-31.320255 21.347736 6.368052
-31.038958 21.718603 6.3645716
-13.175867 10.611899 2.8411875
-12.956132 10.56664 2.8077087
-12.634043 10.433684 2.7516899
-12.406377 10.374362 2.7158909
-12.121217 10.262938 2.6671646
-11.901539 10.202971 2.6325257
-11.630182 10.094802 2.5861194
-11.316162 9.9446335 2.5297692
-11.05969 9.8401651 2.4858491
-10.962468 9.8748388 2.4775624
-10.722422 9.7784443 2.4367912
-10.504265 9.6982136 2.4006608
-10.320643 9.646657 2.3721542
-10.123728 9.5796595 2.3403327
-9.9102259 9.4935579 2.304368
-9.7335644 9.4395313 2.2766902
-9.5466833 9.3726444 2.2463605
-9.3323174 9.275321 2.2092357
-9.1904182 9.2470722 2.1890159
-9.0360947 9.2040634 2.165647
-8.8297844 9.1050005 2.1295166
-8.6891603 9.0706997 2.1089652
-8.5452271 9.0307226 2.0874195
-8.3731585 8.9583435 2.0587471
-8.2170219 8.9001389 2.033721
-8.0559368 8.8338003 2.0072033
-7.9501014 8.8259106 1.9942758
-7.7810836 8.7455883 1.9652719
-7.6530643 8.7087183 1.9463781
-7.5115724 8.6542244 1.923838
-7.2247028 8.4276161 1.86351
-7.1843262 8.4853354 1.8664932
-7.1194744 8.5141268 1.8631785
-6.989862 8.4641209 1.842793
-6.8760924 8.4311895 1.8263851
-6.7704148 8.4064016 1.8119661
-6.7052021 8.4308043 1.8083199
-6.6618733 8.482646 1.8106402
-6.6042604 8.5163498 1.8091486
-6.5380912 8.538703 1.8053366
-6.4742765 8.5637131 1.8021877
-6.3236895 8.472086 1.7746755
-6.286797 8.5313702 1.7789845
-6.0788565 8.3560591 1.7345673
-5.9906554 8.3419352 1.7239602
-5.9085612 8.3350906 1.7150104
-5.7357564 8.1974621 1.6793772
-5.6702194 8.2105913 1.6749023
-5.6263976 8.2550077 1.6768911
-5.540966 8.2378225 1.6664498
-6.6851835 10.071918 2.0295775
-6.631362 10.125124 2.0320637
-5.2214046 8.0799923 1.6147401
-5.1521134 8.08111 1.6086079
-4.85567 7.7202177 1.5307119
-4.7666168 7.682826 1.517453
-4.6885023 7.6614585 1.5075088
-4.6108298 7.6394234 1.4975647
-4.5366316 7.62181 1.4886149
-4.4603286 7.5993233 1.4788364
-4.3790402 7.5667992 1.467235
-4.2992978 7.5352793 1.4559649
-4.2273593 7.5159612 1.4471809
-4.1606026 7.5046706 1.4400542
-4.1106935 7.5231357 1.4387283
-4.0756755 7.5690556 1.442706
-4.041635 7.6174421 1.4471809
-4.0003014 7.652586 1.4491696
-3.9550765 7.6804943 1.4498327
-3.8976154 7.6843886 1.4460207
-3.878154 7.7637401 1.456462
-3.75471 7.6334133 1.427624
-3.626997 7.4894433 1.3964657
-3.5797012 7.5088868 1.3959684
-3.5084269 7.4771428 1.3860242
-3.4347839 7.4385419 1.3749199
-5.8030329 12.773 2.3557463
-3.313869 7.4144063 1.3628212
-3.2587883 7.4129333 1.3588434
-3.1666768 7.3250694 1.3391209
-3.1124134 7.3225794 1.3351432
-3.0617218 7.3278894 1.3326572
-3.0264404 7.3702564 1.3369663
-2.9383593 7.2826009 1.3177409
-2.8878052 7.2858248 1.3150891
-2.8190787 7.2418332 1.3039849
-2.7580428 7.2156987 1.2961953
-2.7043631 7.2075567 1.2917204
-2.6505466 7.198102 1.2870798
-2.5946028 7.1817675 1.281279
-2.5422533 7.174314 1.2771356
-2.4810312 7.1404061 1.2683516
-2.4324028 7.1414919 1.2658656
-2.3744888 7.1141877 1.2584074
-2.2388568 6.8474193 1.2086866
-2.1859746 6.8272161 1.20272
-2.1346049 6.8103876 1.1974165
-2.0835242 6.7931862 1.1921129
-2.0310354 6.769948 1.185815
-1.982241 6.757679 1.1815058
-1.9344894 6.7479105 1.177694
-1.8818798 6.7197685 1.170733
-1.8322898 6.7007494 1.1654295
-1.7845299 6.6870918 1.1611203
-1.7355165 6.6673756 1.1558168
-1.6902078 6.6606936 1.1528335
-1.6414969 6.6393461 1.1473643
-1.5956504 6.6282001 1.143718
-1.5511272 6.6215429 1.1409005
-1.5109069 6.6328588 1.141232
-1.4765731 6.6708908 1.146204
-1.4453512 6.725141 1.1539936
-1.4064746 6.7454677 1.1559825
-1.3636913 6.7472043 1.1548223
-1.3222655 6.755445 1.1548223
-1.2703326 6.7082005 1.1453754
-1.2215148 6.6741562 1.1382487
-1.1777951 6.6659875 1.135597
-1.1324 6.6468406 1.1311221
-1.0901579 6.6449051 1.1296304
-1.0456772 6.6280899 1.1256528
-1.0018872 6.6139054 1.1221724
-0.95916075 6.6052895 1.1196862
-0.91752785 6.6032357 1.1183604
-0.87686414 6.6077633 1.1181947
-0.83110774 6.5719275 1.1112337
-0.78252882 6.5083652 1.0996321
-0.74135095 6.5022659 1.0978091
-0.69964343 6.4900236 1.0949916
-0.66030651 6.4991002 1.0958203
-0.6188246 6.4863405 1.0930028
-0.57612252 6.4576001 1.0875335
-0.53428596 6.4344788 1.0830586
-0.49471918 6.4366527 1.0828929
-0.4553543 6.4415345 1.0832243
-0.41594818 6.4461751 1.0835558
-0.75786245 12.987631 2.184375
-0.33115926 6.3424625 1.0653248
-0.29219106 6.3433905 1.0651591
-0.25279161 6.3332391 1.0631702
-0.39899492 11.819587 1.9854918
-0.32578361 11.797167 1.9813484
-0.13543403 6.3023114 1.0573695
-0.096443959 6.2823167 1.053889
-0.057813052 6.2739153 1.0523974
-0.019279867 6.2623177 1.0504086
0.03608413 11.749343 1.9725643
0.10760306 11.686774 1.962123
0.17926429 11.682936 1.9616258
0.13294838 6.1928744 1.0389727
0.1706177 6.1801124 1.036984
0.20893449 6.1907768 1.0389727
0.2470738 6.1933198 1.0396357
0.56668931 12.304389 2.0680285
0.31925097 6.1169443 1.0273713
0.3552261 6.0882888 1.0228964
0.38444701 5.9600267 1.0016822
0.41961884 5.9378815 0.99836743
0.45476019 5.9184794 0.99554992
0.49016899 5.9047666 0.99372679
0.52604014 5.8977194 0.99306387
0.56184328 5.8904529 0.99240094
0.59767681 5.8839521 0.99190372
0.63260597 5.8693886 0.9900806
0.66693217 5.8506994 0.98759454
0.70270103 5.8455176 0.98742884
0.73781282 5.8352256 0.9864344
0.77282476 5.8247232 0.98544002
0.8081429 5.8169413 0.98494279
0.84282762 5.8050413 0.98378265
0.87636286 5.7861099 0.98146236
0.91092706 5.7747788 0.98046792
0.9463433 5.7690811 0.98046792
0.98073018 5.7573328 0.97947353
1.0146652 5.7434378 0.97814763
1.0493546 5.7341933 0.9776504
1.0836016 5.7228022 0.97682172
1.1347983 5.7983088 0.99090928
1.1818819 5.8482671 1.0006877
1.2197571 5.8505592 1.0023451
1.252524 5.8285027 0.99985904
1.2889029 5.8235965 1.0003562
1.3246115 5.815578 1.0003562
1.3634194 5.8207836 1.0026766
1.395878 5.7988853 1.0003562
1.4371138 5.8131871 1.004334
1.4715428 5.7994804 1.0035052
1.50238 5.7722092 1.0003562
1.5370064 5.7600236 0.99985904
1.5723203 5.750484 0.99985904
1.6102346 5.7502246 1.0015165
1.6468458 5.744976 1.0023451
1.6754032 5.7120519 0.99836743
1.7115537 5.7054429 0.99903035
1.750578 5.7080331 1.0013506
1.7888135 5.7075353 1.0031738
1.8234998 5.6955128 1.003008
1.8510568 5.6617208 0.99903035
1.8826393 5.640902 0.99737298
1.915626 5.6245766 0.9965443
1.9533385 5.6220322 0.99820167
1.9887861 5.6127291 0.99869889
2.0218472 5.5967107 0.99803597
2.0558093 5.5832739 0.99787021
2.0858715 5.5594749 0.99588138
2.1167755 5.538281 0.99438977
2.1571574 5.5417304 0.99737298
2.1983881 5.5467257 1.0006877
2.2323809 5.5331321 1.0006877
2.2711594 5.5311899 1.0028423
2.3073366 5.5226097 1.0038368
2.3373215 5.4992723 1.0021794
2.3702378 5.4830165 1.0018479
2.4038363 5.46837 1.0018479
2.4429781 5.4661222 1.0041682
2.4809589 5.4609056 1.0059913
2.5164869 5.4500566 1.00682
2.5565832 5.4487972 1.0094718
2.5899682 5.4330077 1.0094718
2.6249752 5.4205642 1.0101347
2.6577504 5.4034705 1.009969
2.693059 5.3914723 1.0107976
2.7260897 5.3748465 1.0107976
2.7590179 5.3580184 1.0107976
2.7986953 5.3540978 1.0132837
2.8398147 5.3525052 1.0162669
2.8791494 5.3471355 1.0185872
2.9189978 5.34235 1.0210732
2.9445503 5.3114014 1.0185872
2.9625812 5.2674479 1.0136151
2.9943569 5.2483144 1.0134494
2.9919252 5.170095 1.0018479
2.9991314 5.1099653 0.99372679
3.0112612 5.0592656 0.98742884
3.0442863 5.0440707 0.98809177
3.0823853 5.0370727 0.99041212
3.1179137 5.0256062 0.99190372
3.1486914 5.0063806 0.99190372
3.1825318 4.9919558 0.99289811
3.2173841 4.97896 0.99422401
3.2548983 4.9698496 0.9963786
3.2902398 4.9571791 0.99787021
3.2683048 4.8591614 0.98212528
3.2752864 4.8056054 0.97533011
3.2951841 4.7716236 0.9725126
3.3515389 4.7900991 0.98046792
3.4521587 4.8700089 1.0011849
3.5032599 4.8783727 1.0073172
3.5400891 4.8663549 1.009306
3.5804124 4.8588314 1.0122893
3.6148777 4.8430934 1.0136151
3.6480949 4.825542 1.0146096
3.688427 4.8171601 1.0175928
3.7300022 4.8100238 1.0209075
3.7685823 4.7986798 1.0233936
3.8040943 4.7831836 1.0250509
3.8395576 4.7674327 1.0267082
3.8743474 4.7506618 1.0281999
3.9134715 4.738966 1.0308517
3.955128 4.7299948 1.0341665
3.9853508 4.7071424 1.0344979
4.0282788 4.6990719 1.0381441
4.0680261 4.6869268 1.0409616
4.1103787 4.677434 1.0444421
4.1508012 4.6653862 1.0474253
4.1912298 4.653019 1.0504086
4.2316628 4.6403303 1.0533918
4.2741046 4.6294937 1.0568722
4.3158984 4.61759 1.060187
4.3502507 4.5974679 1.0616786
4.3886108 4.5813708 1.0641646
4.4255648 4.5635595 1.0663192
4.4652281 4.5482817 1.0691367
4.5076509 4.5354867 1.0726172
4.5500846 4.5223413 1.0760976
4.5883031 4.5047007 1.0785837
4.6321397 4.4922523 1.0823957
4.6752839 4.4787536 1.0860418
4.71772 4.4642162 1.0895222
4.7644758 4.4533663 1.0939971
4.8069282 4.438096 1.0974777
4.8530145 4.4257946 1.1017867
4.8918037 4.4064941 1.1044385
4.9261169 4.3829508 1.1060959
4.9669924 4.3650103 1.1092449
5.0115566 4.3499651 1.1132226
5.0591178 4.3371043 1.1178632
5.1119766 4.3282833 1.1236639
5.1520562 4.3082223 1.1266472
5.2027273 4.2966228 1.1319507
5.2458062 4.2783303 1.135597
5.2811756 4.2534847 1.1375858
5.3303299 4.2394152 1.1425579
5.3833876 4.2279472 1.1483586
5.4435186 4.221426 1.155651
5.4802804 4.1963391 1.1579713
5.5240188 4.176312 1.1617832
5.5764103 4.162394 1.1674182
5.6240749 4.1444802 1.1720589
5.6725264 4.1267176 1.1768652
5.7209706 4.1085148 1.1816716
5.7653809 4.0870218 1.1856493
5.8210549 4.0730529 1.1919472
5.8719044 4.055191 1.1972507
5.9235682 4.0374131 1.20272
5.9801435 4.0224562 1.2091838
6.0433297 4.0113182 1.2169734
6.0934038 3.990911 1.2221112
6.1426253 3.9695044 1.2270833
6.199297 3.9524145 1.233547
6.2509804 3.9316278 1.2390163
6.2992883 3.9082751 1.2438226
6.3719387 3.899405 1.2534354
6.4193859 3.8745019 1.258076
6.4752407 3.8542066 1.2643739
6.53619 3.8363664 1.2716663
6.5877738 3.8124888 1.2771356
6.6470184 3.7925208 1.2840965
6.7088437 3.7734182 1.2915547
6.7620578 3.7489176 1.2973554
6.8238778 3.7286339 1.3048135
6.8709397 3.6997838 1.3094541
6.9379411 3.6811266 1.3179066
7.012836 3.6658971 1.3278508
7.0790358 3.6453714 1.3361377
7.1382093 3.6206019 1.3430985
7.1911688 3.5921581 1.3488994
7.2626305 3.57234 1.3581805
7.3429933 3.556078 1.3691192
7.4029531 3.5292025 1.3762457
7.4628582 3.5017247 1.3833724
7.5379243 3.4806716 1.3933166
7.6183982 3.4612756 1.4042552
7.6872106 3.4357913 1.4130392
7.7677321 3.4147511 1.4239779
7.8319888 3.3858073 1.4319332
7.891643 3.3542745 1.4390597
7.9666729 3.328599 1.4490039
8.0553665 3.3077474 1.4614341
8.1194086 3.2759688 1.4693894
8.1943645 3.2478886 1.4793336
8.2766314 3.2218728 1.4906037
8.3496723 3.191448 1.5002164
8.4124937 3.1564372 1.508006
8.5122156 3.1344044 1.5224251
8.5989962 3.1065748 1.5345238
8.6801748 3.0758209 1.5456281
8.7529144 3.0412743 1.5552409
8.8675623 3.0202572 1.5723116
8.9607639 2.9907658 1.5855706
9.0483093 2.9584048 1.5978349
9.1348543 2.9247804 1.6099337
9.2232056 2.890794 1.6223639
9.3275099 2.8607485 1.6376116
9.411953 2.8235805 1.6493789
9.5019665 2.7871482 1.6621406
9.5624971 2.7412932 1.6697645
9.3692665 2.6237986 1.6331367
28.980766 3.6643617 4.9072542
28.945917 3.4796438 4.8976412
0.96691114 0.10439572 0.16139998
0.96753347 0.098460905 0.16139998
0.96517432 0.092241481 0.16090277
0.98045611 0.087631643 0.1633888
0.96328521 0.080145627 0.16040556
0.96277559 0.074157968 0.16023982
0.94157076 0.066719852 0.15659362
0.9321211 0.060306497 0.15493627
0.9167217 0.053667039 0.15228449
0.88157976 0.046191018 0.14631799
0.84736717 0.03919369 0.14051722
0.85251868 0.034190118 0.1413459
0.87143898 0.029590378 0.14449489
0.87949044 0.024460433 0.14582078
0.87765211 0.019021204 0.14548931
0.89944553 0.013968054 0.1491355
0.89951432 0.0084488979 0.1491355
0.91408169 0.00083888817 0.13399105
0.91901535 -0.0047918931 0.13472578
0.90512139 -0.010284023 0.13266852
0.89712924 -0.015705144 0.13149296
0.89207155 -0.021096433 0.13075823
0.89192522 -0.026569685 0.13075823
0.89767671 -0.032250449 0.13163991
0.89548528 -0.037676249 0.13134602
0.89918941 -0.043357655 0.13193381
0.89693093 -0.048768278 0.13163991
0.89562744 -0.054211821 0.13149296
0.89823902 -0.05990145 0.13193381
0.89884108 -0.065482922 0.13208075
0.89940846 -0.071074046 0.13222769
0.89895552 -0.076591372 0.13222769
0.89157283 -0.08148098 0.13119908
0.88514882 -0.086378209 0.13031739
0.87968248 -0.091301031 0.12958266
0.8741892 -0.096160047 0.12884793
0.86375648 -0.10038806 0.12737846
0.86606997 -0.10604439 0.1278193
0.87227112 -0.11223473 0.12884793
0.88136971 -0.11889955 0.13031739
0.88356215 -0.12471776 0.13075823
0.88278025 -0.13013686 0.13075823
0.89076525 -0.13689657 0.13208075
0.89283901 -0.14282611 0.13252158
0.87633187 -0.14571795 0.13017045
0.85397422 -0.14740784 0.12693763
20.733835 -3.8251312 3.1303725
31.833033 -6.0746193 4.8126135
31.825878 -6.4790082 4.8231936
32.672249 -6.8603358 4.9577966
31.468445 -6.8094568 4.7813139
31.491722 -7.0170422 4.791306
31.59655 -7.2441783 4.8139358
31.415758 -7.4059162 4.7932167
44.372929 -10.747951 6.7808118
33.244232 -8.2688265 5.0874028
33.196705 -8.4736319 5.0879908
33.2015 -8.692194 5.0968075
37.757118 -10.881577 5.8356533
32.352406 -9.7555904 5.0181913
32.141567 -10.123938 5.0043783
38.665955 -17.632803 6.3114653
29.438026 -13.643588 4.8183441
17.128016 -8.1954241 2.8189933
17.022249 -8.2735586 2.8098826
16.936571 -8.360774 2.8041518
17.508362 -8.77703 2.9077489
17.378366 -8.8457079 2.8951116
17.362429 -8.9721518 2.9015772
17.417421 -9.1364079 2.9200923
17.252766 -9.1854696 2.901871
17.261349 -9.3264198 2.9128921
17.216808 -9.439291 2.9150963
17.606337 -9.7938137 2.9912143
17.147058 -9.6765928 2.9231782
17.020401 -9.7432957 2.9117165
16.448751 -9.5505562 2.8238425
16.278181 -9.5855579 2.8045926
16.853462 -10.064062 2.9143615
16.856544 -10.206731 2.9256763
16.873684 -10.35913 2.9396362
16.765295 -10.434769 2.931848
16.546186 -10.439802 2.9046631
16.770977 -10.726052 2.9556534
16.704849 -10.828754 2.9556534
16.652145 -10.940282 2.9581516
37.245945 -43.033558 8.453207
37.014614 -43.300381 8.4608488
36.262386 -45.726212 8.6680431
35.977474 -45.94318 8.667161
35.711231 -46.184196 8.6711283
22.155001 -30.942688 5.6518235
21.810577 -30.859951 5.6121483
21.477064 -30.78714 5.5748239
21.269802 -30.892271 5.5701213
20.910286 -30.772671 5.5253029
20.51228 -30.589039 5.4696102
19.959019 -30.162474 5.3713031
19.617821 -30.045845 5.3289828
19.413809 -30.135717 5.3236928
19.224821 -30.248426 5.3226638
18.66946 -29.77668 5.2193608
18.262152 -29.528097 5.1560268
18.001812 -29.510399 5.133544
17.625093 -29.295683 5.0772638
17.310242 -29.176147 5.0380292
17.017509 -29.088007 5.0046721
16.722559 -28.99053 4.97014
16.409399 -28.85528 4.9295826
16.119335 -28.754389 4.8953443
15.863184 -28.709038 4.8709512
15.522099 -28.503531 4.8198137
15.295929 -28.503237 4.8037968
15.019024 -28.404181 4.7714686
14.72015 -28.257193 4.7314992
14.401521 -28.064491 4.6843295
14.201385 -28.097597 4.6752186
13.922925 -27.971685 4.6399517
13.652208 -27.854969 4.6065946
13.372706 -27.71372 4.5695643
13.1171 -27.615665 4.5400281
12.863203 -27.515522 4.5104918
12.605246 -27.400732 4.4788985
12.378551 -27.348698 4.4578853
12.154583 -27.298536 4.4374595
11.907492 -27.191387 4.4080706
11.622663 -26.990486 4.3638396
11.390115 -26.903713 4.338418
11.181115 -26.868074 4.3215189
10.970364 -26.82448 4.3035917
10.725531 -26.692123 4.2717042
10.507071 -26.619423 4.2496624
10.278826 -26.516462 4.2230649
10.08391 -26.494907 4.209693
9.8474131 -26.358921 4.1783934
9.6422491 -26.300903 4.1597309
9.4455347 -26.261841 4.1443019
9.2101755 -26.109423 4.111239
9.0090561 -26.047661 4.0927238
8.8207951 -26.019075 4.0796456
8.6064053 -25.908436 4.0539298
8.3918705 -25.79051 4.0273328
8.2031345 -25.746326 4.0124907
8.0020037 -25.65831 3.9910369
7.8074608 -25.585831 3.9722278
7.6118469 -25.504351 3.9522431
7.4344306 -25.479361 3.941222
7.2378063 -25.383715 3.9194739
7.0439649 -25.291388 3.8984606
6.8543849 -25.208141 3.8790638
6.6785245 -25.170372 3.8668673
6.4949598 -25.098839 3.8496745
6.3115582 -25.022167 3.8318939
6.1234417 -24.920179 3.8104398
5.9628239 -24.925537 3.8055906
5.7817397 -24.841232 3.7872224
5.5848851 -24.680397 3.7573922
5.4290957 -24.69488 3.7544534
5.2619824 -24.655176 3.7434323
4.3391104 -20.960789 3.1781301
4.203021 -20.950165 3.1725461
4.0585485 -20.893997 3.1602025
3.9158368 -20.841707 3.1485939
3.7580163 -20.700867 3.12376
3.6287081 -20.710871 3.1218495
3.4816246 -20.614731 3.1040692
3.3434796 -20.564434 3.0933421
3.2024162 -20.489767 3.0790882
3.0634234 -20.420994 3.0658631
2.9394724 -20.449196 3.0673325
2.8144825 -20.470766 3.0679204
2.6904969 -20.500402 3.0698307
2.5916576 -20.732454 3.1021588
2.4931052 -20.989597 3.1383076
2.386735 -21.204035 3.1681378
2.2876623 -21.510406 3.2117808
2.1790023 -21.757298 3.2466071
2.0723033 -22.055853 3.2892215
1.9544085 -22.267193 3.3189046
1.8829221 -23.077318 3.4379311
1.7460496 -23.151564 3.4473357
1.60444 -23.168749 3.4483643
0.91456068 -14.500843 2.1567066
1.3130842 -23.065226 3.4302897
1.1697773 -23.038273 3.4251468
0.64263862 -14.406523 2.1405425
0.88111258 -22.898676 3.4025171
0.73934448 -22.865097 3.3967862
0.59742528 -22.807896 3.3876755
0.45603725 -22.739927 3.3770952
0.31578177 -22.690868 3.3694541
0.17619191 -22.646879 3.3626945
0.037203465 -22.631706 3.3603435
-0.1013274 -22.556335 3.3491755
-0.23856503 -22.445499 3.3328645
-0.37658146 -22.461416 3.3355095
-0.51414621 -22.447805 3.3338931
-0.64788628 -22.306793 3.3134675
-0.78307784 -22.25495 3.3064141
-0.91961688 -22.249725 3.3064141
-1.0769364 -22.68235 3.3716583
-1.2333516 -22.997314 3.4195628
-1.4009881 -23.433636 3.4856887
-1.58014 -23.961529 3.5656273
-1.7588524 -24.391399 3.6311655
-1.9456763 -24.855461 3.7019935
-2.1431696 -25.376287 3.7814915
-2.353642 -25.967514 3.8717165
-2.5551512 -26.388735 3.9368136
-2.7894824 -27.076078 4.0418801
-3.0131209 -27.585501 4.1206436
-3.2585378 -28.226812 4.2193913
-1.4739664 -12.111851 1.8107949
-1.5540268 -12.147712 1.8175545
-1.631953 -12.163438 1.8213751
-4.3352528 -30.881062 4.6308408
-4.6538029 -31.734692 4.7630925
-4.9895654 -32.628567 4.9018097
-2.8928075 -16.834915 2.5358279
-3.0054169 -16.869434 2.5437629
-3.1077924 -16.844839 2.5428813
-3.186435 -16.696228 2.5233374
-3.2863338 -16.663748 2.5214272
-3.3885188 -16.643269 2.5214272
-3.4123278 -16.24947 2.4648528
-3.4531891 -15.956562 2.4235609
-3.5725424 -16.03162 2.4382555
-3.6482987 -15.911057 2.4232671
-3.7195337 -15.776691 2.4062214
-3.8747108 -15.99487 2.4431047
-3.8359849 -15.42077 2.3589046
-3.9334681 -15.408443 2.3606679
-3.4104633 -13.025259 1.9984454
-4.1343064 -15.403914 2.3675745
-4.2704382 -15.529904 2.3909388
-3.676981 -13.057394 2.0134339
-4.8866153 -16.954302 2.6194403
-4.5320725 -15.368972 2.3785954
-5.1228576 -16.987762 2.634135
-4.9283581 -15.987117 2.483515
-5.494369 -17.442518 2.7149553
-5.8693852 -18.241808 2.8450029
-5.910203 -17.989309 2.8112051
-5.219533 -15.564062 2.436933
-5.6806159 -16.600517 2.6047456
-5.6809978 -16.274906 2.5590453
-5.7601881 -16.181967 2.5499346
-5.6319733 -15.519614 2.4508929
-5.7216043 -15.469921 2.4485419
-5.9004717 -15.657597 2.4839559
-5.8915191 -15.347754 2.4404597
-6.0550799 -15.48912 2.4688203
-6.1317182 -15.405722 2.461473
-6.1930776 -15.286215 2.4483948
-6.4077721 -15.541476 2.4955647
-6.3729272 -15.191735 2.4456029
-7.2412415 -16.969191 2.7390547
-7.4141355 -17.083233 2.7647703
-7.5391827 -17.083572 2.7722645
-10.356915 -23.084564 3.7569513
-10.262793 -22.503988 3.6726043
-10.382381 -22.401106 3.6661386
-12.185915 -25.875345 4.2471642
-10.892571 -22.765442 3.7473998
-11.141441 -22.923258 3.7845774
-11.303338 -22.897926 3.7917776
-11.480414 -22.901533 3.8039742
-11.599631 -22.789228 3.7970676
-11.830059 -22.893377 3.826457
-12.031875 -22.937738 3.8461478
-12.082216 -22.694094 3.8176403
-12.256029 -22.683929 3.8285143
-12.388329 -22.596159 3.826457
-12.539724 -22.543058 3.8304245
-12.657393 -22.429512 3.8242528
-12.780039 -22.32567 3.8198445
-12.888974 -22.198931 3.8116155
-11.648877 -18.716127 3.2732043
-34.001282 -40.545666 7.8592505
-34.257748 -40.346077 7.8611608
-34.8321 -40.016651 7.8796759
-36.422878 -41.329414 8.1820917
-36.622978 -40.542423 8.1146431
-36.935139 -40.38702 8.1287498
-36.761578 -39.705261 8.0367613
-36.777908 -39.237183 7.9875345
-36.853203 -38.837139 7.9519734
-37.046268 -38.563911 7.9424219
-36.862225 -37.904022 7.852932
-33.63686 -34.165455 7.1208453
-33.799778 -33.912178 7.1111469
-33.538628 -33.239716 7.013134
-33.761742 -33.052677 7.0172482
-34.087631 -32.964542 7.0428171
-34.207722 -32.676872 7.0260653
-34.648582 -32.693779 7.0752921
-34.691521 -32.334213 7.0434046
-34.93293 -32.160942 7.0522218
-2.5618289 -2.3287969 0.51252466
-2.6283164 -2.3599641 0.52295786
-2.637568 -2.3391974 0.5219292
-2.6481519 -2.31971 0.52119446
-2.6608396 -2.3021231 0.52090061
-2.6651409 -2.2773976 0.51899028
-2.6616812 -2.246325 0.51561052
-36.90498 -30.77173 7.1365685
-37.261845 -30.683668 7.169044
-53.314102 -43.356247 10.206864
-53.823605 -43.22464 10.253447
-46.879261 -36.710526 8.843791
-47.165443 -36.46999 8.8553991
-47.106091 -35.964405 8.8026457
-46.943584 -35.386509 8.7315235
-44.998333 -33.489113 8.3312416
-38.443481 -28.245792 7.0851374
-38.37907 -27.837463 7.0416412
-37.936329 -27.162647 6.9296684
-37.643475 -26.605085 6.8462029
-37.374432 -26.072527 6.7680273
-37.03022 -25.49604 6.6772146
-36.765446 -24.982592 6.6016841
-36.355305 -24.379156 6.5010262
-36.233643 -23.976582 6.4528279
-35.79784 -23.373627 6.3495245
-35.672001 -22.980503 6.3020611
-35.354031 -22.4699 6.2213874
-34.118538 -21.39185 5.9806895
-33.979115 -21.015081 5.9335198
-33.750233 -20.588293 5.8713613
-33.225842 -19.989693 5.7586536
-33.231327 -19.716297 5.7385221
-33.139091 -19.387648 5.7019324
-33.354252 -19.239798 5.7185373
-33.214588 -18.888567 5.6746001
-33.209068 -18.616693 5.6540279
-32.802349 -18.125059 5.5657129
-32.570686 -17.737053 5.5078163
-32.365143 -17.368483 5.4549155
-32.38541 -17.124254 5.440515
-24.403477 -12.71251 4.0859642
-31.755327 -16.295605 5.300622
-31.668451 -16.0063 5.2696161
-24.615627 -12.252353 4.083025
-24.707218 -12.109354 4.0858173
-24.571707 -11.856503 4.0512848
-24.889698 -11.822224 4.0916948
-25.014635 -11.693997 4.1003647
-30.426344 -13.997211 4.9736667
-30.382793 -13.751926 4.9526534
-24.968119 -11.116907 4.058485
-24.928944 -10.916673 4.0411453
-24.723822 -10.646527 3.9972086
-29.600788 -12.53204 4.7735257
-29.652468 -12.339915 4.769558
-29.733118 -12.159986 4.7704396
-22.524345 -9.0507021 3.6044211
-22.564735 -8.9065142 3.6020701
-30.318972 -11.752934 4.8289247
-30.479259 -11.600458 4.8430314
-31.246187 -11.455393 4.9422202
-31.585812 -11.360543 4.9848347
-31.836819 -11.230692 5.0134888
-31.864933 -11.02123 5.0071702
-32.016266 -10.854087 5.0203953
-25.469126 -8.4604597 3.9851589
-25.828133 -8.4041147 4.0332103
-25.907488 -8.254487 4.0376186
-33.001038 -10.292172 5.1336908
-33.213993 -10.135394 5.1570554
-30.945807 -9.2360191 4.7958617
-30.943974 -9.0290632 4.7868977
-33.661266 -9.5982676 5.1982002
-33.597561 -9.3575726 5.1793914
-33.620941 -9.1421614 5.1742482
-25.955294 -6.8868122 3.9875102
-33.127312 -8.5727596 5.0816722
-26.054155 -6.5718951 3.9900081
-32.827541 -8.0666819 5.0201015
-32.783104 -7.8427787 5.0058479
-32.664909 -7.6029062 4.9805732
-32.68972 -7.397531 4.9773402
-36.848011 -8.1012735 5.6030374
-36.935719 -7.8832855 5.6089153
-37.295288 -7.7210789 5.6562319
-34.681759 -6.9583154 5.2531586
-34.7005 -6.7408538 5.2496319
-29.743492 -5.5886459 4.4941807
-38.713436 -7.0286131 5.8434415
-38.964333 -6.8274775 5.8748879
-39.275658 -6.6339059 5.9155922
-39.522602 -6.4264493 5.9467449
-30.179449 -4.7171812 4.5360603
-30.424984 -4.5644989 4.5686827
-30.338846 -4.3613997 4.5516367
-41.02364 -5.6409545 6.1499715
-31.483597 -4.132318 4.7154818
-30.389448 -3.7991536 4.5479631
-29.673546 -3.5248568 4.4374595
-42.872105 -4.5601997 6.4031601
-30.167439 -3.0215499 4.5022631
-30.358736 -2.8526797 4.5281253
-30.328371 -2.6621954 4.5210719
-32.379948 -2.6422212 4.8245163
-30.686224 -2.3145261 4.5698581
-41.648163 -2.8846955 6.2002273
-37.006573 -2.3350611 5.5067878
-10.897346 -0.55295199 1.619177
-11.188087 -0.49891764 1.6619384
-11.335246 -0.43581662 1.6833925
-43.447319 -1.4054949 6.4560604
-43.458088 -1.1389586 6.4565015
-12.20173 -0.24437866 1.8112358
-12.364215 -0.17175412 1.835188
-12.168201 -0.094348133 1.8059458
-11.028069 -0.017774021 1.6365167
-10.989395 0.04972117 1.6307858
-51.726486 0.54887956 7.6830621
-11.192682 0.18800025 1.6612036
-52.698814 1.2060852 7.8291264
-11.185576 0.32522276 1.6606159
-11.937623 0.4203662 1.7727358
-12.293571 0.50842285 1.8260773
-12.291208 0.58389211 1.8262243
-11.379996 0.89119804 1.6939727
-11.437396 0.96633345 1.7033772
-11.384951 1.0322984 1.6964707
-10.439719 1.1407466 1.5583413
-11.535472 1.4038564 1.7245375
-10.674997 1.3657106 1.5969882
-10.331131 1.3862199 1.5467325
-12.159072 1.7073805 1.8222568
-11.570946 1.6972907 1.7355585
-11.655159 1.7827585 1.7498122
-9.9511271 1.584761 1.4951544
-9.9353609 1.6448213 1.4942727
-12.285226 2.1112068 1.8500296
-11.413134 2.0335629 1.720423
-11.589152 2.1383626 1.7489306
-10.444852 1.9936385 1.5778852
-11.484402 2.2651105 1.7371749
-26.885012 6.3379455 4.1016874
-26.208241 6.3484159 4.004262
-26.723541 6.8214626 4.0955157
-26.553913 6.9519906 4.0759716
-26.045504 6.9899426 4.0044088
-26.151865 7.1907916 4.0274796
-26.124384 7.5292516 4.037178
-26.155493 7.7123442 4.0492277
-36.360703 11.452785 5.6615219
-36.928162 11.881062 5.7611518
-43.165546 15.066365 6.7902164
-35.186253 17.90925 5.8635731
-35.057247 18.115276 5.8604875
-34.871853 18.291449 5.8481441
-40.498569 22.853462 6.9064507
-34.396461 19.970572 5.9069223
-36.593842 21.851107 6.3299809
-31.81546 19.26372 5.5235395
-33.938156 21.122375 5.9367523
-33.198895 20.945988 5.8297753
-33.658897 21.526068 5.9336667
-32.870464 21.307158 5.8175788
-31.248348 21.362749 5.6215525
-13.16347 10.500096 2.4996791
-13.138809 10.612988 2.5073204
-12.893509 10.546243 2.4727879
-12.5863 10.424527 2.426059
-12.340955 10.349657 2.3909388
-12.047999 10.23056 2.3462672
-11.834234 10.174683 2.316731
-11.605201 10.102284 2.283962
-11.31146 9.9692593 2.2381148
-11.106892 9.9107237 2.2096071
-10.885855 9.8341446 2.177573
-10.674942 9.7632427 2.1473019
-9.9274769 9.1921768 2.0081439
-9.7734594 9.1615982 1.988306
-9.7242365 9.2282028 1.9897755
-9.7494631 9.3664989 2.0066743
-9.6556425 9.390975 1.9991801
-9.4547501 9.3091726 1.96935
-9.2909603 9.2608757 1.9470142
-9.1462278 9.2291889 1.928499
-8.9704065 9.1635647 1.9032242
-8.8053656 9.1060896 1.8800067
-8.6318064 9.0369253 1.8547319
-8.4913378 8.9997921 1.8363637
-8.3293962 8.9373999 1.8131461
-8.1765852 8.8820953 1.7916919
-8.050724 8.853797 1.7759687
-7.9030461 8.7992725 1.7552493
-7.7438717 8.7292137 1.7317379
-7.6301885 8.7081242 1.7182188
-7.3843546 8.53265 1.6745758
-7.1962433 8.4191561 1.6435701
-7.1776299 8.5024538 1.6512113
-7.1050544 8.5220251 1.6465091
-6.9727745 8.4684868 1.6278468
-6.8545284 8.4297667 1.6122706
-6.7308278 8.3822041 1.5952247
-6.6804986 8.4248962 1.5955187
-6.6366072 8.475852 1.597429
-6.5923409 8.5265856 1.5993392
-6.501482 8.5165596 1.5899347
-6.4479122 8.5547113 1.5896409
-6.4549475 8.6742582 1.6044824
-6.3787599 8.6826134 1.5987515
-8.2924671 11.43352 2.0964584
-8.231946 11.497858 2.0989566
-8.1692333 11.559461 2.1010139
-5.6917596 8.1599646 1.4761983
-5.6471934 8.2028828 1.4776678
-5.6289997 8.2848301 1.4861907
-5.5102968 8.2181654 1.4681163
-8.0689993 12.194782 2.1705194
-8.004838 12.260628 2.1734583
-5.194169 8.0637531 1.4231507
-5.1461849 8.0979767 1.4235915
-4.7911096 7.6425028 1.3382157
-4.7534914 7.6868992 1.3408608
-4.6758432 7.6661005 1.332191
-4.5904713 7.6310792 1.32117
-4.513782 7.608912 1.3125001
-4.4250517 7.5647488 1.3001567
-4.3508739 7.5437775 1.2919277
-4.2766314 7.5213218 1.2835517
-4.2052484 7.5025549 1.2759105
-4.1399989 7.4935865 1.2700326
-4.0925217 7.516242 1.2695918
-4.0655031 7.5769458 1.2756166
-4.0277209 7.6183624 1.2784086
-3.9772434 7.6359148 1.277233
-3.9411542 7.6812954 1.2807598
-3.8769925 7.6717877 1.2751758
-3.8770103 7.7901807 1.290899
-3.7590473 7.6708241 1.2672408
-3.6255026 7.5146852 1.2377045
-6.497571 13.680266 2.2481072
-3.4940531 7.4752765 1.2240385
-3.4315836 7.4606309 1.2181606
-3.3694255 7.4455009 1.2122828
-3.3176422 7.4524813 1.2100786
-3.2579639 7.4409852 1.2049354
-3.1516039 7.3200212 1.1821588
-3.0946743 7.3109841 1.1776035
-3.0489967 7.3280082 1.1773096
-3.0114646 7.3648891 1.1802485
-2.9086812 7.2400503 1.1573249
-2.8576651 7.2412004 1.1546799
-2.8128226 7.2576761 1.1545329
-2.7481809 7.2221055 1.146157
-2.6865058 7.192503 1.1388097
-2.6293838 7.1735611 1.1332257
-2.5756092 7.1625676 1.1289643
-2.5148294 7.1306634 1.12147
-2.4619753 7.1197858 1.1173555
-2.4080796 7.1047812 1.1126533
-2.352278 7.0828137 1.1069223
-2.2181737 6.8186979 1.0634263
-2.1666837 6.802021 1.0587239
-2.1193104 6.797246 1.0559319
-2.0703454 6.7864704 1.0522583
-2.0170662 6.7601852 1.0462335
-1.966682 6.7420492 1.0415312
-1.9171387 6.7254529 1.0371228
-1.8702625 6.7170796 1.034037
-1.8217443 6.7017031 1.0299225
-1.7691725 6.6697326 1.0233099
-1.7200361 6.6488619 1.0184606
-1.675336 6.6439452 1.0161096
-1.6293446 6.632967 1.0128767
-1.5810196 6.6110935 1.0080274
-1.5363884 6.6033292 1.0053824
-1.5013006 6.6367507 1.0090561
-1.4656479 6.6690235 1.0125828
-1.431927 6.7117481 1.0177259
-1.3897147 6.7155652 1.0169913
-1.3515961 6.7394829 1.0193423
-1.3124818 6.7593012 1.0211056
-1.2545414 6.6797352 1.0078806
-1.2101742 6.6688161 1.0050886
-1.168208 6.67027 1.0042069
-1.12594 6.6695099 1.0030313
-1.0788034 6.6382165 0.99730039
-1.0378989 6.643734 0.99715346
-0.98463827 6.5668306 0.98466301
-0.94320029 6.5649161 0.98348743
-0.90573096 6.5911579 0.98657334
-0.86437011 6.5897264 0.98554468
-0.81888831 6.5546646 0.9795199
-0.77655357 6.5418859 0.97687489
-0.73274654 6.5140905 0.97202563
-0.69108886 6.5027261 0.96967453
-0.65097862 6.5048757 0.96938062
-0.60670286 6.4624619 0.96247411
-0.56444305 6.436502 0.95806575
-0.52421457 6.4309716 0.95674324
-0.48392645 6.4232178 0.95512682
-0.44409499 6.4201455 0.95424515
-0.40463105 6.421762 0.95409822
-0.73719966 12.954752 1.9258538
-0.6570946 12.947177 1.9240905
-0.57724273 12.94207 1.922768
-0.24264823 6.3190556 0.93764019
-0.2034547 6.3075738 0.93572992
-0.16451496 6.2998037 0.93440741
-0.25705114 12.832677 1.9049876
-0.17746502 12.773681 1.8960239
-0.098828919 12.741888 1.8911746
-0.020599579 12.715548 1.887207
0.057320446 12.692685 1.8838273
0.066615276 6.2204852 0.9223578
0.10514633 6.2417178 0.92559063
0.28985584 12.642014 1.8767738
0.36641631 12.605391 1.8716308
0.44194749 12.551502 1.8639895
0.25511032 6.1601696 0.91412884
0.53513616 11.263655 1.6734002
0.32893878 6.12398 0.90927958
0.36414853 6.0823512 0.90340173
0.39261425 5.9457703 0.88341707
0.4285205 5.9353566 0.88224149
0.46307912 5.9089479 0.87871474
0.49807879 5.8912115 0.87651056
0.53386015 5.8841033 0.8759228
0.56928718 5.8738251 0.87489414
0.60460812 5.8633342 0.87386554
0.63971442 5.8516474 0.87268996
0.6747002 5.8397508 0.87151438
0.70992231 5.8305917 0.87077963
0.7453084 5.8231826 0.8703388
0.77970999 5.8086963 0.86886936
0.81409937 5.7949862 0.86754686
0.84921092 5.7869463 0.86710602
0.884404 5.7796717 0.86681211
0.91705173 5.7565527 0.86416709
0.94944924 5.7332516 0.86152202
0.98511231 5.7302427 0.86196291
1.018346 5.7133784 0.8603465
1.0528451 5.7041039 0.85990566
1.0870835 5.6936498 0.85931784
1.1407506 5.7819777 0.87371856
1.1890311 5.8378716 0.88327008
1.2250326 5.8314342 0.88341707
1.2668567 5.8518443 0.8876785
1.2958556 5.8130655 0.88297617
1.3301734 5.7992201 0.8820945
1.3675473 5.7986512 0.88327008
1.4072924 5.8074555 0.8859151
1.4424223 5.7967911 0.88562125
1.4784528 5.7897482 0.8859151
1.5134492 5.7786536 0.88562125
1.5437506 5.7501516 0.88268232
1.5787417 5.7396178 0.88253534
1.615538 5.7355356 0.88341707
1.6485089 5.7179108 0.88224149
1.6799258 5.695354 0.88033116
1.7125559 5.6773629 0.87915558
1.7502728 5.6762009 0.88062507
1.7889313 5.677619 0.88253534
1.822523 5.6627693 0.88194758
1.8495173 5.6279864 0.8782739
1.8881032 5.6287241 0.88018423
1.9216442 5.6142249 0.8797434
1.9511671 5.5883198 0.87753922
1.9864146 5.5790381 0.87798005
2.0239832 5.5760427 0.87944949
2.0540423 5.5523863 0.87768614
2.0884211 5.5406041 0.87783307
2.1230872 5.5295324 0.87812698
2.1609368 5.526535 0.8797434
2.2094364 5.5499334 0.88562125
2.2467909 5.5445232 0.88694376
2.2807693 5.5306325 0.88694376
2.312366 5.5110612 0.88606209
2.3496313 5.5049572 0.88738459
2.3817899 5.4868069 0.88679683
2.4158108 5.4729939 0.88694376
2.459064 5.4797277 0.89047045
2.4885366 5.4555359 0.88900101
2.5182211 5.4320869 0.8876785
2.55319 5.4201126 0.88826627
2.5979254 5.4284363 0.89223379
2.6316171 5.4132829 0.89238077
2.6669719 5.4014688 0.89311552
2.702724 5.3903084 0.89399719
2.7352986 5.3727417 0.89385021
2.77003 5.3593721 0.89443803
2.8060784 5.3484068 0.89546663
2.841167 5.3354535 0.89620137
2.8785529 5.3266225 0.89767081
2.9168882 5.3192682 0.89943421
