# .PCD v0.7 - Point Cloud Data file format
VERSION 0.7
FIELDS x y z
SIZE 4 4 4
TYPE F F F
COUNT 1 1 1
WIDTH 1444
HEIGHT 1
VIEWPOINT 0 0 0 1 0 0 0
POINTS 1444
DATA ascii
3.8533492 -1.9237075 -0.45593905
3.8246195 -1.9387748 -0.45393321
3.7931976 -1.9521976 -0.45161068
3.7617559 -1.965308 -0.44928816
3.7311757 -1.9785721 -0.44707116
3.7049534 -1.993891 -0.44538206
3.6926494 -2.0165865 -0.44538206
3.689775 -2.0445065 -0.44654334
3.6702254 -2.0632107 -0.44569877
3.6091182 -2.0581138 -0.43978685
3.6033089 -2.0842023 -0.44063142
3.5853057 -2.1032543 -0.439998
3.5586576 -2.1170812 -0.43830886
3.5302727 -2.1296334 -0.43640861
3.5290165 -2.1585171 -0.4378866
3.512325 -2.1780343 -0.43746433
3.4786875 -2.1868458 -0.43493065
3.4551394 -2.2017384 -0.43366382
3.4365523 -2.2196608 -0.4330304
3.4037302 -2.2281816 -0.43060228
3.3808784 -2.2429786 -0.429441
3.3662267 -2.2631264 -0.42933545
3.3498113 -2.2820594 -0.42901874
3.3332903 -2.3008764 -0.42870203
3.3085148 -2.3138783 -0.4273296
3.2910089 -2.3318365 -0.42690733
3.2734075 -2.3496666 -0.42648506
3.2315805 -2.3498285 -0.42289567
3.2098944 -2.3643062 -0.42194554
3.1961241 -2.3845518 -0.42205113
3.1838129 -2.4059162 -0.42236784
3.17136 -2.4272189 -0.42268455
3.1532629 -2.444196 -0.42226225
3.1389885 -2.464112 -0.42236784
3.1175818 -2.4783766 -0.42152327
3.0922449 -2.4893544 -0.42015088
3.0823083 -2.5126784 -0.42088985
3.0545609 -2.5214171 -0.41920072
3.0336907 -2.5356488 -0.41846174
3.008965 -2.5465081 -0.4171949
2.9902625 -2.5623353 -0.41677263
2.9722304 -2.5786803 -0.41645592
2.9488797 -2.5903077 -0.41540021
2.9351599 -2.6103349 -0.41571692
2.9168708 -2.6262999 -0.41540021
2.9065812 -2.6495063 -0.41624478
2.8902695 -2.6672907 -0.41624478
2.8694885 -2.6809025 -0.41561136
2.839256 -2.685478 -0.41360554
2.827035 -2.7069745 -0.41423896
2.8039448 -2.7180417 -0.41328883
2.775147 -2.723357 -0.41149414
2.7541511 -2.736129 -0.41086072
2.7359083 -2.7515666 -0.41064957
2.723155 -2.7725582 -0.41128299
2.706784 -2.7899284 -0.41138858
2.6765392 -2.7928457 -0.40938273
2.6593523 -2.809216 -0.40938273
2.6488583 -2.8327429 -0.41043845
2.6287277 -2.8460212 -0.41001615
2.5971382 -2.8466725 -0.40779918
2.5829515 -2.8662477 -0.40832704
2.5672998 -2.8842704 -0.40864375
2.5475838 -2.8977287 -0.40832704
2.5167134 -2.8982909 -0.40621564
2.4781625 -2.8895276 -0.4028374
2.4571719 -2.9008856 -0.40230957
2.4450698 -2.9227712 -0.40325969
2.4283569 -2.9392521 -0.40347081
2.4121625 -2.956408 -0.40378752
2.3902328 -2.9665077 -0.4031541
2.3534074 -2.9577768 -0.39998701
2.3290696 -2.9643431 -0.39893132
2.3059592 -2.9722936 -0.39808676
2.2913074 -2.9911225 -0.39872018
2.274111 -3.0067115 -0.39893132
2.2401462 -2.9998951 -0.3961865
2.2216971 -3.0135839 -0.3961865
2.2049201 -3.0295708 -0.39650321
2.1862895 -3.0430431 -0.39650321
2.1629736 -3.0499122 -0.39565864
2.1356628 -3.0509083 -0.3940751
2.1248183 -3.0754077 -0.39555308
2.1092701 -3.0933163 -0.3961865
2.0869181 -3.1012509 -0.39555308
2.0612471 -3.1040578 -0.39428625
2.0530651 -3.1332803 -0.39639765
2.0262406 -3.1341288 -0.39491966
2.0026927 -3.1397963 -0.3940751
1.9812704 -3.1486592 -0.39365283
1.9571923 -3.1531537 -0.3927027
1.9362499 -3.1625595 -0.39238599
1.9229784 -3.1845944 -0.39365283
1.9064553 -3.2014594 -0.39428625
1.8867756 -3.2130969 -0.39428625
1.8675233 -3.2254741 -0.3943918
1.8526284 -3.2455075 -0.39544752
1.8346307 -3.2602801 -0.39586979
1.812179 -3.2671282 -0.39534193
1.7892352 -3.2729514 -0.39470851
1.7719499 -3.2891207 -0.39534193
1.7540668 -3.3043222 -0.39586979
1.7332978 -3.3141418 -0.39576423
1.7106521 -3.3202951 -0.39523637
1.6866456 -3.3236356 -0.3943918
1.6644416 -3.3303642 -0.39396954
1.6417793 -3.3360538 -0.39344168
1.6208451 -3.3451698 -0.39333612
1.6062846 -3.3676167 -0.3948141
1.5851684 -3.3765092 -0.39470851
1.565255 -3.3879774 -0.39491966
1.5444374 -3.3975177 -0.39491966
1.5284348 -3.4178228 -0.3961865
1.5110395 -3.4353285 -0.39713663
1.4923018 -3.450011 -0.39777005
1.4676009 -3.4508674 -0.39681992
1.4429457 -3.451551 -0.39586979
1.4274114 -3.4741356 -0.39745334
1.416868 -3.509568 -0.40051487
1.3986077 -3.5265143 -0.401465
1.3783875 -3.5387359 -0.40188727
1.359136 -3.553628 -0.40262628
1.3376553 -3.5628314 -0.40273184
1.3195528 -3.5812356 -0.40389311
1.3009361 -3.5986159 -0.4049488
1.2765036 -3.5999701 -0.40420982
1.2530836 -3.6039782 -0.40378752
1.2315884 -3.6134815 -0.40399867
1.2122298 -3.6294587 -0.4049488
1.1886996 -3.6330481 -0.40452653
1.1651708 -3.6364856 -0.40410423
1.1425382 -3.6426179 -0.40399867
1.1225015 -3.6571646 -0.40484324
1.1083374 -3.6916018 -0.40790474
1.0733341 -3.6563523 -0.40325969
1.0593852 -3.6924994 -0.40653235
1.0377824 -3.70276 -0.40695462
1.0216094 -3.7330356 -0.40959388
1.0012522 -3.7488408 -0.41064957
0.97998697 -3.7616496 -0.41138858
0.95786726 -3.7714467 -0.41181085
0.93638116 -3.7840099 -0.41254982
0.91221291 -3.7858176 -0.41212755
0.88987505 -3.7952158 -0.41254982
0.86789864 -3.8064215 -0.41318324
0.84754032 -3.8252668 -0.41466123
0.82551807 -3.8372002 -0.41540021
0.80460131 -3.8548474 -0.41677263
0.78547257 -3.8821282 -0.41920072
0.76623052 -3.9102945 -0.42173442
0.74055451 -3.9061296 -0.42078429
0.71836686 -3.9203811 -0.42183998
0.69672567 -3.9384236 -0.42331797
0.67254686 -3.9426246 -0.42331797
0.64834273 -3.946677 -0.42331797
0.630638 -3.9918334 -0.4277519
0.61091036 -4.0270882 -0.43113014
0.58690542 -4.0356812 -0.43165797
0.56199467 -4.0382214 -0.43155241
0.53746837 -4.0435648 -0.43176356
0.51402384 -4.0576386 -0.43292481
0.49173653 -4.0824361 -0.43524736
0.46667793 -4.0853763 -0.43524736
0.44224343 -4.0940948 -0.43588078
0.41782039 -4.1036563 -0.43661976
0.39282256 -4.1081223 -0.43683091
0.36831808 -4.1183791 -0.43767545
0.34494227 -4.1433539 -0.44010356
0.32188636 -4.1761274 -0.44337624
0.2971724 -4.1909184 -0.44474864
0.2721602 -4.2035789 -0.44590992
0.24782011 -4.2299871 -0.44854915
0.22253956 -4.2443371 -0.44992158
0.19644649 -4.2446299 -0.44981599
0.17143892 -4.2715888 -0.45256081
0.14658289 -4.3123136 -0.45678359
0.12042641 -4.3240662 -0.45794487
0.094565824 -4.3555431 -0.46121755
0.068260953 -4.3828874 -0.46406794
0.041433483 -4.3901844 -0.46480691
0.014546458 -4.4052715 -0.46639046
-0.012607054 -4.4510207 -0.47124669
-0.04014593 -4.4767132 -0.47399148
-0.067851797 -4.4922915 -0.47568062
-0.09564545 -4.502727 -0.47684187
-0.12332602 -4.5040436 -0.47705302
-0.15095998 -4.503202 -0.47705302
-0.18008067 -4.5399494 -0.48106468
-0.20761628 -4.531805 -0.4803257
-0.23567633 -4.5354109 -0.48085353
-0.264882 -4.5577054 -0.4833872
-0.29316083 -4.5609565 -0.48391506
-0.32267496 -4.5808949 -0.48623759
-0.35145912 -4.5877523 -0.48718771
-0.38001195 -4.5904646 -0.48771557
-0.40940309 -4.6019135 -0.48919356
-0.43979549 -4.6220841 -0.49162167
-0.46784741 -4.6163301 -0.49130496
-0.49850023 -4.6351247 -0.49362749
-0.52805412 -4.6418595 -0.49468318
-0.55723602 -4.6444559 -0.49531659
-0.58920598 -4.6685743 -0.49827257
-0.62318844 -4.7052894 -0.50260091
-0.6555962 -4.7269874 -0.50534576
-0.68971878 -4.7583051 -0.50914627
-0.72276467 -4.7795482 -0.51189107
-0.75501496 -4.7936873 -0.51389688
-0.78730518 -4.8066287 -0.51579714
-0.82078242 -4.8252363 -0.51833081
-0.85382688 -4.8396955 -0.52044225
-0.88743675 -4.8558865 -0.52276474
-0.9207235 -4.8689151 -0.52477062
-0.95363146 -4.8787889 -0.52645969
-0.9898411 -4.9040389 -0.52983797
-1.0231547 -4.9134498 -0.53152704
-1.0574552 -4.9265256 -0.53363848
-1.1020374 -4.9850006 -0.54071164
-1.1401006 -5.0111136 -0.54430103
-1.1696945 -4.9991822 -0.54377317
-1.2059238 -5.0151162 -0.54630685
-1.2481114 -5.0539632 -0.5513742
-1.2800754 -5.0500655 -0.5517965
-1.3130388 -5.0498157 -0.55264103
-1.3463036 -5.050312 -0.55359119
-1.3843379 -5.0678573 -0.55644155
-1.4320114 -5.1186438 -0.56298691
-1.4721491 -5.1403532 -0.56636512
-1.5114889 -5.1579442 -0.5693211
-1.5568073 -5.1942968 -0.57438844
-1.5903969 -5.1903515 -0.57502186
-1.6266701 -5.1947303 -0.57660538
-1.6679026 -5.2140136 -0.57987809
-1.7174581 -5.2575631 -0.58589554
-1.759434 -5.2761707 -0.58916819
-1.7978595 -5.2831631 -0.59117407
-1.8348069 -5.2851844 -0.59265202
-1.8788139 -5.3066368 -0.59634697
-1.9224777 -5.3258762 -0.59983075
-1.9688507 -5.3513112 -0.60405356
-2.0145609 -5.3735833 -0.60795963
-2.0485587 -5.3639078 -0.60827637
-2.0940456 -5.3836756 -0.61197132
-2.1413162 -5.4067845 -0.61608851
-2.181514 -5.4110675 -0.61809438
-2.2309017 -5.4371414 -0.62263387
-2.2661364 -5.4279389 -0.62316173
-2.3176649 -5.4569521 -0.62812352
-2.3625376 -5.4691033 -0.63118505
-2.4008491 -5.4654298 -0.63245189
-2.4501505 -5.4860082 -0.63656908
-2.5047259 -5.5170522 -0.64195317
-2.5589411 -5.545825 -0.64712608
-2.6085377 -5.563334 -0.65103215
-2.6464729 -5.5553036 -0.65198231
-2.6887383 -5.5559683 -0.65398812
-2.7350583 -5.5643554 -0.6569441
-2.7900186 -5.5892882 -0.66190588
-2.8476348 -5.6181889 -0.66739547
-2.886148 -5.6085687 -0.66834563
-2.9610167 -5.6683211 -0.67763579
-2.9896865 -5.6386242 -0.67626333
-3.0327084 -5.6359367 -0.67816359
-3.1120222 -5.6992674 -0.68808717
-3.1565702 -5.697463 -0.6901986
-3.2060845 -5.7039943 -0.69336569
-3.272541 -5.7395048 -0.70012218
-3.3435352 -5.7812996 -0.7077232
-3.4076185 -5.8095689 -0.71374065
-3.4843726 -5.8577809 -0.72229183
-3.5330877 -5.8575802 -0.72493106
-3.5788188 -5.8519106 -0.72693688
-3.6413784 -5.8729463 -0.73232096
-3.6900442 -5.8706999 -0.73485464
-3.7329419 -5.8588505 -0.73622704
-3.7785304 -5.8508725 -0.73812729
-3.8236163 -5.841723 -0.73992199
-3.8588388 -5.8173232 -0.73981643
-3.8950152 -5.7943616 -0.73992199
-3.9551239 -5.8065176 -0.74456704
-4.0138335 -5.8156967 -0.74889541
-4.0830593 -5.8390431 -0.75512403
-4.1234088 -5.8203716 -0.75596863
-4.1920896 -5.8410139 -0.76198608
-4.2477298 -5.8425298 -0.76557547
-4.3005977 -5.8395782 -0.768637
-4.3547778 -5.837791 -0.77190965
-4.394712 -5.816515 -0.77264863
-4.4321308 -5.7918096 -0.77296537
-4.485249 -5.7873006 -0.7760269
-4.5206747 -5.7596703 -0.7760269
-4.5485063 -5.7224817 -0.77476007
-4.5741811 -5.6828442 -0.77317649
-4.6177592 -5.665463 -0.77465445
-4.6574979 -5.643158 -0.77549905
-4.7239165 -5.6526289 -0.78077751
-4.7219014 -5.5802641 -0.77476007
-4.7702847 -5.567801 -0.77708256
-4.8076162 -5.542182 -0.77761042
-4.837595 -5.5080953 -0.776977
-4.8792295 -5.487227 -0.77824384
-4.9214554 -5.466794 -0.77961624
-4.9589252 -5.4409037 -0.78024966
-5.008399 -5.4279151 -0.78278333
-5.0144596 -5.3680124 -0.77856058
-5.0233908 -5.3118539 -0.77486563
-5.0510755 -5.2759023 -0.77412665
-5.0715885 -5.2326698 -0.77233195
-5.1008148 -5.1986132 -0.77190965
-5.1291132 -5.1636896 -0.7713818
-5.1113472 -5.0830326 -0.76399189
-5.1495337 -5.0585437 -0.76504761
-5.1840434 -5.030314 -0.76557547
-5.2148108 -4.9984107 -0.76557547
-5.2468266 -4.9676867 -0.76578659
-5.2851977 -4.9428716 -0.76694787
-5.3293042 -4.923171 -0.76895368
-5.3572083 -4.8883677 -0.768637
-5.3834085 -4.8520751 -0.76810914
-5.4093657 -4.8156452 -0.76758128
-5.4305983 -4.7751398 -0.76642001
-5.4635491 -4.7449889 -0.76694787
-5.5099196 -4.7262678 -0.76937598
-5.5244012 -4.6801567 -0.76737016
-5.5446253 -4.6391516 -0.76620889
-5.5691533 -4.6018753 -0.76568103
-5.5965147 -4.5669885 -0.76557547
-5.621335 -4.5300665 -0.76515317
-5.6459131 -4.4930124 -0.76473093
-5.6866665 -4.4687314 -0.76652557
-5.7069092 -4.4282675 -0.76557547
-5.7347622 -4.3937721 -0.76568103
-5.7608209 -4.3579016 -0.76557547
-5.780282 -4.3171153 -0.76462531
-5.7922568 -4.2709432 -0.76272506
-5.8271966 -4.2417603 -0.76388633
-5.8466544 -4.2012825 -0.76304179
-5.8625903 -4.1584249 -0.76177496
-5.8936977 -4.1263671 -0.76251394
-5.9229956 -4.0929532 -0.76304179
-5.947998 -4.0565333 -0.76304179
-5.9686522 -4.0171843 -0.76251394
-5.9865618 -3.9760838 -0.7616694
-6.0166678 -3.9430919 -0.76240838
-6.0315638 -3.9001598 -0.7612471
-6.060411 -3.866287 -0.76188052
-6.068872 -3.8194928 -0.75998026
-6.0660052 -3.7659214 -0.75670761
-6.0839105 -3.7255137 -0.75607419
-6.1066551 -3.6881135 -0.75607419
-6.1095209 -3.6388686 -0.75364608
-6.1505966 -3.6123939 -0.75596863
-6.1674829 -3.5715959 -0.75533521
-6.1746016 -3.5253029 -0.75354052
-6.1874509 -3.4824717 -0.7524848
-6.2017465 -3.4405806 -0.75164026
-6.2279754 -3.4053257 -0.75227368
-6.2540054 -3.3698781 -0.7529071
-6.2692952 -3.3286424 -0.75227368
-6.2825527 -3.2864239 -0.75142908
-6.2981796 -3.2455351 -0.75090128
-6.2833948 -3.1892729 -0.74678403
-6.2868357 -3.1426539 -0.74488378
-6.2944026 -3.0983093 -0.74351138
-6.3123999 -3.0591955 -0.74340582
-6.3373342 -3.0234036 -0.7441448
-6.3449655 -2.9793887 -0.74287796
-6.355906 -2.9370627 -0.74203336
-6.3973427 -2.9087119 -0.74477822
-6.4259624 -2.8742769 -0.74604505
-6.4243641 -2.8263826 -0.74382806
-6.4333715 -2.783356 -0.74287796
-6.4503288 -2.7438293 -0.74287796
-6.466126 -2.7038152 -0.7427724
-6.4743166 -2.6606863 -0.74182224
-6.4757681 -2.6149518 -0.74013311
-6.5074043 -2.581403 -0.7419278
-6.5314603 -2.5446754 -0.74287796
-6.5803857 -2.5173452 -0.74667847
-6.5966387 -2.4772708 -0.74678403
-6.5958533 -2.4309008 -0.74498934
-6.6143851 -2.3917365 -0.74541163
-6.6073809 -2.3434591 -0.74298352
-6.6385412 -2.3087542 -0.74488378
-6.6648183 -2.2721498 -0.74625617
-6.6720324 -2.2290061 -0.74551719
-6.7214956 -2.1997821 -0.74952883
-6.7462301 -2.1621413 -0.75079566
-6.7242651 -2.1096892 -0.74688959
-6.7294784 -2.0660548 -0.74604505
-6.7534571 -2.0281577 -0.74731189
-6.7839022 -1.9920059 -0.74931771
-6.8179808 -1.9566543 -0.75174582
-6.8356032 -1.9163941 -0.75237924
-6.8357244 -1.871264 -0.7511124
-6.854763 -1.8313395 -0.75195694
-6.9178324 -1.8027912 -0.75765771
-6.9576769 -1.7676587 -0.7608248
-6.9471564 -1.7196752 -0.7585023
-6.9411435 -1.6730531 -0.75670761
-6.957087 -1.6317946 -0.75734103
-6.9630909 -1.5881912 -0.75691873
-6.9503756 -1.5404854 -0.75449061
-6.9771953 -1.5015771 -0.75639087
-6.9882245 -1.4591442 -0.75660205
-7.009716 -1.4188036 -0.75797445
-7.0358548 -1.3792108 -0.7598747
-7.040277 -1.3352722 -0.7594524
-7.0268192 -1.2881021 -0.75712985
-7.0277367 -1.2437484 -0.75639087
-7.0146508 -1.1970888 -0.75417393
-7.0208826 -1.1538639 -0.75406837
-7.0435462 -1.1132481 -0.75575745
-7.0443454 -1.069113 -0.75512403
-7.0802937 -1.0301676 -0.75829113
-7.1229224 -0.99178159 -0.76219726
-7.0815587 -0.94176096 -0.75712985
-7.0832586 -0.89779109 -0.75670761
-7.1083794 -0.85669351 -0.75881898
-7.110538 -0.81272221 -0.7585023
-7.1064935 -0.76811486 -0.75755215
-7.1081047 -0.72419322 -0.75723547
-7.1332021 -0.68255603 -0.7594524
-7.1412172 -0.63912958 -0.7598747
-7.1182489 -0.59306818 -0.75702429
-7.0513601 -0.5439437 -0.74952883
-7.0347261 -0.49925745 -0.74741745
-7.0237646 -0.45518219 -0.74593949
-7.021462 -0.41178507 -0.74541163
-7.0288215 -0.36895552 -0.74593949
-7.0388999 -0.32618952 -0.74678403
-7.0377879 -0.28287342 -0.74646729
-7.0374031 -0.23961717 -0.74625617
-7.028801 -0.19615366 -0.74520046
-7.0497556 -0.15345666 -0.74731189
-7.0624962 -0.11038485 -0.74857873
-7.0332098 -0.066762231 -0.74541163
-7.0026598 -0.023499757 -0.74213898
-7.0096335 0.019486917 -0.74287796
-7.0272803 0.062654816 -0.74477822
-7.0416784 0.10599536 -0.74636173
-7.0627675 0.14966179 -0.74868429
-7.0597286 0.19294116 -0.74847317
-7.0594053 0.23628837 -0.74857873
-7.0687532 0.28003165 -0.74974
-7.0678949 0.32344478 -0.74984556
-7.0538602 0.36618891 -0.74857873
-7.0594225 0.40992415 -0.74942327
-7.1133399 0.4568601 -0.75544077
-7.1689286 0.50461245 -0.7616694
-7.1855278 0.55010706 -0.76378077
-7.2067924 0.59623384 -0.76642001
-7.2485619 0.64448982 -0.77127624
-7.2543707 0.68989462 -0.77233195
-7.26682 0.73609579 -0.77412665
-7.2740316 0.78194469 -0.77539349
-7.306643 0.83082867 -0.77940512
-7.3241167 0.87836713 -0.78183323
-7.3462138 0.92677319 -0.7847892
-7.355176 0.97378772 -0.78637272
-7.3756576 1.0225848 -0.78922313
-7.4233727 1.0756602 -0.79502946
-7.4372811 1.1243087 -0.7972464
-7.4233661 1.1688397 -0.79650742
-7.4189978 1.2148484 -0.79682416
-7.4349332 1.2643467 -0.79935783
-7.4711046 1.3177117 -0.80410844
-7.4110317 1.3540604 -0.79851329
-7.4367833 1.4059708 -0.80220819
-7.4104486 1.4481441 -0.80030793
-7.4140959 1.4961426 -0.80168039
-7.4359298 1.5480896 -0.8050586
-7.4467092 1.5980664 -0.80727553
-7.4668641 1.6503789 -0.81054825
-7.4769602 1.7007939 -0.81276518
-7.451859 1.7432432 -0.81118166
-7.4168506 1.7831249 -0.80854243
-7.4714193 1.8448044 -0.81572115
-7.4946613 1.8994052 -0.81952167
-7.4819036 1.9451056 -0.81941611
-7.4765539 1.9927695 -0.82015508
-7.4872093 2.044893 -0.82268876
-7.4371719 2.0803514 -0.81857157
-7.4233112 2.1256719 -0.81846595
-7.4263515 2.1759326 -0.82026064
-7.4604897 2.2357278 -0.82553917
-7.4808602 2.2919464 -0.82933968
-7.4979739 2.3476076 -0.83282346
-7.4985828 2.398416 -0.83451259
-7.5083027 2.4524066 -0.83725739
-7.536509 2.5128961 -0.84211361
-7.4776425 2.5443604 -0.83725739
-7.4731631 2.5941067 -0.83852422
-7.4599175 2.6409078 -0.83884096
-7.4155116 2.6765056 -0.83567387
-7.3896165 2.7185233 -0.83461815
-7.3709345 2.7631161 -0.83440703
-7.3250422 2.7972958 -0.83113438
-7.3105206 2.8432701 -0.83145106
-7.3077307 2.89393 -0.83314019
-7.3193502 2.9506102 -0.83651841
-7.3057084 2.9973521 -0.83704627
-7.2945209 3.0451868 -0.8378908
-7.2729526 3.0887218 -0.83757412
-7.2620802 3.136838 -0.83852422
-7.2518005 3.1853366 -0.83957994
-7.2375674 3.2322052 -0.84021336
-7.2067327 3.2716215 -0.83894652
-7.1657548 3.3061996 -0.83651841
-7.1291256 3.3425081 -0.83461815
-7.0986071 3.3814855 -0.83345687
-7.0714583 3.4219463 -0.8327179
-7.0547915 3.4674644 -0.83324575
-7.0280442 3.5080223 -0.83261234
-6.9806633 3.5380447 -0.8295508
-6.9376006 3.5698924 -0.82701713
-6.8996992 3.6041074 -0.82511687
-6.8510971 3.6324031 -0.82194978
-6.8146687 3.6668344 -0.82026064
-6.7964048 3.7109618 -0.8207885
-6.7769866 3.7545214 -0.8212108
-6.7538214 3.7960334 -0.8212108
-6.7269468 3.8354328 -0.8207885
-6.6826258 3.8646901 -0.81825483
-6.6339102 3.8910332 -0.8151933
-6.6594825 3.9611456 -0.82131636
-6.6086545 3.9860137 -0.81804371
-6.6061301 4.0399756 -0.8207885
-6.5558615 4.0647163 -0.81762141
-6.5072222 4.0900502 -0.81466544
-6.4551654 4.1128044 -0.81128722
-6.4064169 4.1372323 -0.80833125
-6.3792462 4.1753745 -0.80812013
-6.3659377 4.222682 -0.80970365
-6.3572397 4.2733116 -0.81192064
-6.3161054 4.3021631 -0.81002039
-6.2380252 4.3052568 -0.80336946
-6.2147512 4.3457303 -0.80379176
-6.1944609 4.3883801 -0.8046363
-6.1803451 4.4355812 -0.80632544
-6.1441646 4.4669886 -0.80516416
-6.115839 4.5040145 -0.8050586
-6.0848994 4.5390778 -0.8046363
-6.0537596 4.5739312 -0.80421406
-5.9237008 4.533041 -0.79059553
-5.8981328 4.5711303 -0.79091221
-5.8887486 4.6219683 -0.79344589
-5.8797412 4.673481 -0.79608518
-5.8641243 4.7200694 -0.79787982
-5.8342814 4.7553339 -0.79777426
-5.7865853 4.7758527 -0.79524058
-5.7266488 4.7857642 -0.79101783
-5.6994534 4.8227391 -0.79133451
-5.6523848 4.8427401 -0.7889064
-5.6067877 4.8636494 -0.78668946
-5.5835643 4.9038658 -0.78763956
-5.5444517 4.9301047 -0.78637272
-5.4970975 4.9487309 -0.78394461
-5.4269385 4.9461989 -0.77824384
-5.3928328 4.9760332 -0.77771598
-5.3542047 5.0015635 -0.7765547
-5.2815065 4.9946966 -0.7704317
-5.1889815 4.9678736 -0.76135266
-5.161972 5.0030789 -0.76188052
-5.1900949 5.0924582 -0.77064282
-5.1100659 5.0758576 -0.76335847
-5.0150104 5.0429583 -0.75375164
-4.8522544 4.9395709 -0.73379892
-4.8073106 4.9542656 -0.73158199
-4.7788858 4.9858227 -0.73189867
-3.4812176 3.6771095 -0.53627771
-3.4579105 3.6976743 -0.53617215
-4.485877 4.8560195 -0.70054442
-4.3158951 4.7299418 -0.67848033
-4.2435131 4.7083249 -0.67161828
-4.1537061 4.6659479 -0.66190588
-4.0468497 4.6024876 -0.64934301
-3.9552779 4.5544105 -0.63910276
-3.6501298 4.2555728 -0.59391886
-3.4529507 4.0760808 -0.56583726
-3.3040674 3.9492445 -0.54535675
-3.2347951 3.9150214 -0.53786129
-3.1333721 3.8400388 -0.52487618
-3.0361145 3.7678337 -0.51241893
-2.967731 3.7295949 -0.50471234
-2.8999329 3.690661 -0.49700573
-2.8296773 3.6471095 -0.48877129
-2.7546239 3.5957336 -0.47958669
-2.7307091 3.610189 -0.47926998
-2.7132668 3.6332498 -0.48011455
-2.664953 3.6146159 -0.47546947
-2.6321883 3.6164291 -0.47356921
-2.6053059 3.6260521 -0.47272465
-2.5835834 3.6427808 -0.47283024
-2.5537677 3.6479757 -0.47145781
-2.5234208 3.6521242 -0.46997985
-2.5004039 3.6667171 -0.46987426
-2.4784136 3.6828153 -0.46997985
-2.4579704 3.7012663 -0.47040212
-2.4221299 3.6963184 -0.46786845
-2.3994043 3.7111108 -0.46786845
-2.3851469 3.739176 -0.46955755
-2.3563313 3.7444835 -0.46839628
-2.3343606 3.760561 -0.46860743
-2.2956607 3.7493737 -0.46544033
-2.2792962 3.7744541 -0.46681273
-2.265254 3.803746 -0.46871299
-2.2338133 3.8038549 -0.46702388
-2.2024567 3.8037221 -0.46533477
-2.1805553 3.8197551 -0.46565148
-2.1609793 3.8399951 -0.46649602
-2.1301396 3.8401396 -0.46491247
-2.0926995 3.8278363 -0.46185097
-2.0526607 3.8099668 -0.45815602
-2.017118 3.7996554 -0.4554112
-1.9845456 3.7943387 -0.45329979
-1.9566708 3.7976053 -0.4522441
-1.9274801 3.7980127 -0.45087171
-1.8948008 3.79109 -0.44865471
-1.8728212 3.8053215 -0.44897142
-1.849437 3.816741 -0.44897142
-1.8255547 3.8271196 -0.44886586
-1.8083789 3.8517504 -0.45044941
-1.7797043 3.8519418 -0.44918257
-1.7486258 3.8464959 -0.44728231
-1.7249911 3.8571527 -0.44728231
-1.6920794 3.8467305 -0.4448542
-1.6593609 3.83605 -0.44242612
-1.6303414 3.8333492 -0.44094813
-1.6075572 3.8451154 -0.44115928
-1.5816653 3.8493881 -0.44052586
-1.5576438 3.8580987 -0.44042027
-1.5269731 3.8500216 -0.43841445
-1.5051265 3.8639514 -0.43894228
-1.4860095 3.8851876 -0.44031471
-1.4579462 3.8830614 -0.43904787
-1.4323729 3.8872693 -0.43852001
-1.4159353 3.9165573 -0.44084257
-1.3912121 3.9232974 -0.44063142
-1.3615586 3.9157934 -0.43883672
-1.3391109 3.9287798 -0.43936458
-1.3089906 3.919003 -0.43735874
-1.2824444 3.9194005 -0.4365142
-1.2601926 3.9328773 -0.43714762
-1.2387173 3.9490747 -0.43809775
-1.213587 3.9537492 -0.43778104
-1.1904489 3.9649308 -0.43820331
-1.1649771 3.968344 -0.43778104
-1.1422522 3.9811523 -0.43841445
-1.1161916 3.9823413 -0.43778104
-1.0925235 3.9919927 -0.43809775
-1.0669813 3.9947782 -0.43767545
-1.0432024 4.0041366 -0.43799216
-1.017634 4.0066071 -0.43756989
-0.98705506 3.9886444 -0.43493065
-0.96209645 3.9926925 -0.4347195
-0.93985128 4.0082016 -0.43577519
-0.9220975 4.0439472 -0.43904787
-0.9032945 4.0767121 -0.44200382
-0.88286793 4.1035652 -0.44432637
-0.86031574 4.1215591 -0.44569877
-0.83520746 4.1277351 -0.44580433
-0.81101269 4.1386371 -0.44643775
-0.786901 4.1503744 -0.44717675
-0.76249623 4.1609931 -0.44781017
-0.73625696 4.1616769 -0.44738787
-0.70970333 4.1602345 -0.44675446
-0.68335652 4.1596045 -0.44622663
-0.65999538 4.1774702 -0.44770458
-0.63718724 4.2001209 -0.44971043
-0.61097395 4.2009993 -0.44939372
-0.5836761 4.1938353 -0.44823244
-0.55963761 4.2101521 -0.44960487
-0.53742278 4.2421155 -0.45266637
-0.51197886 4.2502699 -0.45319423
-0.48532501 4.2483912 -0.45266637
-0.46021074 4.2601871 -0.4536165
-0.43557528 4.2777696 -0.45520005
-0.41131014 4.3011494 -0.45741701
-0.38437867 4.2976494 -0.45678359
-0.35734031 4.2919993 -0.45593905
-0.33046237 4.2871709 -0.45520005
-0.30478495 4.2980447 -0.45615017
-0.27911529 4.31075 -0.45731145
-0.2535927 4.3282647 -0.45900059
-0.22760458 4.340662 -0.46016183
-0.20179671 4.3598576 -0.46206209
-0.1757618 4.3788981 -0.46396235
-0.14892402 4.380888 -0.46406794
-0.12192927 4.3777437 -0.46364564
-0.095456794 4.3963041 -0.46554589
-0.069011211 4.430613 -0.46913528
-0.041986179 4.4478574 -0.47092998
-0.014693852 4.4480309 -0.47092998
0.012631118 4.4599705 -0.47219682
0.039908994 4.4498653 -0.4711411
0.0674055 4.4624624 -0.47251353
0.095498614 4.4957676 -0.47610289
0.12356971 4.51299 -0.47800314
0.15192209 4.5320239 -0.48011455
0.17949156 4.5250444 -0.47948113
0.20793387 4.5387588 -0.48106468
0.23557341 4.5334249 -0.48064241
0.26344311 4.532887 -0.48074797
0.29195154 4.5421014 -0.48190925
0.32030398 4.5471683 -0.48264822
0.3498669 4.5669308 -0.48497075
0.37976623 4.5874915 -0.48739886
0.40711555 4.5761604 -0.48644873
0.43716186 4.5943656 -0.4886657
0.46674597 4.6054473 -0.49014369
0.49658865 4.6173277 -0.49172723
0.52592111 4.6230865 -0.49267736
0.55581611 4.6326079 -0.49404976
0.58360887 4.6241775 -0.49352193
0.60766709 4.5879769 -0.49003813
0.63921887 4.6087871 -0.49267736
0.67261648 4.6402078 -0.49647787
0.70077854 4.6340265 -0.49626672
0.73213631 4.6483035 -0.49827257
0.76674712 4.681015 -0.50228423
0.79778773 4.6899476 -0.50376219
0.82585913 4.681047 -0.50333995
0.85724556 4.6905646 -0.50492346
0.88674879 4.6891251 -0.50534576
0.91455084 4.6787157 -0.5048179
0.94245523 4.669117 -0.5043956
0.97716463 4.6924529 -0.5075627
1.0119871 4.7145658 -0.51062423
1.0447576 4.7257452 -0.51252449
1.0770419 4.7337909 -0.51410806
1.1081054 4.7358074 -0.51505816
1.1406285 4.7434225 -0.51664174
1.1763843 4.7633662 -0.51959765
1.2121835 4.7820854 -0.52244806
1.2465055 4.7938066 -0.52455944
1.2792248 4.7985592 -0.52593189
1.3188586 4.8280325 -0.53004909
1.3605092 4.8629446 -0.53479975
1.3979846 4.8812737 -0.53775567
1.4337795 4.8926444 -0.53997266
1.4697661 4.903759 -0.5421896
1.5111851 4.9317303 -0.54630685
1.5455757 4.9356508 -0.54778481
1.5867344 4.9601727 -0.55158532
1.6106576 4.9304919 -0.54936838
1.6716977 5.0129676 -0.5597142
1.7113923 5.028976 -0.56267017
1.7438474 5.023078 -0.56319803
1.7205558 4.8594818 -0.54599017
1.7601289 4.8759589 -0.54905164
1.8150718 4.9331975 -0.55675828
1.8857884 5.029983 -0.56900436
1.9549221 5.11865 -0.58040589
1.9953022 5.1297288 -0.58304518
2.0325971 5.1321826 -0.58473426
2.0614471 5.1131577 -0.58399528
2.0969334 5.1105332 -0.58515656
2.1416569 5.1296897 -0.58885151
2.1835849 5.1411657 -0.59170192
2.2245514 5.149581 -0.5942356
2.2653031 5.1567755 -0.59666365
2.3123078 5.1772833 -0.60067534
2.3460863 5.1675253 -0.6012032
2.3814983 5.1611595 -0.6021533
2.4325366 5.1878681 -0.60700953
2.4814265 5.2087564 -0.61123234
2.5098753 5.1862712 -0.61038774
2.5675259 5.2234292 -0.61661637
2.5919793 5.192451 -0.61482167
2.6269374 5.1826587 -0.61556071
2.6882579 5.2239189 -0.62242275
2.7326896 5.2311244 -0.62527311
2.7805707 5.2441311 -0.6288625
2.8023312 5.207705 -0.62653995
2.8475738 5.2148509 -0.62949592
2.9031277 5.2399049 -0.63466883
2.9396088 5.229795 -0.63561898
2.9800148 5.226346 -0.63741362
3.0125248 5.2088237 -0.63751924
3.0444288 5.1902409 -0.63751924
3.0670691 5.1560783 -0.63561898
3.1135406 5.1618576 -0.63868046
3.1617541 5.1698046 -0.64205873
3.2128015 5.1815791 -0.6459648
3.2514129 5.1727138 -0.6473372
3.2756112 5.140924 -0.64585924
3.3114088 5.1274118 -0.64670378
3.3471639 5.1136532 -0.64754838
3.3707831 5.0814176 -0.64607036
3.4063361 5.0672417 -0.64691496
3.4446404 5.0569305 -0.64828736
3.467133 5.0234218 -0.64670378
3.4842157 4.9824939 -0.64417011
3.5026522 4.9439802 -0.64195317
3.5624888 4.9636002 -0.6473372
3.6034024 4.9561262 -0.64923745
3.6443577 4.9483361 -0.65113771
3.677624 4.9298677 -0.65166557
3.7054064 4.9040356 -0.65124333
3.7354271 4.881207 -0.65124333
3.7823617 4.8802042 -0.65419924
3.8067098 4.8498635 -0.65324914
3.8357778 4.8256364 -0.65314358
3.859704 4.7950373 -0.65219343
3.8783739 4.7581596 -0.65039873
3.8828127 4.70436 -0.64628154
3.9103298 4.6789212 -0.64607036
3.9396076 4.6555986 -0.64617592
3.9603367 4.6222754 -0.64490908
4.0283685 4.643713 -0.65134889
4.0495682 4.6106887 -0.65018761
4.071836 4.5790658 -0.64923745
4.1078396 4.5628648 -0.65050429
4.152504 4.5559487 -0.65314358
4.1871228 4.5376925 -0.65419924
4.2040272 4.500288 -0.65251017
4.2397599 4.4830785 -0.653777
4.2761264 4.4663177 -0.6551494
4.315907 4.4528499 -0.65704966
4.334095 4.4170561 -0.65567726
4.3653202 4.3946128 -0.65631068
4.4225197 4.3978996 -0.66085017
4.4643178 4.3853159 -0.6630671
4.4775834 4.3446822 -0.66106129
4.4962611 4.3095565 -0.65990001
4.5233417 4.2825708 -0.66000557
4.5647845 4.269001 -0.66222256
4.6040392 4.2530589 -0.66412282
4.606545 4.2032781 -0.66074461
4.6226468 4.1662779 -0.65937215
4.6444101 4.1345291 -0.65884435
4.6659584 4.1026702 -0.65831649
4.6970496 4.0791798 -0.65916103
4.6978397 4.0295625 -0.65578282
4.7202001 3.9987328 -0.65546608
4.7644749 3.9862878 -0.65821093
4.7919106 3.9595125 -0.65863317
4.8022485 3.9187171 -0.65673292
4.8076215 3.8742003 -0.65419924
4.8172979 3.8334816 -0.65229899
4.832129 3.7970915 -0.65113771
4.8451242 3.7594447 -0.64976531
4.8681006 3.729645 -0.64976531
4.9012022 3.7075045 -0.65113771
4.9278426 3.680337 -0.65166557
4.9543333 3.6529822 -0.65219343
4.9790659 3.62427 -0.65251017
4.9753709 3.5750794 -0.64913189
4.9728823 3.5272224 -0.6459648
5.0042057 3.5034876 -0.64723164
5.055058 3.4930708 -0.65103215
5.0837893 3.467031 -0.65198231
5.065371 3.4091172 -0.64691496
5.0911632 3.3812737 -0.64754838
5.1093197 3.3483357 -0.64723164
5.1297684 3.3169227 -0.64723164
5.1558924 3.289129 -0.64797062
5.174294 3.2563715 -0.6477595
5.1975565 3.2266598 -0.6481818
5.2181053 3.1952267 -0.64828736
5.2520819 3.1718898 -0.65008205
5.2722998 3.1401126 -0.65018761
5.2940402 3.1092143 -0.65050429
5.3018317 3.0701928 -0.64913189
5.305027 3.0287275 -0.64723164
5.3139791 2.9907537 -0.64607036
5.3122311 2.9469941 -0.64364225
5.3110194 2.903846 -0.64131975
5.3488708 2.8820548 -0.64374787
5.3848972 2.8589747 -0.6459648
5.3952894 2.8221917 -0.64512026
5.3789158 2.7717214 -0.64110857
5.3958216 2.7386646 -0.64110857
5.4116349 2.7050602 -0.64100301
5.4263468 2.6709259 -0.64079189
5.4703722 2.6510267 -0.64406455
5.5107675 2.6289742 -0.64691496
5.5114937 2.5879247 -0.64512026
5.519145 2.550303 -0.64417011
5.5383101 2.5180368 -0.6445924
5.554564 2.4844131 -0.64469796
5.5287457 2.4322603 -0.6399473
5.5581675 2.4046099 -0.64163643
5.5975227 2.3809724 -0.64448684
5.6294575 2.3538723 -0.64649266
5.6189618 2.3090782 -0.64364225
5.6330242 2.2745576 -0.64364225
5.6514959 2.2417848 -0.64417011
5.6697779 2.2088711 -0.64469796
5.6906543 2.1768837 -0.6455425
5.7085586 2.1436737 -0.64607036
5.7439976 2.1168616 -0.64860404
5.7335 2.0731213 -0.6459648
5.7367406 2.0345774 -0.64490908
5.7650833 2.0048935 -0.64670378
5.7932763 1.9749383 -0.64849848
5.8062286 1.9396693 -0.64860404
5.8114057 1.9018408 -0.64786506
5.8305411 1.8685755 -0.6487096
5.8561287 1.8372314 -0.65029317
5.8977103 1.8106064 -0.65367138
5.930613 1.780965 -0.6560995
5.9519243 1.7476246 -0.65726078
5.9654031 1.7118946 -0.65757751
5.9499431 1.6680092 -0.6547271
5.9332113 1.6241156 -0.65177113
5.9276938 1.5835714 -0.65008205
2.5790431 0.67168617 -0.28164318
2.5821521 0.65560389 -0.28153762
2.5870914 0.63998675 -0.28164318
2.6006367 0.62643164 -0.2826989
2.6179852 0.61364293 -0.28417689
2.621701 0.59756774 -0.28417689
2.6486182 0.58663642 -0.28671056
2.6628613 0.57267612 -0.28787181
2.6624317 0.55551302 -0.28744954
6.0750456 1.2295345 -0.65673292
6.0775967 1.1912787 -0.65620506
6.0779529 1.1526672 -0.65546608
6.0917578 1.1166075 -0.65620506
6.1033907 1.080075 -0.65673292
2.6702919 0.45529878 -0.28628826
2.6769602 0.43955103 -0.28671056
2.6855001 0.4240492 -0.28734398
2.6674056 0.40442801 -0.28512701
2.6314592 0.38246617 -0.28100976
2.6248925 0.36507758 -0.28005964
2.6073687 0.34634113 -0.27794826
2.5907011 0.32795867 -0.27594241
2.5778558 0.31027016 -0.27435887
2.6083622 0.29772425 -0.2774204
6.0525985 0.65410799 -0.6450147
6.0723267 0.61857176 -0.64670378
6.0967956 0.58329195 -0.64892077
6.1042213 0.54622668 -0.64934301
6.0589008 0.50471157 -0.64417011
6.0628748 0.46760193 -0.64427567
6.0765405 0.43116739 -0.64543694
6.0820489 0.39406753 -0.64575368
6.0952721 0.35738274 -0.64691496
6.2701387 0.32906187 -0.6652841
6.2541599 0.28975263 -0.66338384
6.2319732 0.25041172 -0.66085017
6.0674224 0.20650212 -0.64322001
6.0536652 0.16885178 -0.64163643
6.0356979 0.13129111 -0.63963062
6.0234642 0.094051093 -0.63825822
5.9901195 0.056766048 -0.63466883
5.9645004 0.01992118 -0.63192403
5.3584919 -0.0096029527 -0.65928972
5.3613091 -0.042505603 -0.65965694
5.3688869 -0.075513206 -0.66063601
2.281343 -0.045947682 -0.27988377
2.2532382 -0.059211824 -0.27645686
2.2478726 -0.072874986 -0.27584493
2.2503583 -0.08678136 -0.2762121
2.2725878 -0.10160974 -0.27902704
2.2699392 -0.11545112 -0.27878225
2.2771151 -0.12982984 -0.27976137
2.2762754 -0.14379951 -0.27976137
2.2278254 -0.15446344 -0.27388671
5.1869001 -0.39194879 -0.6399523
2.2316973 -0.18227607 -0.27462104
2.2206502 -0.19509637 -0.27339715
2.2105184 -0.20788105 -0.27229565
2.2022886 -0.22074696 -0.27143893
2.1910236 -0.23320426 -0.27021503
2.1856065 -0.24619891 -0.26972547
2.1860261 -0.25983942 -0.26997024
2.1893144 -0.27386424 -0.2705822
2.1954648 -0.28832716 -0.27156129
2.196604 -0.30219901 -0.27192846
2.2055144 -0.31722692 -0.27327475
5.062551 -0.76022202 -0.629794
5.0362186 -0.78789502 -0.62710142
4.9901471 -0.81208432 -0.62196112
4.9566908 -0.83788931 -0.61841184
4.8996458 -0.85919911 -0.61192518
4.8591285 -0.88285774 -0.60751921
4.8643489 -0.91467422 -0.60886544
4.8469539 -0.94223082 -0.60739678
4.8264856 -0.96902221 -0.60556096
4.8175335 -0.99801463 -0.60519379
4.7754073 -1.0198841 -0.60066539
4.747735 -1.0444739 -0.59797287
4.7393012 -1.0731473 -0.59772807
4.713295 -1.0977035 -0.59528029
4.6668978 -1.1171283 -0.59026235
4.6329699 -1.1391063 -0.58683544
4.602798 -1.1616821 -0.58389813
4.5715637 -1.183682 -0.58083838
4.5440707 -1.2063613 -0.57826823
4.5298796 -1.2323962 -0.57741147
4.4839907 -1.2495092 -0.5725159
4.4733763 -1.2761821 -0.57214874
4.4397388 -1.2960953 -0.56884426
4.4412122 -1.3261529 -0.57006812
4.4111595 -1.3467122 -0.56725317
4.3677588 -1.3628135 -0.56272483
4.3574233 -1.3889849 -0.56248003
4.3450437 -1.4144664 -0.5619905
4.3230977 -1.4367176 -0.56027704
4.2728462 -1.4491882 -0.55489188
4.2526188 -1.4714836 -0.55342323
4.2397661 -1.4962281 -0.55293369
4.2230349 -1.519526 -0.55195457
4.2108364 -1.5443841 -0.5515874
4.1994214 -1.5694971 -0.55134261
4.1869302 -1.5941752 -0.55097544
4.1622643 -1.6140934 -0.54901725
4.1116657 -1.6235615 -0.54363209
4.0970221 -1.6469085 -0.54302019
4.0721426 -1.6660026 -0.54106194
4.0462675 -1.6844722 -0.53898132
4.0422525 -1.7119776 -0.53983808
4.0034165 -1.7245742 -0.536044
3.9709418 -1.7395474 -0.53310668
3.9465945 -1.7578218 -0.5312708
3.9068031 -1.7689033 -0.52735436
3.874238 -1.7828827 -0.52441704
3.8344572 -1.7931656 -0.5205006
3.8197968 -1.8149557 -0.52001101
3.8246765 -1.8461261 -0.52221406
3.766048 -1.8464003 -0.5157274
3.7324371 -1.8584131 -0.51266772
3.7200782 -1.8808321 -0.51254529
3.714648 -1.9067957 -0.51340204
3.6738341 -1.9144155 -0.50936317
3.6400857 -1.9253196 -0.50630349
3.6264551 -1.9466795 -0.50605869
3.6039836 -1.9631965 -0.50459003
3.5501769 -1.9622258 -0.49871534
3.533742 -1.981545 -0.49810341
3.5034013 -1.9928839 -0.49553323
3.4816513 -2.0088863 -0.49418694
3.4632638 -2.0267022 -0.49333021
3.4482026 -2.0463943 -0.49296305
3.4355812 -2.0675137 -0.49296305
3.4253721 -2.090106 -0.49333021
3.409951 -2.1095178 -0.49296305
3.3776052 -2.1182716 -0.4901481
3.3620317 -2.1373589 -0.48978093
3.3563616 -2.1627865 -0.49088246
3.3289022 -2.1741133 -0.48880184
3.3188097 -2.1966894 -0.4892914
3.3060927 -2.2175648 -0.48941377
3.2727249 -2.2244179 -0.48647645
3.2508409 -2.2388272 -0.48525256
3.2199509 -2.246804 -0.48268238
3.2125874 -2.2711029 -0.4836615
3.1945574 -2.2878826 -0.48304954
3.180459 -2.307441 -0.48304954
3.163842 -2.3251491 -0.48268238
3.1327977 -2.3320718 -0.4801122
3.1160519 -2.3494577 -0.47974503
3.0960562 -2.3643165 -0.47888833
3.0775657 -2.3802328 -0.47827637
3.0597777 -2.3966234 -0.47778681
3.0481246 -2.41782 -0.47827637
3.0278158 -2.4321263 -0.47741964
3.008986 -2.4475272 -0.47680771
2.9916134 -2.464051 -0.47644055
2.9772003 -2.4829965 -0.47656292
2.955843 -2.4960945 -0.47558382
2.9434886 -2.5167642 -0.47607338
2.918987 -2.5269821 -0.4746047
2.8967097 -2.5389569 -0.4735032
2.8721688 -2.5487773 -0.47203454
2.8394964 -2.5510957 -0.4692196
2.8274605 -2.5718098 -0.46983153
2.8057866 -2.5837317 -0.46885243
2.7869768 -2.5981917 -0.46836287
2.7587125 -2.6036618 -0.46628225
2.7347918 -2.6129975 -0.46493596
2.7130005 -2.6242082 -0.46395686
2.700393 -2.6442776 -0.46456879
2.6883459 -2.6649899 -0.46530312
2.6635375 -2.672998 -0.46383446
2.6456938 -2.687876 -0.4635897
2.6180823 -2.6926732 -0.46163148
2.5946367 -2.7015283 -0.46040758
2.5780115 -2.7173979 -0.46040758
2.5585749 -2.730268 -0.45991802
2.5437965 -2.748101 -0.46028519
2.526217 -2.7629251 -0.46016279
2.5052257 -2.7739539 -0.45942846
2.484194 -2.7848296 -0.45869413
2.4644356 -2.7970409 -0.45820457
2.4524386 -2.8180997 -0.45918369
2.4318666 -2.8293309 -0.45857173
2.4061112 -2.8343627 -0.45698068
2.3835738 -2.8429883 -0.45600158
2.3603885 -2.8506796 -0.45490006
2.3478782 -2.8712559 -0.45587918
2.3258519 -2.880203 -0.45502245
2.2982357 -2.8820038 -0.45306423
2.2860346 -2.9030695 -0.45416573
2.254777 -2.8998036 -0.45147318
2.2315025 -2.9064987 -0.45037168
2.2088306 -2.9138086 -0.44939256
2.1950727 -2.9328692 -0.45024928
2.1752663 -2.9438879 -0.44988212
2.1583316 -2.9587834 -0.45012689
2.1407161 -2.9727764 -0.45024928
2.1212854 -2.9842377 -0.45000452
2.1035044 -2.9980099 -0.45012689
2.0918493 -3.0206521 -0.45159557
2.0749557 -3.0358887 -0.45196274
2.0562885 -3.0485632 -0.45196274
2.0336952 -3.0553396 -0.45110601
2.0105512 -3.0611238 -0.45012689
1.9895719 -3.0700707 -0.44963735
1.9733698 -3.0864019 -0.45024928
1.9522769 -3.0950942 -0.44975972
1.9301035 -3.1019588 -0.44902539
1.9141484 -3.1188188 -0.44975972
1.8980591 -3.1355994 -0.45049405
1.8762404 -3.1429257 -0.44988212
1.8503758 -3.1432598 -0.44829106
1.8270689 -3.147687 -0.44731194
1.8087064 -3.1605613 -0.44755673
1.7951307 -3.1819732 -0.44902539
1.7765373 -3.1946628 -0.44927019
1.7559479 -3.2037625 -0.44902539
1.7372001 -3.2162232 -0.44927019
1.7188318 -3.2294505 -0.44963735
1.6980622 -3.238178 -0.44939256
1.6763393 -3.2450089 -0.44890299
1.6527965 -3.2481573 -0.4479239
1.6355027 -3.2635615 -0.44865823
1.6092989 -3.2610745 -0.44694477
1.589259 -3.2708876 -0.44694477
1.5717285 -3.2859497 -0.4476791
1.5587225 -3.3107975 -0.44975972
1.5379612 -3.3193986 -0.44963735
1.5167415 -3.3269668 -0.44939256
1.5023905 -3.3497946 -0.45122841
1.4882168 -3.3734791 -0.45318663
1.4678844 -3.3834579 -0.453309
1.4459282 -3.389662 -0.45294183
1.4266373 -3.4021316 -0.4534314
1.407626 -3.4154093 -0.45404336
1.3903677 -3.4331813 -0.45526725
1.3722106 -3.4490254 -0.45624635
1.353189 -3.4629269 -0.45698068
1.3354702 -3.4804311 -0.45820457
1.3161883 -3.4941328 -0.4589389
1.294724 -3.5021429 -0.4589389
1.2721958 -3.5072222 -0.45857173
1.2526478 -3.5205727 -0.45930606
1.2320031 -3.5310037 -0.45967326
1.2112774 -3.5413139 -0.46004042
1.1895256 -3.5486796 -0.46004042
1.1729919 -3.5719419 -0.46212101
1.1550021 -3.5913548 -0.46371207
1.1368183 -3.6106811 -0.46530312
1.1134734 -3.6137946 -0.46481359
1.0964329 -3.6376636 -0.46701658
1.0771778 -3.6547949 -0.46836287
1.0533587 -3.6565671 -0.46775091
1.0317091 -3.6658278 -0.46811807
1.0091965 -3.6720891 -0.46811807
0.99332994 -3.703136 -0.47130018
0.9723475 -3.7158825 -0.47215691
0.95369893 -3.7381277 -0.47423753
0.92930788 -3.7381301 -0.4735032
0.90215123 -3.7263985 -0.47130018
0.87881446 -3.7299318 -0.47105542
0.86189502 -3.7613742 -0.47435993
0.83987778 -3.7714357 -0.47497186
0.81609172 -3.773608 -0.4746047
0.79699737 -3.797971 -0.47705248
0.7750631 -3.809598 -0.47790921
0.75282425 -3.8201244 -0.47864354
0.73327315 -3.8451452 -0.48121372
0.71056533 -3.8544524 -0.48182565
0.68620604 -3.8548312 -0.48133609
0.66237241 -3.857991 -0.48121372
0.63868773 -3.8619826 -0.48121372
0.61731696 -3.8805311 -0.48304954
0.60128683 -3.9352634 -0.48941377
0.57684153 -3.9369147 -0.489169
0.55543011 -3.9600377 -0.49161679
0.52967197 -3.9525506 -0.4902705
0.50478101 -3.9508033 -0.48965856
0.48256436 -3.9705753 -0.49173915
0.45694232 -3.9626162 -0.49039289
0.43391052 -3.977185 -0.49186155
0.41183385 -4.00248 -0.4946765
0.38822204 -4.0148101 -0.49590039
0.36572593 -4.0408397 -0.49883774
0.34175825 -4.0528975 -0.50006163
0.31703824 -4.0568967 -0.50030643
0.29270917 -4.0666852 -0.50128549
0.2691184 -4.0892019 -0.50385571
0.24337302 -4.0798783 -0.50250942
0.21923508 -4.0981431 -0.50459003
0.19478837 -4.1142817 -0.50642586
0.17002946 -4.1272993 -0.50789452
0.14515282 -4.1411591 -0.5094856
0.11988352 -4.1469321 -0.5100975
0.09585575 -4.2101002 -0.51780802
0.0700377 -4.2116013 -0.51793045
0.044380881 -4.229815 -0.52013344
0.018541556 -4.2568045 -0.52343792
-0.0076145409 -4.2766881 -0.5258857
-0.033911061 -4.2835078 -0.52674246
-0.060725659 -4.32093 -0.53139323
-0.087779731 -4.3472672 -0.53469771
-0.11400735 -4.3297806 -0.53261709
-0.14131439 -4.3518143 -0.53543204
-0.1679756 -4.3498735 -0.53530967
-0.19595148 -4.3775144 -0.53885895
-0.2247275 -4.4138951 -0.54350972
-0.25152341 -4.4074788 -0.54289776
-0.27824903 -4.4008999 -0.54228586
-0.30607229 -4.4109907 -0.54375452
-0.33358085 -4.4149675 -0.54448885
-0.36163515 -4.4247079 -0.54595751
-0.38990843 -4.4352584 -0.54754859
-0.41702229 -4.4317942 -0.54742616
-0.44668481 -4.4538403 -0.55048591
-0.47526649 -4.4628582 -0.55195457
-0.50486523 -4.4795828 -0.55440235
-0.53433532 -4.493155 -0.55648297
-0.56201804 -4.4907761 -0.55660534
-0.59020901 -4.4921632 -0.5572173
-0.61965656 -4.5022225 -0.55893075
-0.65928966 -4.5818357 -0.56933379
-0.69137144 -4.6042042 -0.57263833
-0.72145069 -4.6116414 -0.57410699
-0.75356078 -4.6306381 -0.57704431
-0.7854346 -4.6464772 -0.57961446
-0.8115294 -4.6278853 -0.57790107
-0.84896123 -4.6726193 -0.58414286
-0.8818354 -4.6897559 -0.58695781
-0.91229957 -4.6930251 -0.58805931
-0.9399057 -4.6815004 -0.58732498
-0.97546011 -4.7086878 -0.59148622
-1.0070292 -4.7152314 -0.5930773
-1.0480999 -4.7642131 -0.60005343
-1.078409 -4.7625322 -0.60066539
-1.1085116 -4.7596917 -0.60115498
-1.1439353 -4.778861 -0.60445946
-1.1784506 -4.7929549 -0.60715204
-1.2088091 -4.7894831 -0.60764158
-1.2401646 -4.7896619 -0.6086207
-1.2815017 -4.8270469 -0.61437297
-1.3181317 -4.8449497 -0.61767745
-1.3483678 -4.8386827 -0.61792225
-1.3712239 -4.8064585 -0.6148625
-1.4059753 -4.8160553 -0.61718792
-1.4423162 -4.8301611 -0.62012523
-1.4780132 -4.8411541 -0.62269545
-1.5239518 -4.8841019 -0.62942684
-1.5605236 -4.895462 -0.63211936
-1.5945269 -4.8980632 -0.63371044
-1.6295596 -4.9032564 -0.63566864
-1.6621654 -4.9006844 -0.63664776
-1.7035648 -4.9232197 -0.64093137
-1.7439816 -4.9416871 -0.64472544
-1.7840164 -4.9579744 -0.64827472
-1.8215822 -4.9665017 -0.65084493
-1.8735672 -5.0128698 -0.65843302
-1.9152398 -5.0300326 -0.66222709
-1.9536041 -5.0376177 -0.66479725
-1.9841131 -5.0246129 -0.66467488
-2.0326767 -5.0565443 -0.67054951
-2.0768199 -5.0761266 -0.67483318
-2.1258576 -5.1063509 -0.68058544
-2.1741819 -5.1334209 -0.68597054
-2.2240965 -5.1628237 -0.69172281
-2.260911 -5.1608973 -0.6933139
-2.297785 -5.1587133 -0.69490498
-2.3326705 -5.1517501 -0.69588405
-2.394114 -5.2022533 -0.70469606
-2.4356604 -5.2081428 -0.70751101
-2.4794989 -5.2181993 -0.71093792
-2.5287297 -5.2386384 -0.71583349
-2.5748084 -5.2515397 -0.71974993
-2.6140614 -5.2498565 -0.72170818
-2.6748877 -5.2904019 -0.72954106
-2.7322295 -5.3224506 -0.73627245
-2.776762 -5.3284688 -0.73945457
-2.8251836 -5.3411584 -0.74361581
-2.877151 -5.3595748 -0.74863374
-2.9090331 -5.3400769 -0.74838895
-2.937423 -5.3143096 -0.74728745
-2.9782288 -5.3109016 -0.74936807
-3.0249925 -5.317544 -0.75291735
-3.0813744 -5.3401446 -0.75879204
-3.1125789 -5.3185678 -0.75842488
-3.1284373 -5.2712049 -0.75438601
-3.1699345 -5.2672162 -0.756589
-3.2177041 -5.2730818 -0.7602607
-3.262531 -5.2734952 -0.76319802
-3.2964094 -5.2558994 -0.76356518
-3.3232718 -5.2271991 -0.76234132
-3.357971 -5.2108808 -0.76295328
-3.4029074 -5.2101207 -0.7658906
-3.4380987 -5.1941085 -0.76662493
-3.461611 -5.1605515 -0.7647891
-3.4803772 -5.1203365 -0.76197416
-3.5083518 -5.0939803 -0.76123983
-3.5412457 -5.0747995 -0.76160699
-3.5820582 -5.066752 -0.76368761
-3.6483333 -5.0938954 -0.77115333
-3.6917605 -5.0882831 -0.77372348
-3.71821 -5.0591378 -0.77274436
-3.7391064 -5.0226946 -0.77066374
-3.7674644 -4.9964871 -0.77017421
-3.8058829 -4.98353 -0.77176529
-3.8357823 -4.9592991 -0.77164286
-3.8771565 -4.9497333 -0.77384585
-3.9284267 -4.9522858 -0.77800709
-3.9674416 -4.9389205 -0.77972054
-3.9976714 -4.9144835 -0.77972054
-4.029644 -4.8921599 -0.78008771
-4.0634003 -4.8719153 -0.78082204
-4.0912962 -4.8446164 -0.78045487
-4.1028843 -4.7983012 -0.77702796
-4.1075625 -4.744524 -0.77237719
-4.1581869 -4.7438598 -0.77641606
-4.1753578 -4.704895 -0.77421302
-4.1756244 -4.6474423 -0.76895034
-4.1947117 -4.6114559 -0.76723689
-4.2276344 -4.5907412 -0.76809359
-4.2631683 -4.5726995 -0.76943988
-4.2659388 -4.5197506 -0.76491147
-4.2723355 -4.4712462 -0.7611174
-4.3045201 -4.4499407 -0.76197416
-4.3421602 -4.4340811 -0.76380998
-4.3322511 -4.3700004 -0.75732338
-4.3955431 -4.3797622 -0.76368761
-4.4103088 -4.3408742 -0.76160699
-4.4347258 -4.3116555 -0.76123983
-4.4661098 -4.2891755 -0.76209652
-4.4959435 -4.2651062 -0.76270849
-4.5126143 -4.2286177 -0.7611174
-4.5217228 -4.1853437 -0.75830245
-4.5509806 -4.1608686 -0.75891441
-4.571269 -4.1282101 -0.75805771
-4.5839224 -4.0888529 -0.75597709
-4.610414 -4.0619617 -0.75622183
-4.6711898 -4.0648675 -0.76209652
-4.7186241 -4.0555353 -0.76576823
-4.7373667 -4.021368 -0.7647891
-4.7315288 -3.9667208 -0.75989354
-4.7290215 -3.9154618 -0.75560993
-4.7729349 -3.902705 -0.75879204
-4.8222742 -3.8939204 -0.76283085
-4.8243475 -3.8469334 -0.75940394
-4.8065329 -3.7847197 -0.75291735
-4.8171282 -3.7454093 -0.75095916
-4.8384442 -3.7145729 -0.75071436
-4.8682642 -3.6902103 -0.75181586
-4.893199 -3.6620533 -0.75218302
-4.9059973 -3.6248834 -0.75071436
-4.9169207 -3.5865247 -0.74900091
-4.9340024 -3.552808 -0.74826658
-4.9508553 -3.5190167 -0.74753225
-4.9650416 -3.4834428 -0.74643075
-4.9887705 -3.4546075 -0.74679792
-5.0164289 -3.4284117 -0.74777704
-5.031611 -3.3936822 -0.74692029
-5.0267267 -3.3456988 -0.74312621
-5.0372057 -3.308255 -0.74165756
-5.0807314 -3.2923965 -0.74508446
-5.1000013 -3.2606254 -0.7449621
-5.0888515 -3.2096815 -0.74043369
-5.1371017 -3.1962218 -0.74459487
-5.1566167 -3.1646409 -0.74459487
-5.1632013 -3.1252327 -0.74275905
-5.1916547 -3.0990884 -0.74410534
-5.2208366 -3.073216 -0.745574
-5.2250023 -3.0326548 -0.74349338
-5.253849 -3.0064523 -0.7449621
-5.2773843 -2.9770844 -0.74569643
-5.2703972 -2.9306605 -0.74214715
-5.2908907 -2.8996978 -0.74251431
-5.3068371 -2.8662355 -0.74226952
-5.3103056 -2.8261595 -0.74031126
-5.309967 -2.7843056 -0.73786348
-5.3013787 -2.7384636 -0.7343142
-5.3269277 -2.7103839 -0.73553813
-5.3505569 -2.6812043 -0.73651725
-5.3820381 -2.6557889 -0.73859781
-5.3866272 -2.6170776 -0.73700678
-5.385572 -2.5758407 -0.73468137
-5.3905001 -2.5376749 -0.73321271
-5.4104719 -2.5066373 -0.73382467
-5.431169 -2.475862 -0.734559
-5.4381084 -2.4388356 -0.73345751
-5.4756718 -2.4154353 -0.73651725
-5.499495 -2.3857412 -0.73774111
-5.5103784 -2.3503947 -0.73725158
-5.5192046 -2.3142369 -0.73651725
-5.5360537 -2.2814624 -0.73688442
-5.5343094 -2.2411187 -0.7348038
-5.5940661 -2.2254603 -0.74092323
-5.5817318 -2.1809812 -0.73749632
-5.5996423 -2.1484685 -0.73810828
-5.6257229 -2.1189663 -0.73982173
-5.6386185 -2.0844078 -0.73982173
-5.6559672 -2.0514627 -0.74043369
-5.6936955 -2.0257008 -0.74373817
-5.7219486 -1.9962841 -0.74581879
-5.7115517 -1.9534298 -0.74288148
-5.7102556 -1.9139326 -0.74116802
-5.732264 -1.8822645 -0.74251431
-5.7484298 -1.8485756 -0.74312621
-5.7710247 -1.8168451 -0.74459487
-5.8076735 -1.7892894 -0.74789941
-5.7824326 -1.7427388 -0.74324864
-5.8158655 -1.7139583 -0.74618596
-5.8339024 -1.6804378 -0.74716508
-5.840282 -1.6435349 -0.74667549
-5.8397293 -1.6047761 -0.74532926
-5.8523417 -1.5696853 -0.74569643
-5.8925886 -1.5417843 -0.74961287
-5.9077082 -1.5070709 -0.7503472
-5.9139543 -1.4700752 -0.74998003
-5.940227 -1.4379628 -0.75218302
-5.9595647 -1.4039901 -0.75352931
-5.9535561 -1.3640723 -0.75169349
-5.9715014 -1.3296731 -0.75291735
-5.9979787 -1.2969923 -0.75524276
-6.0135946 -1.2617952 -0.75622183
-6.0562363 -1.2319938 -0.76062787
-6.0870523 -1.1994143 -0.76356518
-6.0903974 -1.1612986 -0.76307565
-6.0759354 -1.1199497 -0.76038307
-6.0885553 -1.0836908 -0.7611174
-6.0999813 -1.047151 -0.76172936
-6.0974789 -1.0082456 -0.76062787
-6.0957088 -0.96956635 -0.75964874
-6.0956569 -0.93124646 -0.75891441
-6.0767059 -0.89023107 -0.75585467
-6.0791054 -0.85251498 -0.7554875
-6.0655322 -0.81269485 -0.75316215
-6.050714 -0.77294767 -0.75071436
-6.0484462 -0.73496884 -0.7498576
-6.0952382 -0.70272863 -0.75512034
-6.1162086 -0.6671446 -0.75720096
