# .PCD v0.7 - Point Cloud Data file format
VERSION 0.7
FIELDS x y z
SIZE 4 4 4
TYPE F F F
COUNT 1 1 1
WIDTH 1440
HEIGHT 1
VIEWPOINT 0 0 0 1 0 0 0
POINTS 1440
DATA ascii
-0.56315947 2.3435936 -0.61931336
-0.5474447 2.3413484 -0.61781311
-0.53392774 2.3484397 -0.61881328
-0.51929879 2.3507261 -0.61856323
-0.50486523 2.3538682 -0.61856323
-0.49298003 2.3692443 -0.62181377
-0.47977504 2.3788681 -0.62356406
-0.46795717 2.3960207 -0.62731469
-0.45864686 2.4273875 -0.63481599
-0.45123324 2.4711111 -0.64556777
-0.43606228 2.4738333 -0.64556777
-0.4286733 2.5222785 -0.65756983
-0.41960964 2.5640364 -0.66782153
-0.40552723 2.5770833 -0.67057198
-0.38738906 2.5642059 -0.66657132
-0.37137011 2.5646181 -0.66607124
-0.356958 2.5764389 -0.66857165
-0.34228754 2.5872192 -0.67082202
-0.32834753 2.6046405 -0.67482269
-0.31397566 2.6200647 -0.67832327
-0.29427871 2.5901952 -0.6700719
-0.27806917 2.5890641 -0.66932178
-0.26217771 2.5907216 -0.66932178
-0.24664363 2.596137 -0.67032194
-0.23062351 2.5966372 -0.6700719
-0.21612601 2.6153719 -0.67457265
-0.20214772 2.6436801 -0.68157387
-0.18735324 2.6651533 -0.68682474
-0.17068566 2.6614215 -0.68557453
-0.15986653 2.7571454 -0.71007866
-0.15799645 3.0471852 -0.78484118
-0.1392075 3.0461628 -0.7843411
-0.11905225 3.0101957 -0.77483952
-0.10217374 3.0582862 -0.78709155
-0.083778806 3.0724058 -0.79059219
-0.064842686 3.06899 -0.78959203
-0.046937358 3.1303217 -0.80534464
-0.027588839 3.1150599 -0.80134398
-0.0084775034 3.1161385 -0.80159402
0.010674028 3.1258142 -0.80409443
0.029753897 3.1150398 -0.80134398
0.048836879 3.1128623 -0.80084389
0.067140713 3.0757198 -0.79134232
0.086387902 3.0888 -0.7948429
0.10435452 3.0591815 -0.78734159
0.12153475 3.0188177 -0.77708989
0.14099389 3.0383265 -0.78234076
0.15907729 3.026768 -0.77959031
0.17798549 3.0315344 -0.78109056
0.19683319 3.0342503 -0.78209072
0.21647336 3.0474725 -0.78584135
0.23672915 3.06636 -0.79109228
0.25529876 3.061955 -0.79034215
0.27313387 3.0497224 -0.78759164
0.29386738 3.0691938 -0.79309261
0.31465402 3.0865982 -0.79809344
0.32859957 3.0384023 -0.78609139
0.34998196 3.0603788 -0.79234248
0.3638936 3.0177991 -0.78184068
0.38033625 2.9991798 -0.77758998
0.39975175 3.0044682 -0.77959031
0.41844603 3.0038769 -0.78009039
0.43380567 2.9801731 -0.77458948
0.45513156 2.9975584 -0.77984035
0.47396871 2.9975784 -0.78059047
0.49329388 3.0003464 -0.78209072
0.50876504 2.9800828 -0.77758998
0.53075004 2.9978807 -0.78309089
0.54948354 2.9964726 -0.78359097
0.56425357 2.9740186 -0.77859014
0.58304948 2.9733508 -0.77934027
0.60051489 2.9659214 -0.7783401
0.62443727 2.9896677 -0.7855913
0.64521271 2.997139 -0.7885918
0.65584362 2.9581466 -0.77934027
0.67441243 2.9559548 -0.77984035
0.69010657 2.9413915 -0.77708989
0.70111257 2.9079211 -0.76933861
0.72103465 2.9120235 -0.77158898
0.74770516 2.9422674 -0.78084052
0.76476842 2.9338763 -0.77984035
0.78300571 2.930064 -0.78009039
0.7989254 2.917733 -0.77809006
0.81968683 2.9230316 -0.78084052
0.84294587 2.9365611 -0.78584135
0.85658586 2.9164689 -0.78184068
0.87446487 2.9111581 -0.78184068
0.89941186 2.9288785 -0.78809172
0.90867484 2.8955884 -0.78059047
0.91874498 2.8659844 -0.7740894
0.94022638 2.8722563 -0.77733994
0.9602859 2.8737803 -0.77934027
0.96946889 2.8430889 -0.77258915
0.99039263 2.847147 -0.7753396
1.0071967 2.8391912 -0.77483952
1.0245987 2.8329575 -0.77483952
1.0516683 2.8529654 -0.78209072
1.074258 2.8600559 -0.78584135
1.1014696 2.8787329 -0.79284257
1.121572 2.8782358 -0.79459286
1.123865 2.8325973 -0.78384101
1.1321642 2.8032017 -0.77758998
1.157437 2.8159056 -0.78309089
1.1784273 2.8176839 -0.7855913
1.1972096 2.8139644 -0.78659147
1.2056135 2.7861257 -0.78084052
1.2234658 2.7804484 -0.7813406
1.2416888 2.7755406 -0.78209072
1.2578946 2.7661068 -0.78159064
1.2740314 2.7565782 -0.78109056
1.2896873 2.7460797 -0.78034043
1.3094301 2.7442322 -0.78209072
1.327088 2.7378888 -0.78259081
1.34258 2.7270882 -0.78184068
1.3657798 2.7317908 -0.7855913
1.3820779 2.7224956 -0.78534126
1.3960963 2.7087996 -0.78384101
1.4158317 2.7061882 -0.7855913
1.4210618 2.676069 -0.77934027
1.4686782 2.7252648 -0.79634315
1.4797999 2.7060065 -0.79334265
1.476653 2.6613128 -0.78284085
1.4972277 2.6597967 -0.78509122
1.5207188 2.6631734 -0.78884184
1.5312101 2.6437371 -0.78584135
1.5371081 2.6167579 -0.78059047
1.5546213 2.6097729 -0.7813406
1.5736079 2.6051581 -0.78284085
1.5931019 2.6012342 -0.78459114
1.5962685 2.5708432 -0.7783401
1.6192313 2.5724735 -0.78184068
1.6313407 2.5567753 -0.78009039
1.6433188 2.5410256 -0.7783401
1.6684302 2.5454726 -0.78284085
1.6684861 2.5117953 -0.77558964
1.6822453 2.4991002 -0.77483952
1.7057291 2.5007312 -0.77859014
1.7199407 2.4886246 -0.77809006
1.7468374 2.4946823 -0.78334093
1.7548308 2.4736495 -0.78009039
1.769411 2.462049 -0.77984035
1.7850542 2.4519286 -0.78009039
1.8040869 2.4463854 -0.78184068
1.8167466 2.4321661 -0.78084052
1.8164512 2.4008942 -0.77433944
1.8299712 2.3881662 -0.77383935
1.8422165 2.3738325 -0.77283919
1.8609343 2.3678138 -0.77458948
1.8820586 2.3646855 -0.77733994
1.9372308 2.4036102 -0.79409277
1.9409258 2.3781738 -0.78959203
1.9431485 2.3512902 -0.78459114
1.9364181 2.3140719 -0.77608973
1.9612184 2.3147073 -0.78034043
1.9760145 2.3033648 -0.78059047
1.9843974 2.2846167 -0.7783401
1.9887894 2.2614896 -0.77458948
1.9891105 2.2340553 -0.76933861
2.0125029 2.2325981 -0.77308923
2.0379095 2.2330832 -0.77758998
2.0496023 2.2184029 -0.77683985
2.0691271 2.2121503 -0.77909023
2.0700154 2.1860521 -0.77433944
2.0740116 2.1635225 -0.77083886
2.0832026 2.1465859 -0.76933861
2.0976913 2.1351449 -0.76983869
2.1250885 2.1366529 -0.77508956
2.1285427 2.1140192 -0.77158898
2.1525302 2.1117704 -0.77558964
2.1626668 2.0958271 -0.77458948
2.1887722 2.0952418 -0.77934027
2.1924434 2.0731223 -0.77608973
2.1902659 2.0457487 -0.77083886
2.2034886 2.0329275 -0.7710889
2.2152054 2.0187166 -0.77083886
2.2397819 2.0161011 -0.77508956
2.2564511 2.006181 -0.77658981
2.2265294 1.9552336 -0.76208735
1.1254395 0.97572649 -0.3815234
1.0799423 0.92469788 -0.36402044
1.0804226 0.91367525 -0.36227015
1.0815513 0.90330273 -0.3607699
1.0855802 0.89541662 -0.36026981
1.0873019 0.88567954 -0.35901961
1.0912075 0.87777686 -0.35851952
1.0920256 0.8674494 -0.35701928
1.0942814 0.8583408 -0.35601911
1.1002927 0.85220355 -0.35626915
1.1016568 0.84249359 -0.35501894
1.1191645 0.84505892 -0.35901961
1.1212246 0.83585966 -0.35801944
1.1161982 0.82149869 -0.3547689
1.1329635 0.82317656 -0.35851952
2.4326234 1.7456499 -0.77008873
2.4116893 1.7082975 -0.76008701
2.4451344 1.7095617 -0.76733828
2.4611557 1.698377 -0.76908857
2.4939346 1.6985092 -0.77608973
2.4769912 1.6648055 -0.76758832
2.5057156 1.6618882 -0.77333927
2.491564 1.630571 -0.76583803
2.4868829 1.6057953 -0.76133722
2.4754601 1.5769756 -0.75483614
0.849015 0.53307247 -0.25575224
0.8292309 0.51356369 -0.24875107
0.83897394 0.51250815 -0.25075141
0.84376091 0.50835103 -0.25125149
0.84603208 0.50266916 -0.25100145
0.85160583 0.49893847 -0.25175157
0.84794647 0.48982492 -0.24975124
0.85009497 0.48413306 -0.2495012
0.84545374 0.47463712 -0.24725083
0.84580952 0.46803251 -0.24650069
0.8546136 0.4660829 -0.24825099
0.8472265 0.45532334 -0.24525048
0.86112416 0.45601407 -0.24850103
0.8458851 0.44130489 -0.24325015
0.83910745 0.43123174 -0.24049969
0.84001046 0.42519924 -0.23999959
0.83913869 0.41830683 -0.23899943
0.82604963 0.40546003 -0.23449868
0.84072274 0.40629026 -0.23799926
0.80911154 0.38487932 -0.22824763
0.77639389 0.36346108 -0.21824594
0.73113775 0.33677861 -0.20474367
2.6620853 1.2082993 -0.75183564
2.6756372 1.194707 -0.75358593
2.669621 1.1724242 -0.74983531
2.6740983 1.1548694 -0.74908519
2.6766784 1.1365467 -0.74783498
2.6943231 1.1245792 -0.75083548
2.6984854 1.106923 -0.75008535
2.6836755 1.081653 -0.74408436
0.65499485 0.25882012 -0.17873929
0.6563127 0.25007173 -0.17823921
0.65420848 0.24467994 -0.17723905
0.67387038 0.24734986 -0.18223989
0.67229158 0.23744552 -0.18098968
0.67471135 0.22441779 -0.1804896
0.68018097 0.21700649 -0.18123972
0.68334758 0.21340777 -0.18173981
0.68649566 0.20977835 -0.18223989
0.69055223 0.20639642 -0.18299001
0.69675612 0.19897346 -0.18399018
0.69982874 0.19521645 -0.18449026
0.69821143 0.19015297 -0.18374014
0.70310718 0.18686327 -0.1847403
0.70986277 0.18400814 -0.18624055
0.71567112 0.18083906 -0.18749078
0.71582729 0.17621213 -0.18724073
0.69900888 0.16751364 -0.18248993
0.71133655 0.16586974 -0.18549043
0.75010431 0.17009802 -0.19549212
2.7303867 0.56822312 -0.71707982
2.8201876 0.56890094 -0.73983365
2.8065212 0.54824072 -0.73533285
1.6539359 0.31230068 -0.43153179
1.6548686 0.30197227 -0.43128175
1.6595508 0.29231748 -0.43203187
1.6641767 0.28261656 -0.43278202
1.6677904 0.27271324 -0.43328211
1.6751709 0.26337919 -0.43478236
1.6930301 0.25555837 -0.43903306
1.6993575 0.24586026 -0.44028327
1.7228919 0.2384901 -0.44603425
1.7099253 0.22600579 -0.4422836
1.6997527 0.21405366 -0.4392831
1.6741168 0.20038798 -0.43228194
2.8037636 0.31859523 -0.72558123
2.7421293 0.29454616 -0.70907849
1.556147 0.15722628 -0.40077662
1.5493715 0.14694051 -0.39877629
1.5473506 0.13717331 -0.39802617
1.5471983 0.12759639 -0.39777613
1.5469866 0.11802651 -0.39752609
1.5380234 0.1078509 -0.39502567
1.5357574 0.098225147 -0.39427555
1.5334314 0.088631265 -0.39352542
1.5126741 0.078113243 -0.38802448
1.5189282 0.069096595 -0.38952473
1.5144862 0.05958299 -0.38827452
1.5109525 0.050159041 -0.38727435
1.5170391 0.041046616 -0.3887746
1.5124223 0.031634204 -0.3875244
1.5203329 0.022471255 -0.38952473
1.5446471 0.013361531 -0.39577579
2.6576748 0.0052043772 -0.73167902
2.6836796 -0.011214324 -0.73887628
2.6787415 -0.027630659 -0.73754346
2.6264825 -0.04320509 -0.72314894
2.6097872 -0.058948342 -0.71861732
2.6045594 -0.074821688 -0.7172845
2.6435435 -0.092182815 -0.72821367
2.6564102 -0.10895595 -0.73194557
2.6441386 -0.12470724 -0.72874677
2.6173377 -0.13954085 -0.72154951
2.6279776 -0.15628573 -0.72474831
2.6298544 -0.17259741 -0.72554803
2.618171 -0.18797033 -0.72261578
2.5939071 -0.20223115 -0.71621823
2.6175883 -0.22024699 -0.72314894
2.611388 -0.23587005 -0.72181612
2.6271598 -0.25355724 -0.7266143
2.5814514 -0.26513788 -0.71435225
2.5970225 -0.28285262 -0.71915042
2.5464065 -0.29315525 -0.70555562
2.5962262 -0.31504941 -0.71995014
2.5751233 -0.3285321 -0.7146188
2.5721037 -0.34419864 -0.71435225
2.5957143 -0.36358684 -0.72154951
2.6039248 -0.3810432 -0.72448176
2.599632 -0.39672238 -0.7239486
2.6095231 -0.41463345 -0.72741395
2.5974207 -0.42906556 -0.72474831
2.5852396 -0.44336483 -0.72208267
2.5805728 -0.45888153 -0.72154951
2.5672822 -0.47278571 -0.71861732
2.5804279 -0.49159741 -0.72314894
2.5660152 -0.50518602 -0.71995014
2.5770345 -0.52380246 -0.7239486
2.5747154 -0.53980285 -0.72421521
2.5336723 -0.5474447 -0.71355253
2.537792 -0.56465614 -0.71568507
2.5615246 -0.58645785 -0.72341549
2.5372386 -0.59730297 -0.71755105
2.5419569 -0.61490035 -0.71995014
2.5446837 -0.6321131 -0.72181612
2.5463607 -0.64914417 -0.72341549
2.5413973 -0.66451222 -0.72314894
2.5391338 -0.68059272 -0.72368205
2.5181813 -0.69156367 -0.71888387
2.5454354 -0.71587712 -0.72794712
2.5076528 -0.72188008 -0.71835077
2.513346 -0.74024951 -0.72128296
2.5170619 -0.75815988 -0.72368205
2.4718337 -0.76110595 -0.71195316
2.464359 -0.77539045 -0.71115345
2.4733183 -0.79492199 -0.71515197
2.4647315 -0.80888051 -0.7140857
2.4323058 -0.81480116 -0.70608872
2.4701231 -0.84436703 -0.71861732
2.4630756 -0.85887265 -0.71808416
2.4395978 -0.86750931 -0.71275288
2.458693 -0.89133382 -0.71995014
2.4396169 -0.90139121 -0.71595168
2.4529817 -0.92347664 -0.72154951
2.4319713 -0.93264204 -0.71701789
2.422612 -0.94614387 -0.71595168
2.4140742 -0.95992231 -0.71515197
2.4117122 -0.97616357 -0.71621823
2.4110241 -0.99314624 -0.7178176
2.3959963 -1.0041949 -0.71515197
2.4004281 -1.0234146 -0.71835077
2.4047141 -1.0427264 -0.72154951
2.3806338 -1.049683 -0.71621823
2.3653536 -1.0603271 -0.71355253
2.357049 -1.0740211 -0.71301943
2.34954 -1.0880584 -0.71275288
2.3463078 -1.1040963 -0.71381915
2.3438365 -1.1205512 -0.71515197
2.3481872 -1.1403865 -0.71861732
2.3152153 -1.1419797 -0.71062034
2.3021328 -1.1531419 -0.70875436
2.2855647 -1.1624385 -0.70582217
2.2612619 -1.1675948 -0.70049083
2.2677131 -1.1886083 -0.7047559
2.2544212 -1.199331 -0.70288992
2.2436275 -1.2113093 -0.70182365
2.2344625 -1.2241268 -0.70129055
2.2387025 -1.2443711 -0.70502245
2.2050011 -1.2434053 -0.69675893
2.2374852 -1.2798867 -0.70955408
2.2279224 -1.2926241 -0.70902097
2.2141349 -1.3028479 -0.70715499
2.2052715 -1.315915 -0.70688844
2.1864364 -1.3229342 -0.70342308
2.1848497 -1.3403577 -0.70555562
2.1667638 -1.347629 -0.70235682
2.1584542 -1.3608985 -0.70235682
2.1516871 -1.3751552 -0.70288992
2.1504889 -1.3930488 -0.70528901
2.1483459 -1.41045 -0.70742154
2.1324296 -1.4187996 -0.70502245
2.1228848 -1.4313184 -0.7047559
2.1061049 -1.4388794 -0.70209026
2.1170466 -1.4654915 -0.70875436
2.114327 -1.482882 -0.7108869
2.0824053 -1.4796354 -0.70315653
2.0685942 -1.489006 -0.7015571
2.0617549 -1.5033745 -0.70235682
2.0486157 -1.5131334 -0.701024
2.0246308 -1.5147033 -0.69595921
2.0391104 -1.5451453 -0.70422274
2.0150652 -1.5464771 -0.69915801
2.0146692 -1.5659109 -0.70235682
1.9830619 -1.5609529 -0.69462639
1.9832437 -1.5809025 -0.69809175
1.9765056 -1.5954635 -0.69915801
1.9756329 -1.6148818 -0.70235682
1.9768232 -1.636193 -0.70635527
1.9637921 -1.6458151 -0.70528901
1.9389602 -1.6453599 -0.69995773
1.9375997 -1.6647645 -0.70315653
1.9229858 -1.6728261 -0.7015571
1.9083461 -1.6807711 -0.69995773
1.8936814 -1.6885996 -0.6983583
1.8854307 -1.7021251 -0.69915801
1.8642806 -1.7039073 -0.69515955
1.8530831 -1.7146595 -0.69489294
1.8340874 -1.7180897 -0.6916942
1.8256087 -1.7313008 -0.69249386
1.806609 -1.734459 -0.68929511
1.8097541 -1.7589481 -0.69462639
1.7989274 -1.7700194 -0.69462639
1.7934952 -1.7864662 -0.69675893
1.7824998 -1.7974373 -0.69675893
1.7660424 -1.802832 -0.69462639
1.7509263 -1.8094779 -0.69302702
1.7471153 -1.8278522 -0.69595921
1.7431445 -1.8462477 -0.69889146
1.7094356 -1.8329412 -0.68982822
1.719051 -1.8660818 -0.6983583
1.7231346 -1.8937051 -0.7047559
1.7134153 -1.9063932 -0.70555562
1.6850512 -1.8981287 -0.69862491
1.6727374 -1.9077075 -0.6983583
1.6521679 -1.9077343 -0.69462639
1.6354198 -1.9119759 -0.69249386
1.626145 -1.92492 -0.69356012
1.6180077 -1.9393023 -0.69515955
1.6134316 -1.9581206 -0.6983583
1.6032112 -1.9702265 -0.69915801
1.5766045 -1.9619936 -0.69276047
1.5681304 -1.976161 -0.69435984
1.5518146 -1.9804347 -0.69249386
1.5490692 -2.0021167 -0.69675893
1.5426055 -2.0192435 -0.69942456
1.5319275 -2.0309794 -0.70022428
1.5217391 -2.0434332 -0.70129055
1.5040349 -2.0457425 -0.69889146
1.4852275 -2.0463517 -0.69595921
1.4776946 -2.0624783 -0.6983583
1.4700196 -2.0785892 -0.70075744
1.4489641 -2.0757143 -0.69675893
1.4476818 -2.1012344 -0.70235682
1.4201316 -2.0885565 -0.69515955
1.4126593 -2.1052349 -0.69782519
1.4029074 -2.1186852 -0.69942456
1.4030582 -2.1474264 -0.70608872
1.3794129 -2.1397922 -0.70075744
1.3672917 -2.1498425 -0.70129055
1.3510019 -2.1532927 -0.69969118
1.3321856 -2.1525259 -0.69675893
1.3149363 -2.154078 -0.69462639
1.2952328 -2.1513705 -0.69116104
1.2888952 -2.1708808 -0.69489294
1.2774981 -2.1820757 -0.69595921
1.2568589 -2.1773515 -0.69196075
1.2544376 -2.2042899 -0.69809175
1.2408886 -2.2119455 -0.69809175
1.2235626 -2.21277 -0.69595921
1.2085789 -2.2176967 -0.69515955
1.203611 -2.241205 -0.70022428
1.1947942 -2.2579193 -0.70315653
1.1826993 -2.2686267 -0.70422274
1.1669961 -2.2724113 -0.70315653
1.1378081 -2.2494256 -0.69382674
1.1291403 -2.2667177 -0.69702548
1.1020558 -2.2467768 -0.68876195
1.0932775 -2.2639122 -0.69196075
1.0835028 -2.2792828 -0.69462639
1.0682719 -2.2832692 -0.69382674
1.0562569 -2.2941587 -0.69515955
1.0469316 -2.3111322 -0.6983583
1.0221413 -2.2937417 -0.69116104
1.0103688 -2.3052671 -0.69276047
0.9958235 -2.3105381 -0.69249386
0.97298092 -2.2961929 -0.68636286
0.96443075 -2.3154662 -0.69036138
0.95166528 -2.3249083 -0.69142765
0.92983162 -2.3119247 -0.68582976
0.91916889 -2.326551 -0.6884954
0.90348196 -2.3285525 -0.68742913
0.89638066 -2.3529673 -0.69302702
0.87146413 -2.3304362 -0.68476349
0.85847622 -2.339359 -0.68582976
0.85552943 -2.376323 -0.69515955
0.84189487 -2.3842545 -0.69595921
0.83008665 -2.3975725 -0.6983583
0.81257302 -2.3944061 -0.69595921
0.79360956 -2.3865426 -0.6922273
0.7822336 -2.401448 -0.69515955
0.76133549 -2.3869188 -0.68956167
0.75816095 -2.4283473 -0.70022428
0.73874271 -2.418205 -0.69595921
0.72333932 -2.4208453 -0.69542611
0.7071209 -2.4206121 -0.69409329
0.69251949 -2.4258323 -0.69435984
0.66908193 -2.3993976 -0.68556321
0.64979142 -2.386718 -0.68076497
0.63785565 -2.400907 -0.68369722
0.62794495 -2.4234362 -0.6890285
0.61896127 -2.4506061 -0.69569266
0.60253185 -2.4487422 -0.69409329
0.58727092 -2.4514558 -0.69382674
0.5730927 -2.4587677 -0.69489294
0.5601244 -2.471638 -0.69755864
0.54121953 -2.4580851 -0.69276047
0.5261268 -2.4613597 -0.69276047
0.51277453 -2.4730353 -0.69515955
0.49645188 -2.4704657 -0.69356012
0.47907627 -2.4621119 -0.69036138
0.4607529 -2.4479556 -0.68556321
0.4505499 -2.4772885 -0.69302702
0.43700641 -2.4894996 -0.69569266
0.42140147 -2.4902337 -0.69515955
0.40626863 -2.4937236 -0.69542611
0.39394048 -2.515214 -0.70075744
0.37205648 -2.4746933 -0.68876195
0.35755175 -2.4816995 -0.69009477
0.34363243 -2.4933949 -0.69276047
0.32719618 -2.486856 -0.69036138
0.30917659 -2.466821 -0.68423033
0.29380688 -2.4667573 -0.68369722
0.27942166 -2.4752178 -0.68556321
0.26392236 -2.4740107 -0.68476349
0.24767841 -2.4650345 -0.68183124
0.23489803 -2.4914567 -0.68876195
0.21859263 -2.4813297 -0.68556321
0.20517072 -2.5047183 -0.6916942
0.18958013 -2.5030468 -0.69089448
0.17395101 -2.5003169 -0.68982822
0.15872785 -2.5032609 -0.69036138
0.14303525 -2.4984143 -0.68876195
0.12770258 -2.4992449 -0.68876195
0.11258095 -2.5047956 -0.69009477
0.097917654 -2.5237381 -0.69515955
0.08101964 -2.4809427 -0.68316406
0.06625326 -2.4987357 -0.68796229
0.050275642 -2.4672956 -0.6791656
0.035176497 -2.470449 -0.67996532
0.020125259 -2.4841113 -0.68369722
0.0048755114 -2.4803329 -0.68263096
-0.010339489 -2.4793522 -0.6823644
-0.025873603 -2.5100825 -0.69089448
-0.041051343 -2.4963851 -0.68716258
-0.056302503 -2.4931953 -0.68636286
-0.071043834 -2.4735346 -0.68103158
-0.085983992 -2.4663095 -0.6791656
-0.10127377 -2.4695876 -0.68023187
-0.11779017 -2.4978018 -0.68822885
-0.13193166 -2.474896 -0.68209785
-0.14579655 -2.4519112 -0.6759668
-0.16064879 -2.4480853 -0.67516714
-0.17642726 -2.457628 -0.67809933
-0.19180372 -2.4603429 -0.6791656
-0.21094209 -2.5071404 -0.69249386
-0.22580084 -2.5000396 -0.69089448
-0.23872656 -2.4736638 -0.68396378
-0.25508308 -2.4836578 -0.68716258
-0.26906425 -2.4705482 -0.68396378
-0.28686619 -2.4918301 -0.69036138
-0.29889658 -2.4632332 -0.68289751
-0.3133947 -2.4565725 -0.68156469
-0.32769439 -2.4488716 -0.67996532
-0.3447212 -2.461132 -0.68396378
-0.36274865 -2.4789972 -0.68956167
-0.3754791 -2.4605277 -0.68503004
-0.39162898 -2.4648404 -0.68689603
-0.40595967 -2.4576364 -0.68556321
-0.42315102 -2.4674482 -0.6890285
-0.43760765 -2.4610097 -0.68796229
-0.45112795 -2.4497476 -0.68556321
-0.46362424 -2.4336786 -0.68183124
-0.48003849 -2.4383533 -0.68396378
-0.49499092 -2.4353619 -0.68396378
-0.50834173 -2.4247327 -0.68183124
-0.52321005 -2.4215679 -0.68183124
-0.53847748 -2.4201934 -0.6823644
-0.55568457 -2.4271781 -0.6852966
-0.57189274 -2.4293516 -0.68689603
-0.59177583 -2.4464059 -0.69276047
-0.60119671 -2.4202802 -0.68636286
-0.61436856 -2.4100082 -0.68449694
-0.63109589 -2.4136527 -0.68662941
-0.64814055 -2.4181132 -0.6890285
-0.65530545 -2.3862095 -0.68103158
-0.6683684 -2.3765769 -0.67943215
-0.68773931 -2.3891022 -0.68423033
-0.71028525 -2.4116485 -0.69196075
-0.72340107 -2.4017079 -0.69036138
-0.73613793 -2.3907762 -0.6884954
-0.74732119 -2.3751822 -0.6852966
-0.75981587 -2.3641291 -0.68343067
-0.77701324 -2.3676639 -0.68582976
-0.78999513 -2.3582823 -0.68449694
-0.79977268 -2.3397112 -0.68049842
-0.82776368 -2.3738916 -0.69196075
-0.85103542 -2.3932858 -0.69915801
-0.86077565 -2.3744278 -0.69515955
-0.87031657 -2.3555408 -0.69116104
-0.88373446 -2.3474503 -0.69036138
-0.8929435 -2.3284855 -0.68636286
-0.90721399 -2.3229628 -0.68636286
-0.91290104 -2.2958589 -0.67996532
-0.93565208 -2.3116548 -0.68636286
-0.95422465 -2.3165638 -0.68956167
-0.96804821 -2.3097765 -0.68929511
-0.99392343 -2.3312764 -0.69755864
-0.99133402 -2.2862282 -0.68582976
-1.0092329 -2.2889211 -0.6884954
-1.0240471 -2.2844441 -0.6890285
-1.0344472 -2.2702246 -0.68662941
-1.0434963 -2.2533402 -0.68343067
-1.068796 -2.2713122 -0.69089448
-1.0818808 -2.2629724 -0.69036138
-1.0944823 -2.2536907 -0.68956167
-1.1193779 -2.2694054 -0.69649237
-1.1388942 -2.2736964 -0.69995773
-1.154135 -2.2692428 -0.70075744
-1.1614028 -2.2492731 -0.69675893
-1.172497 -2.2369828 -0.69515955
-1.1794094 -2.2169838 -0.69116104
-1.2003179 -2.2232742 -0.69542611
-1.2056 -2.2006531 -0.69062793
-1.2167386 -2.1890025 -0.68929511
-1.2358292 -2.1915693 -0.69249386
-1.2530824 -2.1906376 -0.69462639
-1.2621464 -2.175405 -0.6922273
-1.270093 -2.1584828 -0.68929511
-1.2912166 -2.1638908 -0.69356012
-1.307464 -2.1608748 -0.69515955
-1.3086002 -2.133096 -0.68876195
-1.321664 -2.1250265 -0.68876195
-1.342904 -2.1299207 -0.69302702
-1.3476417 -2.1086476 -0.68876195
-1.372085 -2.118134 -0.69462639
-1.388759 -2.1153147 -0.69649237
-1.3958384 -2.0979273 -0.69356012
-1.4108404 -2.0925195 -0.69462639
-1.4154965 -2.071887 -0.69062793
-1.4353153 -2.0734642 -0.69409329
-1.4546529 -2.0740864 -0.69729209
-1.4746103 -2.0753348 -0.70075744
-1.4912587 -2.071723 -0.70262337
-1.5141654 -2.0765505 -0.70742154
-1.5177151 -2.0548174 -0.70315653
-1.5389564 -2.0570414 -0.70715499
-1.5422343 -2.03527 -0.70288992
-1.5394346 -2.0058906 -0.69595921
-1.5446148 -1.987276 -0.69276047
-1.5675113 -1.9913919 -0.69755864
-1.5917178 -1.9968085 -0.70288992
-1.5930417 -1.9735061 -0.69809175
-1.6179321 -1.9793638 -0.70368963
-1.6177543 -1.9545507 -0.6983583
-1.6315743 -1.9468036 -0.69915801
-1.6447362 -1.9382254 -0.69969118
-1.6484317 -1.9185942 -0.69622582
-1.670928 -1.9208045 -0.70075744
-1.6865051 -1.914855 -0.70235682
-1.6943734 -1.9001549 -0.70075744
-1.7266706 -1.9126136 -0.70928752
-1.7234166 -1.8856215 -0.70315653
-1.73299 -1.8728893 -0.70235682
-1.7484033 -1.8664405 -0.70395619
-1.7591592 -1.8549782 -0.70368963
-1.7938731 -1.8684808 -0.71301943
-1.8133661 -1.8657317 -0.71621823
-1.8166672 -1.8463266 -0.71301943
-1.815037 -1.822172 -0.7079547
-1.8549297 -1.839502 -0.71915042
-1.8579187 -1.8199931 -0.71595168
-1.8538113 -1.7938157 -0.71008718
-1.8599055 -1.777746 -0.70822126
-1.8574618 -1.7537301 -0.70315653
-1.8703023 -1.7442716 -0.70395619
-1.8986933 -1.7490865 -0.71062034
-1.9193709 -1.7464836 -0.71435225
-1.9207313 -1.7262992 -0.7108869
-1.9276834 -1.7112824 -0.70955408
-1.9613395 -1.7197533 -0.71808416
-1.9572819 -1.6950685 -0.71275288
-1.9969459 -1.7080833 -0.72341549
-1.9941349 -1.6846038 -0.71861732
-1.9718682 -1.645172 -0.70688844
-2.0220964 -1.6661341 -0.72128296
-2.0352721 -1.6561283 -0.72234923
-2.0596716 -1.6550783 -0.72741395
-2.0622377 -1.6364189 -0.72474831
-2.0699637 -1.6219512 -0.7239486
-2.0745404 -1.6050918 -0.72208267
-2.0958393 -1.6011078 -0.72608113
-2.0917726 -1.5777721 -0.72128296
-2.0913641 -1.557425 -0.7178176
-2.1125298 -1.5531259 -0.72181612
-2.1212397 -1.5395682 -0.72154951
-2.1282959 -1.5248399 -0.72074986
-2.1604342 -1.5278887 -0.72848022
-2.1610744 -1.5085363 -0.72554803
-2.1496527 -1.4810326 -0.71861732
-2.170656 -1.4759425 -0.72261578
-2.170867 -1.4566894 -0.71968359
-2.1741383 -1.4396175 -0.7178176
-2.2014899 -1.4383732 -0.7239486
-2.2005525 -1.4185727 -0.72074986
-2.2067754 -1.4034921 -0.71995014
-2.20963 -1.38634 -0.71808416
-2.1943262 -1.3580493 -0.71035379
-2.2075539 -1.3475721 -0.71195316
-2.2504632 -1.3548768 -0.72314894
-2.2595632 -1.3415346 -0.72341549
-2.2827246 -1.3364085 -0.72821367
-2.3000643 -1.3276761 -0.73114592
-2.3023036 -1.3102018 -0.72927994
-2.3010523 -1.2908643 -0.72634768
-2.3114603 -1.2781199 -0.7271474
-2.32603 -1.267602 -0.72927994
-2.3532948 -1.2637919 -0.73541093
-2.3414104 -1.2389625 -0.72927994
-2.3395667 -1.2196726 -0.72634768
-2.3512933 -1.2074952 -0.72768056
-2.3870416 -1.2073983 -0.7364772
-2.3676598 -1.1794096 -0.72821367
-2.3661981 -1.1606163 -0.72554803
-2.373275 -1.1460757 -0.72554803
-2.388097 -1.1352153 -0.72794712
-2.401129 -1.1233993 -0.72981304
-2.4062259 -1.1078391 -0.72927994
-2.4077103 -1.0906683 -0.72768056
-2.4293239 -1.0825419 -0.73221213
-2.4350379 -1.0672287 -0.73194557
-2.4406552 -1.0518861 -0.73167902
-2.4337513 -1.0312515 -0.72768056
-2.4222379 -1.0088892 -0.72234923
-2.4497914 -1.0027683 -0.72874677
-2.4648404 -0.9913131 -0.73141247
-2.4726696 -0.97687852 -0.73194557
-2.4750226 -0.96029395 -0.73087931
-2.4682584 -0.94028717 -0.7271474
-2.5173156 -0.94132388 -0.73994255
-2.5149004 -0.92287272 -0.73754346
-2.5060058 -0.90220213 -0.73327839
-2.5387602 -0.89643288 -0.74127537
-2.5177994 -0.87169689 -0.73354501
-2.5258389 -0.85716039 -0.73434466
-2.5685496 -0.85411119 -0.74527389
-2.5572457 -0.83296341 -0.74047565
-2.5779192 -0.82223409 -0.74500728
-2.5727952 -0.80324221 -0.74207509
-2.5804408 -0.78828514 -0.7428748
-2.5750706 -0.76940286 -0.73994255
-2.5908451 -0.75682998 -0.74314135
-2.6139767 -0.74620813 -0.74847263
-2.5887964 -0.72187394 -0.73994255
-2.5931771 -0.70597577 -0.73994255
-2.6244743 -0.69722486 -0.74767298
-2.6315022 -0.68183321 -0.74847263
-2.6188154 -0.66142714 -0.74367446
-2.6218886 -0.64511579 -0.74340791
-2.618299 -0.62722057 -0.74127537
-2.6267917 -0.61223656 -0.74260819
-2.6351988 -0.59717196 -0.74394101
-2.6350482 -0.58016282 -0.7428748
-2.6253629 -0.56116444 -0.73914284
-2.6051624 -0.54015547 -0.73247874
-2.5838592 -0.51922596 -0.72554803
-2.6002417 -0.5059377 -0.72927994
-2.6051915 -0.49032974 -0.72981304
-2.6460824 -0.48122969 -0.74047565
-2.5958233 -0.45565853 -0.72554803
-2.6375337 -0.44631132 -0.7364772
-2.6297584 -0.42841566 -0.73354501
-2.651382 -0.41525242 -0.73887628
-2.6433959 -0.39740095 -0.73594409
-2.6381524 -0.38007519 -0.73381156
-2.6261129 -0.36190844 -0.72981304
-2.6101277 -0.34340128 -0.72474831
-2.6274874 -0.32929546 -0.72901338
-2.6428573 -0.3147617 -0.73274529
-2.6552742 -0.29972759 -0.73567748
-2.6656888 -0.2843487 -0.73807657
-2.6740961 -0.26866072 -0.73994255
-2.6804922 -0.25269952 -0.74127537
-2.6743114 -0.23557179 -0.73914284
-2.6564944 -0.21758649 -0.73381156
-2.6837285 -0.20324492 -0.74100882
-2.6378114 -0.18350151 -0.72794712
-2.6311924 -0.16682567 -0.72581458
-2.703373 -0.15474655 -0.74554044
-2.6859827 -0.13722359 -0.74047565
-2.6665545 -0.11983354 -0.73487782
-2.6277525 -0.10194189 -0.7239486
-2.6745672 -0.087321259 -0.73674375
-2.6923954 -0.07136669 -0.74154192
-2.6956735 -0.054903705 -0.74234164
-2.704633 -0.038484864 -0.74474072
-2.7048182 -0.02188882 -0.74474072
-2.693336 -0.0052705077 -0.74154192
-2.696209 0.01126797 -0.74234164
-2.696089 0.027811384 -0.74234164
-2.7016499 0.044449478 -0.74394101
-2.690727 0.060785122 -0.74100882
-2.6931937 0.077377297 -0.74180853
-2.7119327 0.094574749 -0.74713981
-2.7218943 0.11164867 -0.75007206
-2.675909 0.12620896 -0.73754346
-2.717432 0.14488785 -0.74927235
-2.6741588 0.15903699 -0.73754346
-2.7548807 0.18081604 -0.76020151
-2.7277632 0.19585003 -0.75300425
-2.7274711 0.2126586 -0.7532708
-2.7395608 0.23052281 -0.75700277
-2.725616 0.24619967 -0.75353742
-2.7230947 0.26282638 -0.7532708
-2.7358122 0.28100869 -0.75726932
-2.7484086 0.29935688 -0.76126778
-2.7532222 0.31698751 -0.76313376
-2.7579231 0.33468845 -0.76499969
-2.6908059 0.34330329 -0.74687326
-2.6609454 0.35609704 -0.73914284
-2.6214855 0.36719942 -0.72874677
-2.6954746 0.39444989 -0.75007206
-2.6682315 0.40719852 -0.74314135
-2.6809125 0.42598435 -0.74740636
-2.6725428 0.44148302 -0.74580699
-2.6118379 0.44792923 -0.72954649
-2.6289673 0.46749237 -0.73514438
-2.6194143 0.48239198 -0.73327839
-2.6722646 0.50910324 -0.74900579
-2.7002969 0.53163749 -0.75780243
-2.6856501 0.54589128 -0.75460368
-2.7001724 0.56611931 -0.75966841
-2.625994 0.56740266 -0.739676
-2.5932984 0.57701248 -0.73141247
-2.6019225 0.59571135 -0.73487782
-2.5991564 0.6118862 -0.73514438
-2.5953529 0.62782282 -0.73514438
-2.5231702 0.62676662 -0.71568507
-2.5314178 0.64533317 -0.71915042
-2.5451269 0.66548789 -0.72421521
-2.5735781 0.68982905 -0.73354501
-2.5906727 0.71148008 -0.739676
-2.5537856 0.71822643 -0.7303462
-2.5882299 0.74508512 -0.74154192
-2.5309117 0.74542516 -0.72634768
-2.4487724 0.73758268 -0.70395619
-2.3557742 0.72535628 -0.67836589
-2.3586338 0.74211246 -0.68049842
-2.3696344 0.76158595 -0.68503004
-2.3713269 0.77821583 -0.68689603
-2.3701627 0.79397637 -0.68796229
-2.3488309 0.80289114 -0.68316406
-2.3720715 0.82712877 -0.69142765
-2.3633194 0.8403759 -0.69036138
-2.3273118 0.84368938 -0.68129814
-2.3148589 0.85528046 -0.6791656
-2.3321168 0.87795997 -0.68582976
-2.3419838 0.89812154 -0.69036138
-2.3319402 0.91072118 -0.6890285
-2.330786 0.92679369 -0.69036138
-2.3009343 0.93131155 -0.68316406
-2.277354 0.93806851 -0.67783278
-2.2839994 0.95724154 -0.68156469
-2.2816291 0.97275025 -0.68263096
-2.2818069 0.98941636 -0.68449694
-2.2915666 1.0103997 -0.68929511
-2.2914798 1.0272019 -0.69116104
-2.286011 1.0416425 -0.69142765
-2.2629602 1.0479525 -0.68636286
-2.247767 1.0577134 -0.68369722
-2.2447126 1.0731487 -0.68476349
-2.2450213 1.0902709 -0.68689603
-2.1916149 1.0809973 -0.67250144
-2.1659832 1.084926 -0.666637
-2.1575675 1.0973217 -0.6661039
-2.1422303 1.1061169 -0.66343826
-2.1413782 1.1223732 -0.66530418
-2.1370037 1.1368496 -0.6661039
-2.1172669 1.1430711 -0.66210538
-2.0941541 1.1472406 -0.65704066
-2.0904448 1.1619419 -0.65810692
-2.0606098 1.161962 -0.65090966
-2.0592973 1.1779344 -0.65277559
-2.0403602 1.1837749 -0.64904368
-2.0330584 1.1962721 -0.64904368
-2.0223694 1.2067484 -0.64797741
-1.9943129 1.2066587 -0.64131331
-1.9770136 1.2128239 -0.63811451
-1.9752632 1.2284956 -0.63998049
-1.9668729 1.2400783 -0.63971388
-1.9316165 1.2344733 -0.6306507
-1.9474628 1.2615011 -0.63838106
-1.9388802 1.2728976 -0.63811451
-1.9254166 1.2810326 -0.63624853
-1.9159219 1.2917448 -0.63571543
-1.8944319 1.294232 -0.6311838
-1.8753613 1.2981503 -0.6274519
-1.8649935 1.3079724 -0.62665218
-1.8561472 1.3188328 -0.62638563
-1.83003 1.3172446 -0.62025464
-1.8226918 1.3290166 -0.62052119
-1.8238053 1.3470479 -0.62371999
-1.7838668 1.3345376 -0.61279076
-1.7802534 1.3489511 -0.61439019
-1.7826464 1.3680655 -0.6181221
-1.7628046 1.3701044 -0.61412358
-1.7558792 1.3820875 -0.61465675
-1.7760028 1.4156677 -0.62478626
-1.7635335 1.4235111 -0.62345338
-1.7398423 1.422104 -0.6181221
-1.6999022 1.4069386 -0.60692632
-1.6964079 1.4216766 -0.6087923
-1.6891222 1.4333062 -0.60932541
-1.6664072 1.4317081 -0.60426068
-1.6539557 1.4387426 -0.60292786
-1.6414804 1.4456785 -0.60159504
-1.6138775 1.4390433 -0.59466434
-1.5985793 1.4431055 -0.59226525
-1.5896944 1.4528869 -0.59226525
-1.5765055 1.4586859 -0.59066582
-1.5703388 1.4709677 -0.59173208
-1.561983 1.4812386 -0.59199864
-1.5521696 1.4901272 -0.59173208
-1.5443792 1.5009668 -0.59226525
-1.5317057 1.5070344 -0.59093243
-1.5142365 1.5082414 -0.58773363
-1.5035964 1.5161353 -0.58720046
-1.4935908 1.524644 -0.58693391
-1.4828675 1.5323944 -0.58640081
-1.4794298 1.5477356 -0.58879989
-1.4791677 1.5665964 -0.5925318
-1.4793866 1.5862168 -0.59653026
-1.4781142 1.6044805 -0.59999561
-1.467593 1.6128069 -0.59972906
-1.4583135 1.6224984 -0.59999561
-1.4400134 1.622045 -0.59653026
-1.4332104 1.634474 -0.59786308
-1.3947643 1.6104484 -0.58586764
-1.364185 1.5948037 -0.57707101
-1.3748965 1.627443 -0.58586764
-1.3494506 1.6173453 -0.57920355
-1.3352116 1.6203876 -0.57733756
-1.3240274 1.6270545 -0.5768044
-1.3152264 1.6366507 -0.57733756
-1.2973721 1.6348742 -0.57387221
-1.2914768 1.648115 -0.57573819
-1.2760326 1.6491472 -0.5733391
-1.2670597 1.6584775 -0.57387221
-1.2591808 1.669299 -0.57493848
-1.2431586 1.669263 -0.57227284
-1.2317512 1.6753063 -0.57173967
-1.2344676 1.7007744 -0.57787067
-1.2161511 1.6973475 -0.57413876
-1.2118342 1.7134343 -0.57707101
-1.2018497 1.7216282 -0.57733756
-1.1907165 1.7281764 -0.57707101
-1.1827995 1.7394354 -0.57840383
-1.1688825 1.7418579 -0.5768044
-1.1592367 1.7506045 -0.57733756
-1.1468921 1.7552638 -0.57653785
-1.1345341 1.7598374 -0.57573819
-1.1221631 1.7643257 -0.57493848
-1.1082433 1.766279 -0.5733391
-1.0943421 1.7681283 -0.57173967
-1.0834725 1.7748097 -0.57173967
-1.073059 1.78225 -0.57200623
-1.0621032 1.7888007 -0.57200623
-1.0530547 1.7986112 -0.57307249
-1.0424806 1.8058735 -0.5733391
-1.0313804 1.8122361 -0.5733391
-1.0211842 1.8202116 -0.57387221
-1.0104626 1.8272868 -0.57413876
-1.000615 1.8359915 -0.57493848
-0.9920662 1.8471917 -0.57653785
-0.98071337 1.8532441 -0.57653785
-0.97065997 1.8617908 -0.57733756
-0.95833755 1.8659967 -0.5768044
-0.94469529 1.8675414 -0.57547158
-0.93192953 1.8707145 -0.57467192
-0.92085785 1.8772628 -0.57493848
-0.91183609 1.8880856 -0.57653785
-0.90271598 1.8988681 -0.57813728
-0.89349788 1.9096094 -0.57973665
-0.8841818 1.9203092 -0.58133602
-0.87357521 1.9283322 -0.58213574
-0.86290336 1.9362972 -0.58293545
-0.85177988 1.9433211 -0.58346856
-0.84136534 1.9520515 -0.58453482
-0.83350724 1.9669396 -0.58746707
-0.82364559 1.9773554 -0.58906645
-0.81368738 1.9877241 -0.59066582
-0.80435193 1.9998332 -0.59279835
-0.7970227 2.0172813 -0.59653026
-0.78393281 2.0203364 -0.59599715
-0.77872497 2.0440233 -0.60159504
-0.76313096 2.040638 -0.59919596
-0.7522552 2.0498064 -0.60052878
-0.74260116 2.0625453 -0.60292786
-0.7328189 2.0752428 -0.60532695
-0.72007167 2.0797 -0.60532695
-0.71318036 2.1014211 -0.61039168
-0.69814467 2.0993552 -0.60852575
-0.68614537 2.1063488 -0.60932541
-0.67877102 2.1279664 -0.61439019
-0.66742414 2.1376116 -0.61598957
-0.6576733 2.1527281 -0.61918837
-0.64610696 2.1622639 -0.62078774
-0.63498873 2.1735892 -0.62292027
-0.62111092 2.1755908 -0.62238711
-0.61214936 2.1951442 -0.62691873
-0.62574852 2.2983685 -0.65544128
-0.61188161 2.3030963 -0.65570784
-0.59991342 2.3152046 -0.65810692
-0.5859322 2.3197765 -0.65837348
-0.56086868 2.2793396 -0.64584494
-0.54597467 2.2789888 -0.64477867
-0.53198075 2.2822957 -0.64477867
-0.5177539 2.2845771 -0.64451206
-0.50372624 2.2877109 -0.64451206
-0.49068648 2.2954714 -0.64584494
-0.47893941 2.3097641 -0.64904368
-0.46646601 2.3211639 -0.65144277
-0.45368668 2.3315511 -0.6535753
-0.44115379 2.3437631 -0.65624094
-0.42469612 2.3350465 -0.6530422
-0.41152629 2.3442535 -0.65490812
-0.40002725 2.3638406 -0.65970629
-0.39140067 2.4023995 -0.66983581
-0.37709957 2.4076126 -0.67063552
-0.36532658 2.4298966 -0.67623341
-0.3530196 2.450218 -0.68129814
-0.34008241 2.4676149 -0.68556321
-0.32531187 2.472522 -0.68636286
-0.31408656 2.506031 -0.69515955
-0.30086774 2.5260954 -0.70022428
-0.28417411 2.5173588 -0.69729209
-0.26862043 2.5180967 -0.69702548
-0.25316462 2.5196974 -0.69702548
-0.23778965 2.5221629 -0.69729209
-0.2215492 2.5149336 -0.69489294
-0.20642802 2.520088 -0.69595921
-0.19190605 2.5338011 -0.69942456
-0.17708999 2.5455074 -0.70235682
-0.16469467 2.5975263 -0.71648479
-0.14941323 2.6100349 -0.71968359
-0.1332974 2.6089776 -0.71915042
-0.11732967 2.6107092 -0.71941698
-0.10190463 2.6267896 -0.72368205
-0.085283421 2.6119523 -0.71941698
-0.068899013 2.5989377 -0.71568507
-0.056426868 2.7708356 -0.76313376
-0.039737411 2.7932954 -0.76926476
-0.022458704 2.7761385 -0.76446658
-0.0054134927 2.7704411 -0.76286721
0.011602223 2.7742774 -0.76393348
0.028343521 2.7471685 -0.75646961
0.045055717 2.7382698 -0.75407052
0.063365363 2.8044281 -0.77246356
0.08065515 2.8068767 -0.77326328
0.097606786 2.7986231 -0.77113074
0.11746971 2.8634558 -0.78925717
0.13039561 2.7644813 -0.7620675
0.14941223 2.8021271 -0.77273011
0.16700418 2.8078923 -0.7745961
0.1828391 2.7856565 -0.76873165
0.20172524 2.8094769 -0.77566236
0.21813487 2.7976162 -0.77273011
0.23642938 2.8096712 -0.77646202
0.25244951 2.7947288 -0.77273011
0.26792443 2.7758589 -0.76793194
0.2829802 2.7549875 -0.7626006
0.29998362 2.7541575 -0.76286721
0.31588417 2.7436476 -0.76046813
0.33213189 2.7368739 -0.75913525
0.34952915 2.7395647 -0.76046813
0.36748368 2.745966 -0.76286721
0.38231871 2.7293422 -0.75886869
0.39947742 2.7298059 -0.75966841
0.42189422 2.7644615 -0.77006447
0.44293502 2.7875209 -0.77726173
0.45672977 2.7647815 -0.77166384
0.47254443 2.7552774 -0.76979792
0.48876625 2.7485304 -0.76873165
0.50719362 2.7540104 -0.77113074
0.51776588 2.7177095 -0.76180094
0.53685325 2.7267749 -0.7652663
0.55242193 2.7177625 -0.76366687
0.57482553 2.741677 -0.77139729
0.59061909 2.7333882 -0.77006447
0.60821742 2.7334759 -0.77113074
0.6198135 2.7071447 -0.76473314
0.64016885 2.7192392 -0.76926476
0.6652301 2.7499206 -0.77912772
0.67511714 2.7177262 -0.77113074
0.68868357 2.7013915 -0.76766539
0.70378256 2.6915205 -0.76606596
0.71928561 2.6834276 -0.76499969
0.73446065 2.6743169 -0.76366687
0.75111711 2.6706877 -0.76393348
0.76108861 2.6438005 -0.75753587
0.78465122 2.6640429 -0.76473314
0.8004266 2.6573324 -0.76420003
0.81728405 2.6542134 -0.76473314
0.84686583 2.6914387 -0.77699518
0.8521539 2.6513245 -0.76686567
0.86930794 2.6487932 -0.76766539
0.88370681 2.6379261 -0.76606596
0.90112352 2.636102 -0.76713222
0.91601163 2.626883 -0.76606596
0.93986505 2.6430068 -0.77246356
0.95475024 2.6335659 -0.77139729
0.95752603 2.5914965 -0.76073468
0.98122168 2.6063178 -0.76686567
1.0065159 2.6245446 -0.77406293
1.0268095 2.6290925 -0.77726173
1.0375786 2.609309 -0.77326328
1.0524844 2.6002131 -0.77246356
1.0684191 2.5937064 -0.77246356
1.0880402 2.5959904 -0.7751292
1.0986551 2.5768535 -0.77139729
1.1194315 2.5815587 -0.77486265
1.1360285 2.5764053 -0.77539575
1.153393 2.5729039 -0.77646202
1.1663601 2.5596392 -0.7745961
1.1800183 2.5480618 -0.77326328
1.1980935 2.5460055 -0.77486265
1.2087033 2.5281723 -0.77166384
1.2216662 2.5155065 -0.77006447
1.2409161 2.5157421 -0.77246356
1.2541703 2.5037723 -0.77113074
1.2804352 2.5175056 -0.77779484
1.298512 2.5147398 -0.77939427
1.3067572 2.493067 -0.7751292
1.3111634 2.4645815 -0.76873165
1.3244292 2.4530978 -0.76766539
1.3334351 2.4339371 -0.76420003
1.3488126 2.4265518 -0.76446658
1.3736199 2.4358592 -0.77006447
1.394284 2.4374237 -0.77326328
1.3980868 2.4096496 -0.76713222
1.4412009 2.4492021 -0.78259307
1.4250817 2.3881733 -0.7657994
1.4626641 2.4173143 -0.77806145
1.489567 2.4280097 -0.78445899
1.4764355 2.3738134 -0.76979792
1.4806905 2.3484046 -0.76446658
1.5158371 2.371758 -0.7751292
1.5298374 2.3616035 -0.77486265
1.5522348 2.3642566 -0.77886111
1.5603045 2.3450592 -0.77566236
1.5665808 2.3234551 -0.77166384
1.5791764 2.3114116 -0.77086413
1.5834533 2.287415 -0.76606596
1.6041011 2.2871244 -0.76926476
1.6231294 2.2843094 -0.77166384
1.636552 2.2735248 -0.77139729
1.6402483 2.2494235 -0.76659912
1.6597468 2.2470691 -0.76926476
1.6729257 2.2360711 -0.76899821
1.6906898 2.2311409 -0.77086413
1.6973054 2.2115507 -0.76766539
1.7138011 2.2048991 -0.76899821
1.73326 2.2019145 -0.77166384
1.7383261 2.1806877 -0.76793194
1.7547011 2.1737299 -0.76926476
1.7899679 2.1897845 -0.77886111
1.7935365 2.1668816 -0.7745961
1.7913194 2.1373703 -0.76793194
1.8056476 2.1278083 -0.76846504
1.8142724 2.111572 -0.76659912
1.8215005 2.0938563 -0.76420003
1.8413222 2.0905957 -0.76713222
1.8637381 2.0900476 -0.77113074
1.8829868 2.085726 -0.77379638
1.878841 2.0556374 -0.76686567
1.8999294 2.053266 -0.77033103
1.9124923 2.0415697 -0.77033103
1.9316159 2.0367892 -0.77299666
1.9374013 2.0179467 -0.77033103
1.9591523 2.015696 -0.77406293
1.9721596 2.004324 -0.77432948
1.9816998 1.9894542 -0.77326328
1.989763 1.9731857 -0.77166384
1.9729123 1.9326154 -0.76046813
1.9875041 1.9231541 -0.76153433
2.010416 1.9215769 -0.7657994
1.9997405 1.8880341 -0.75726932
2.0049434 1.8698127 -0.75487024
2.0291395 1.8692285 -0.75966841
2.0562553 1.8710115 -0.76553285
2.0691307 1.8596478 -0.76606596
2.082665 1.8488362 -0.76686567
2.0396132 1.7883711 -0.74687326
1.0909266 0.94493884 -0.3958064
1.0820543 0.92569906 -0.39047509
1.0840322 0.91593277 -0.38914227
1.090372 0.90988141 -0.38940883
1.0899831 0.89827132 -0.38727632
1.091736 0.88852519 -0.38594347
1.0994214 0.88362068 -0.38674319
1.1010473 0.87386298 -0.38541037
1.1154932 0.87422311 -0.38860914
1.1261727 0.87149018 -0.39047509
1.128435 0.86222363 -0.38940883
1.1337043 0.85528338 -0.38940883
1.1567117 0.86154938 -0.39553985
1.1712954 0.86128563 -0.39873862
2.1789658 1.5814558 -0.74127537
2.2340741 1.6006089 -0.75673616
2.2556577 1.5952172 -0.76073468
2.2772589 1.5896207 -0.76473314
2.2869697 1.5756177 -0.76473314
2.260726 1.537172 -0.7527377
2.2669137 1.5211238 -0.75167143
2.2866521 1.514102 -0.75513679
2.2676573 1.4815947 -0.74580699
0.86382484 0.55705881 -0.28091666
0.85990673 0.54709363 -0.27851757
0.86569685 0.54334348 -0.27931726
0.85672033 0.53041452 -0.27531877
0.8574906 0.52364153 -0.27451909
0.84664935 0.5099206 -0.26998746
0.84478939 0.50176436 -0.26838806
0.84286135 0.49365017 -0.26678869
0.83836144 0.48413345 -0.26438957
0.84382945 0.48041013 -0.26518929
0.84003621 0.47145167 -0.26305676
0.84966129 0.47001886 -0.26518929
0.8601464 0.46894664 -0.26758838
0.87234849 0.46867511 -0.2705206
0.85390908 0.45204625 -0.26385647
0.84982914 0.44323456 -0.26172394
0.85081792 0.43713135 -0.2611908
0.84660333 0.42842311 -0.25905827
0.83886313 0.41806453 -0.25585949
0.83189338 0.40824163 -0.25292727
0.8378545 0.40480569 -0.25399354
0.81420714 0.38724607 -0.24599656
0.7807734 0.36550054 -0.23506738
2.4762678 1.1400779 -0.75060517
2.4753149 1.121284 -0.74820608
2.4909523 1.1099968 -0.75087172
2.5083098 1.0993333 -0.75407052
2.4902239 1.0732433 -0.74660671
2.5038619 1.0609509 -0.74873924
2.5058758 1.043715 -0.74740636
2.5238292 1.033065 -0.75087172
2.5623131 1.030503 -0.76046813
2.5578308 1.0105129 -0.75726932
2.563983 0.99479938 -0.75726932
0.64792132 0.24704452 -0.1884184
0.68012017 0.25453883 -0.19748163
0.67624009 0.24836925 -0.19588225
0.67956501 0.24486801 -0.19641536
0.6756016 0.23876879 -0.19481598
0.67523229 0.23398843 -0.19428284
0.67574257 0.22953124 -0.19401628
0.68354052 0.22750884 -0.19588225
0.68675655 0.22390726 -0.19641536
0.68903577 0.21998197 -0.19668193
0.69589287 0.21747284 -0.19828133
0.69905776 0.21376179 -0.19881447
0.70220321 0.2100201 -0.19934759
0.70625418 0.20651798 -0.20014729
0.70658123 0.20191613 -0.19988072
0.70409316 0.19654168 -0.19881447
0.70900589 0.19323008 -0.19988072
0.71297276 0.18961819 -0.20068042
0.71225673 0.18475659 -0.20014729
0.71991843 0.18203424 -0.20201324
0.71447033 0.17600219 -0.20014729
0.71647418 0.17183942 -0.20041385
0.72408581 0.16897073 -0.20227981
0.73356903 0.1664409 -0.20467891
0.72422224 0.15965807 -0.20174669
0.77420068 0.16568233 -0.21560809
2.5699668 0.50005025 -0.72074986
1.7110302 0.32213375 -0.47817516
1.6788366 0.30542409 -0.46857882
1.6873242 0.29628295 -0.47044477
1.6986138 0.28753123 -0.47311044
1.6841739 0.27447042 -0.46857882
1.6867785 0.26428041 -0.46884537
1.6959934 0.25507104 -0.4709779
1.7280539 0.24905466 -0.47950798
1.7114083 0.23594868 -0.47444326
1.7023122 0.2240614 -0.47151104
1.7103496 0.21445027 -0.47337699
1.7106761 0.20383786 -0.47311044
1.6936975 0.1912853 -0.46804568
1.7542595 0.18722153 -0.48457274
1.5789194 0.15874425 -0.43552467
1.5376426 0.14507721 -0.42379579
1.5413842 0.13589309 -0.4245955
1.5431496 0.12651137 -0.42486206
1.5400525 0.11674965 -0.42379579
1.5474703 0.10776538 -0.42566174
1.534636 0.097415857 -0.42192984
1.5332803 0.087887704 -0.4213967
1.5251276 0.078036323 -0.41899762
1.5188378 0.068374656 -0.41713166
1.5201919 0.059091218 -0.41739821
1.5417186 0.050452113 -0.42326266
1.5410357 0.040965915 -0.4229961
1.5393307 0.031470474 -0.42246297
1.5510595 0.022188099 -0.42566174
1.5588768 0.012732168 -0.42779428
2.4413974 -0.0076273563 -0.7274276
2.4432204 -0.022624588 -0.7280013
2.4392042 -0.037557486 -0.72685385
2.4465899 -0.052686464 -0.72914875
2.4433477 -0.067618713 -0.72828817
2.4438443 -0.082641661 -0.72857499
2.4356334 -0.097331248 -0.72628015
2.4455171 -0.1127568 -0.72943556
2.4419091 -0.12761085 -0.72857499
2.4353421 -0.14225802 -0.72685385
2.4315553 -0.15701389 -0.72599328
2.4362798 -0.17233475 -0.72771442
2.4265797 -0.18662137 -0.7251327
2.438755 -0.20261399 -0.72914875
2.4546416 -0.21910274 -0.73431218
2.4532509 -0.23416002 -0.73431218
2.4603457 -0.25007811 -0.73689395
2.4711471 -0.26650196 -0.74062312
2.4551878 -0.2800349 -0.7363202
2.4581792 -0.29566512 -0.73775452
2.4411118 -0.30882287 -0.73316479
2.4344227 -0.32316634 -0.73173046
2.4418828 -0.339414 -0.73459905
2.435014 -0.35370344 -0.73316479
2.4422698 -0.37007052 -0.73603332
2.4427919 -0.38549629 -0.73689395
2.4186373 -0.39691526 -0.73029619
2.4142673 -0.4114269 -0.72972244
2.39849 -0.42390209 -0.7257064
2.3864202 -0.43688834 -0.72283781
2.3912249 -0.45294726 -0.7251327
2.3836999 -0.46669194 -0.72369844
2.37234 -0.47960302 -0.72111666
2.390923 -0.49864322 -0.72771442
2.3653393 -0.50847811 -0.72082984
2.3677871 -0.52422297 -0.72255099
2.3776033 -0.54171753 -0.72656703
2.3705034 -0.55542284 -0.72541958
2.3698452 -0.5706296 -0.72628015
2.3690894 -0.58584911 -0.72714072
2.3626642 -0.59966826 -0.72628015
2.3570859 -0.61367172 -0.7257064
2.3495736 -0.62713575 -0.72455901
2.3299716 -0.63724852 -0.7196824
2.3380105 -0.65488881 -0.72341156
2.322897 -0.66605663 -0.71996927
2.3380718 -0.68595558 -0.72599328
2.335654 -0.70083898 -0.72656703
2.3203187 -0.71178854 -0.72312468
2.3085942 -0.72372174 -0.72082984
2.2822123 -0.73086721 -0.71394521
2.2831483 -0.74664193 -0.71566635
2.2976079 -0.76700217 -0.72169042
2.2946723 -0.78170294 -0.72226411
2.2961674 -0.79796767 -0.72427213
2.2803917 -0.80820429 -0.72082984
2.2510614 -0.81339788 -0.71308464
2.2388358 -0.82454813 -0.71078974
2.2400134 -0.84062427 -0.71279776
2.235708 -0.85469478 -0.71308464
2.2348855 -0.87013334 -0.7145189
2.2464266 -0.89053315 -0.71996927
2.2222624 -0.8967768 -0.71394521
2.2069695 -0.90639472 -0.71078974
2.2155104 -0.92582554 -0.71537948
2.1762826 -0.92516929 -0.70447886
2.1811178 -0.94306475 -0.70792115
2.1902001 -0.96298087 -0.71279776
2.1816261 -0.97522944 -0.71193719
2.1895573 -0.9949345 -0.71652693
2.1825414 -1.0079492 -0.71624011
2.166775 -1.0168478 -0.71308464
2.1587653 -1.0292996 -0.71251088
2.1567204 -1.044613 -0.71394521
2.1433926 -1.0544455 -0.71165031
2.1265972 -1.0624424 -0.70820802
2.1123481 -1.0715724 -0.70562631
2.1142511 -1.0888973 -0.7084949
2.0990393 -1.0974134 -0.70562631
2.1159635 -1.1228392 -0.71365833
2.0938497 -1.1276293 -0.7084949
2.0995028 -1.1473433 -0.71279776
2.1133714 -1.1718119 -0.71996927
2.0919454 -1.1767766 -0.71509266
2.0813568 -1.1876922 -0.71394521
2.077347 -1.2023594 -0.71509266
2.0633204 -1.2112052 -0.71279776
2.054203 -1.2228631 -0.71222407
2.0515828 -1.2384135 -0.71394521
2.0439453 -1.2509785 -0.71394521
2.0329745 -1.2614769 -0.71279776
2.0195186 -1.2703581 -0.71078974
2.0100701 -1.2816961 -0.71021605
2.0045822 -1.2955648 -0.71107662
1.983771 -1.2994452 -0.70648688
2.0013049 -1.3285404 -0.71566635
1.9835755 -1.3343812 -0.71222407
1.9698085 -1.3427514 -0.71021605
1.9591672 -1.3531801 -0.70935547
1.9539675 -1.3673719 -0.71050292
1.9330345 -1.370474 -0.70591313
1.9292585 -1.3856609 -0.70763433
1.9191701 -1.3963457 -0.70706058
1.9059384 -1.4046863 -0.70533943
1.9011226 -1.4192188 -0.70677376
1.8954358 -1.4331675 -0.70792115
1.8858457 -1.4441884 -0.70763433
1.8769487 -1.4557326 -0.70763433
1.8800375 -1.4766865 -0.71222407
1.8364469 -1.4607716 -0.69902855
1.8393886 -1.4816241 -0.70361829
1.8235803 -1.4874346 -0.70103657
1.8144193 -1.498596 -0.70103657
1.8154802 -1.518302 -0.70505255
1.809055 -1.5318885 -0.7062
1.8025311 -1.5454532 -0.70734745
1.7951852 -1.5583676 -0.70820802
1.7913471 -1.5744112 -0.71050292
1.7830848 -1.5866463 -0.71107662
1.7697561 -1.5943522 -0.70964235
1.7564002 -1.6019543 -0.70820802
1.7458338 -1.6120515 -0.70792115
1.7296096 -1.6168475 -0.70533943
1.7217442 -1.6294045 -0.7062
1.6978756 -1.6266874 -0.70046282
1.6720423 -1.6217389 -0.69386506
1.6771021 -1.6467294 -0.700176
1.671044 -1.6610399 -0.70189714
1.6628469 -1.6733 -0.70275772
1.6518772 -1.6827881 -0.70247084
1.6555289 -1.7073309 -0.7084949
1.6456846 -1.7181486 -0.70878172
