# .PCD v0.7 - Point Cloud Data file format
VERSION 0.7
FIELDS x y z
SIZE 4 4 4
TYPE F F F
COUNT 1 1 1
WIDTH 1445
HEIGHT 1
VIEWPOINT 0 0 0 1 0 0 0
POINTS 1445
DATA ascii
4.2585106 -9.4651089 -0.51971847
4.2096496 -9.5120668 -0.52087009
4.1639595 -9.5670223 -0.52247232
4.1370063 -9.6667662 -0.526528
4.0872965 -9.714983 -0.52777976
4.0421119 -9.7749519 -0.5296824
3.9986 -9.8402815 -0.5318855
3.9570303 -9.9119377 -0.53443909
3.9030643 -9.9536972 -0.53539038
3.8512466 -10.001692 -0.5366922
3.8025179 -10.058767 -0.53849471
3.7452433 -10.094083 -0.53914565
3.7010026 -10.165674 -0.5417493
3.639565 -10.191014 -0.5418995
3.6238413 -10.347005 -0.54900944
3.5787714 -10.422889 -0.55186343
3.5437355 -10.530791 -0.55641979
3.5018804 -10.62158 -0.56007493
3.4421656 -10.659975 -0.56097615
3.3923464 -10.730414 -0.5635798
3.3482864 -10.821632 -0.567285
3.3075733 -10.927051 -0.57174122
3.2566214 -11.001727 -0.57459521
3.2143142 -11.108808 -0.57915157
3.1868446 -11.272483 -0.58666205
3.1592393 -11.722517 -0.60804194
3.0867441 -11.739749 -0.60794181
3.0248208 -11.798134 -0.60999471
2.9596345 -11.845541 -0.61149681
2.8932712 -11.88968 -0.6128487
2.8317716 -11.955801 -0.61535221
2.763067 -11.99339 -0.61640364
2.6990271 -12.053001 -0.61860675
2.3621027 -12.307655 -0.62766939
2.2852645 -12.315043 -0.62731892
1.6241455 -12.59377 -0.63598102
1.5531666 -12.655046 -0.63858467
1.4761808 -12.67029 -0.63888508
1.4012558 -12.70492 -0.64018691
1.3269951 -12.749041 -0.64198941
1.1905959 -12.984167 -0.65305489
1.1156684 -13.046954 -0.65585881
1.0383567 -13.088401 -0.65761125
0.96050543 -13.128392 -0.65931368
0.88066721 -13.145 -0.65986443
0.80066139 -13.161122 -0.66041517
0.72070885 -13.180745 -0.66116625
0.64025527 -13.193898 -0.66161686
0.55941379 -13.200571 -0.66176707
0.47873139 -13.212739 -0.66221774
0.40812787 -13.563832 -0.67969215
0.324918 -13.56708 -0.67974222
0.24180798 -13.576807 -0.68014276
0.15867232 -13.593016 -0.68089384
0.07540749 -13.6197 -0.68219566
-0.0081788413 -13.645874 -0.68349749
-0.092049815 -13.66654 -0.68454891
-0.17611033 -13.681696 -0.68535006
-0.26030332 -13.693339 -0.68600094
-0.34472117 -13.707458 -0.68680209
-0.42982215 -13.737029 -0.68840432
-0.51462615 -13.748107 -0.68910533
-0.59966922 -13.760654 -0.68990642
-0.68528265 -13.780656 -0.69110811
-0.77183288 -13.812092 -0.69291061
-0.85829979 -13.835006 -0.69431257
-0.94426125 -13.845423 -0.69511372
-1.0293455 -13.84136 -0.69521385
-1.114175 -13.833788 -0.69516379
-1.1992954 -13.829676 -0.69531399
-1.2851466 -13.832996 -0.69586474
-1.3729553 -13.854666 -0.69736683
-1.4596138 -13.861874 -0.69816798
-1.5517257 -13.916183 -0.70137244
-1.6408217 -13.93814 -0.70297468
-1.7322112 -13.975385 -0.70537806
-1.8207668 -13.986282 -0.70647961
-1.9073608 -13.980783 -0.70678002
-1.991134 -13.954976 -0.70607907
-2.0736325 -13.92175 -0.70502758
-2.1611607 -13.922583 -0.70572853
-2.2565813 -13.971176 -0.70888299
-2.3440828 -13.967901 -0.70943373
-2.4357414 -13.987692 -0.71118617
-2.5277309 -14.006885 -0.71293861
-2.6183968 -14.016636 -0.71424043
-2.7094669 -14.026782 -0.71559232
-2.8011506 -14.038298 -0.71704435
-2.8948903 -14.058018 -0.71894705
-2.982754 -14.047807 -0.7193476
-3.068253 -14.026313 -0.71919739
-3.1514068 -13.994556 -0.71854645
-3.2401466 -13.987604 -0.71919739
-3.3465037 -14.05393 -0.72365361
-3.4357593 -14.045744 -0.7243045
-3.5228508 -14.028273 -0.72450483
-3.6153398 -14.031539 -0.72580659
-3.7148898 -14.060268 -0.72846031
-3.8198888 -14.106619 -0.73206538
-3.9162512 -14.118525 -0.73391795
-4.0052629 -14.102875 -0.73436862
-4.0875401 -14.063648 -0.73361754
-4.1632242 -14.002882 -0.73176497
-4.2394791 -13.945539 -0.73011267
-4.3199291 -13.90305 -0.72926146
-4.3924623 -13.836302 -0.72715849
-4.4705009 -13.788188 -0.72605699
-4.5578437 -13.769032 -0.7265076
-4.6412845 -13.737967 -0.7263574
-4.7209349 -13.696011 -0.72565639
-4.8088584 -13.678093 -0.72625726
-4.8957286 -13.65679 -0.72670788
-4.9650345 -13.587094 -0.72460496
-5.0472641 -13.553566 -0.72445476
-5.1246638 -13.507401 -0.72365361
-5.2211275 -13.511103 -0.72555625
-5.3207555 -13.521564 -0.7278595
-5.4158788 -13.519256 -0.7295118
-5.510797 -13.515364 -0.73111403
-5.5978327 -13.491444 -0.73166484
-5.6859469 -13.469724 -0.73236579
-5.7814927 -13.464867 -0.73401809
-5.8660011 -13.433715 -0.73426843
-5.9791212 -13.466843 -0.73807377
-6.0583525 -13.42262 -0.73767322
-6.2917752 -13.714714 -0.75584865
-6.4099932 -13.749171 -0.75990427
-6.510911 -13.744783 -0.76185703
-6.6115832 -13.738772 -0.76375967
-6.7080393 -13.723069 -0.76516163
-6.7961135 -13.689703 -0.7656123
-6.9550672 -13.796679 -0.77397394
-7.0609784 -13.795529 -0.77632725
-7.1643739 -13.78828 -0.77838016
-7.2129655 -13.67604 -0.77452475
-7.2349977 -13.516175 -0.76796556
-7.2944345 -13.428525 -0.76551211
-7.2995543 -13.243567 -0.75750095
-7.34168 -13.128792 -0.75349534
-7.4437828 -13.121719 -0.75569844
-7.5301328 -13.086186 -0.75629926
-7.6294174 -13.072515 -0.7582019
-7.7298346 -13.059834 -0.76020473
-7.8915462 -13.148315 -0.76816583
-7.976747 -13.107325 -0.7686165
-8.0523014 -13.050484 -0.76816583
-8.1322269 -13.00083 -0.76816583
-8.2257509 -12.972617 -0.76946765
-8.2970943 -12.909298 -0.76871663
-8.369606 -12.848104 -0.76811576
-8.449934 -12.799006 -0.76826596
-8.4944296 -12.696282 -0.7652117
-8.5833826 -12.660457 -0.76621312
-8.6462002 -12.586147 -0.76491129
-8.6930237 -12.489414 -0.76225758
-8.7153893 -12.359117 -0.75755101
-8.7509985 -12.249333 -0.75409615
-8.8049135 -12.166281 -0.75229365
-8.8705416 -12.099944 -0.75154263
-8.9208002 -12.013214 -0.74953979
-8.97153 -11.927921 -0.74763715
-9.0118675 -11.829747 -0.74493337
-8.6157227 -11.166942 -0.70647961
-8.4128895 -10.766809 -0.68439871
-8.4471865 -10.675043 -0.68184513
-8.4675608 -10.566896 -0.67824012
-8.2471533 -10.163427 -0.65555841
-8.1736679 -9.9475002 -0.6448434
-8.1719484 -9.8219204 -0.63993657
-8.0473785 -9.5523806 -0.62556648
-8.0358372 -9.4207592 -0.62015891
-7.9805522 -9.2405109 -0.61149681
-7.9996266 -9.1485157 -0.60864282
-8.041707 -9.0835543 -0.60759133
-8.0672932 -9.0005732 -0.60533822
-8.0948496 -8.9205799 -0.60328531
-8.1953812 -8.9207554 -0.60669011
-8.196908 -8.8132591 -0.60278463
-8.2542543 -8.7664328 -0.60303497
-8.3058205 -8.7134523 -0.60288477
-8.3487263 -8.6515446 -0.60213369
-8.3576832 -8.5551472 -0.59897929
-8.4135313 -8.5072556 -0.59922963
-8.4585056 -8.4484129 -0.59872895
-8.2961826 -8.1852217 -0.58365786
-8.333375 -8.1216154 -0.58275664
-8.3571482 -8.0453949 -0.58095407
-8.2558146 -7.8508134 -0.57053953
-8.1990023 -7.7015452 -0.56332946
-8.1231022 -7.5369701 -0.55491769
-8.1942291 -7.5099282 -0.55662006
-8.1979504 -7.4213033 -0.55376607
-8.1457987 -7.2836547 -0.54720694
-8.1648846 -7.2110577 -0.54550451
-8.163065 -7.1207757 -0.54245025
-8.1543941 -7.0255737 -0.53899544
-8.0163155 -6.8213658 -0.52707875
-8.072547 -6.7842584 -0.5280301
-8.1170969 -6.7371502 -0.52823037
-8.1613712 -6.6897507 -0.52843064
-8.1906214 -6.6301217 -0.52767962
-8.2194462 -6.5703859 -0.52692854
-8.2564707 -6.517354 -0.52672827
-8.2506161 -6.4309597 -0.52382421
-8.2424316 -6.3436661 -0.52082002
-8.2835855 -6.294785 -0.52097023
-8.268528 -6.2036815 -0.51761556
-8.276742 -6.1308351 -0.51576293
-8.2843752 -6.0581222 -0.51391035
-8.3335381 -6.0159445 -0.51466143
-8.3515873 -5.9513674 -0.51350981
-8.3707914 -5.8879447 -0.51245832
-8.4018393 -5.8330541 -0.51215792
-8.4382963 -5.7819562 -0.51220798
-8.4562397 -5.7183228 -0.5111565
-8.6224289 -5.7539177 -0.51906759
-8.7476606 -5.7602224 -0.52447516
-8.9084663 -5.7880578 -0.53198564
-8.9446545 -5.7338266 -0.53203571
-8.9973946 -5.6900454 -0.53308719
-9.067729 -5.6569333 -0.53519011
-9.1116247 -5.6069455 -0.53574091
-9.0749912 -5.5079231 -0.5315851
-9.030632 -5.4054604 -0.52702868
-8.9922409 -5.3078113 -0.52287287
-8.9262352 -5.1952653 -0.51716489
-8.8444643 -5.0752807 -0.51060575
-8.9076033 -5.0391111 -0.51245832
-8.9549284 -4.9936023 -0.51340967
-8.9118776 -4.8981547 -0.50920379
-8.9364948 -4.8405261 -0.50890338
-8.9175673 -4.759737 -0.50614953
-8.9377642 -4.7002821 -0.50564879
-8.8990393 -4.6104369 -0.50184351
-8.907589 -4.5457592 -0.50074196
-8.9094353 -4.4780116 -0.49928993
-8.90452 -4.4073114 -0.4974874
-8.9340878 -4.3539038 -0.4976376
-8.9606352 -4.2990036 -0.4976376
-8.9353666 -4.2196326 -0.49478361
-8.9701471 -4.1689363 -0.49528432
-9.0109997 -4.1208787 -0.4961355
-8.9131546 -4.0101919 -0.48937607
-8.8946676 -3.9364307 -0.48702276
-8.8582115 -3.8554749 -0.48371816
-8.885375 -3.8026211 -0.48391843
-8.8809223 -3.7364111 -0.48241633
-9.0024376 -3.7226834 -0.48777384
-8.969593 -3.6448176 -0.48476961
-9.0159054 -3.59934 -0.48607144
-9.0526981 -3.5497849 -0.48687255
-9.0771046 -3.4952483 -0.48702276
-9.1002493 -3.4401927 -0.48712292
-9.1183767 -3.3832476 -0.48697269
-9.1502266 -3.3313344 -0.48757353
-9.1563864 -3.2700887 -0.48682249
-9.171566 -3.212194 -0.48657215
-9.2383337 -3.1720741 -0.48907563
-9.2349052 -3.1076844 -0.48787397
-9.2794104 -3.0594046 -0.48922586
-9.3569345 -3.0214362 -0.49233019
-9.5076666 -3.0058107 -0.49928993
-9.5640955 -2.959224 -0.50129271
-9.6279573 -2.914372 -0.50369608
-9.7126951 -2.8750832 -0.50720096
-9.7032909 -2.8076608 -0.505799
-9.7434015 -2.7545905 -0.50700068
-9.7668591 -2.6966145 -0.50735122
-9.7890072 -2.6381946 -0.50765163
-9.7818289 -2.571986 -0.50644994
-9.7964582 -2.5116692 -0.50639987
-9.8136234 -2.4519963 -0.50650001
-9.943965 -2.4198341 -0.51245832
-10.050953 -2.3806398 -0.51721495
-10.152964 -2.3391016 -0.5217213
-10.200262 -2.2841797 -0.52342367
-10.17212 -2.2124228 -0.52127063
-5.5466518 -1.1709005 -0.28358835
-5.4500151 -1.1156183 -0.27828091
-5.4254079 -1.075941 -0.27667868
-5.3043976 -1.0181615 -0.27016959
-5.3331304 -0.98978591 -0.27132118
-5.2958474 -0.949292 -0.2691181
-5.2582698 -0.90929323 -0.26691502
-5.219418 -0.86962754 -0.26466188
-5.1181502 -0.82051587 -0.25925431
-5.1112428 -0.7872721 -0.25865349
-5.146606 -0.76041937 -0.26020566
-5.1205192 -0.72448999 -0.25865349
-5.0357914 -0.68101531 -0.25414717
-5.0289793 -0.64869845 -0.25359643
-5.004117 -0.61430126 -0.25214437
-4.9958873 -0.58219826 -0.25154355
-4.9834819 -0.54978156 -0.25074241
-4.94802 -0.51516134 -0.24878968
-4.9361777 -0.48333195 -0.24803863
-4.9410396 -0.45321739 -0.24813879
-4.9477081 -0.42323154 -0.24833906
-4.9332862 -0.39152253 -0.24748787
-4.9096975 -0.35935077 -0.24618605
-4.9108133 -0.32915193 -0.24613598
-4.9316816 -0.3001655 -0.24708731
-4.9324331 -0.2698451 -0.24703725
-4.941977 -0.23996231 -0.2474378
-4.9463496 -0.2097612 -0.24758801
-4.9495401 -0.17947932 -0.24768814
-4.9545412 -0.1492262 -0.24788843
-4.9603562 -0.11894239 -0.24813879
-4.9460139 -0.088237457 -0.24738774
-4.959445 -0.05803895 -0.24803863
-4.9896693 -0.027772656 -0.24954075
-4.9987345 0.0028494413 -0.24999137
-5.0076118 0.033581741 -0.250442
-5.0162992 0.064423077 -0.25089264
-5.0128136 0.095144302 -0.25074241
-5.0071435 0.12577492 -0.25049207
-5.115087 0.15990224 -0.25594971
-5.1239905 0.19165859 -0.25645041
-5.1137376 0.22270368 -0.25599977
-5.1302299 0.25496998 -0.25690103
-5.1614766 0.28828311 -0.25855336
-5.2862072 0.32780391 -0.26491222
-5.292068 0.36077708 -0.26531279
-5.3046947 0.39435309 -0.26606384
-5.3410006 0.43002233 -0.26801658
-5.3611465 0.46477094 -0.26916817
-5.5948758 0.51965034 -0.28108484
-5.5746856 0.55229545 -0.28023365
-5.5404015 0.58324802 -0.27868149
-5.5188518 0.6152398 -0.27778023
-5.5486975 0.65306187 -0.2794826
-5.6080198 0.69495934 -0.2826871
-5.659112 0.73657745 -0.28549099
-5.7277141 0.78127885 -0.28919619
-5.7495084 0.82021815 -0.29054809
-5.803638 0.86431038 -0.29355228
-5.8574414 0.90909743 -0.29655647
-5.8911915 0.95139158 -0.29855928
-5.9354763 0.99595231 -0.30111283
-6.0069842 1.0458899 -0.30506837
-6.052546 1.0921298 -0.30772209
-6.092855 1.138051 -0.31012544
-6.1377296 1.1854548 -0.31277916
-6.2224073 1.2414651 -0.31748575
-6.2987995 1.2969468 -0.32179177
-6.3444562 1.3469812 -0.32454559
-6.3780255 1.3950627 -0.32669863
-6.4083195 1.4429483 -0.32870141
-6.5268049 1.5117694 -0.3352606
-6.5688996 1.5640512 -0.33791429
-6.627089 1.6209404 -0.34141919
-6.7032294 1.6832243 -0.34587544
-6.7508044 1.7392755 -0.34887964
-6.8249788 1.8031173 -0.35328579
-6.8851242 1.8642793 -0.35699096
-6.9851942 1.9374591 -0.36279908
-7.0279374 1.9958366 -0.36565307
-7.1181774 2.0687492 -0.37101057
-7.1455579 2.1243415 -0.37311351
-7.1811218 2.1829619 -0.3756671
-7.215281 2.2418015 -0.37817058
-7.4441299 2.363096 -0.39093843
-7.4760427 2.4238224 -0.39339188
-7.5767035 2.5079412 -0.3995004
-7.6321373 2.5783603 -0.40325564
-7.7266464 2.6632233 -0.40911385
-7.9136767 2.7821376 -0.41992897
-7.9791903 2.8603029 -0.42433512
-9.2897968 3.3946259 -0.49523425
-9.1761341 3.4170558 -0.49027732
-9.1727362 3.4800272 -0.49122864
-9.0943832 3.5142832 -0.48817438
-9.0568495 3.5638015 -0.48732319
-8.9708405 3.5936782 -0.48386836
-8.9264259 3.6396041 -0.48266667
-8.7609406 3.6349776 -0.47490582
-8.7393923 3.6890535 -0.47495589
-8.6808014 3.7272396 -0.47300318
-8.6202412 3.7640464 -0.47095031
-8.6088495 3.8221376 -0.47160122
-8.5451813 3.8568094 -0.46939814
-8.517725 3.9075031 -0.46919784
-8.4963036 3.9609594 -0.46934807
-8.4384441 3.9971967 -0.46749547
-8.368762 4.0272436 -0.46499196
-8.3438931 4.0785174 -0.46499196
-8.2730875 4.106988 -0.4624384
-8.1951141 4.1311474 -0.45948428
-8.1349382 4.1636062 -0.45753154
-8.0454283 4.1802864 -0.4539265
-8.0099106 4.2244482 -0.45337573
-7.9855995 4.2744594 -0.45347586
-7.8942785 4.2880988 -0.44977069
-7.844202 4.3234391 -0.4484188
-7.8131676 4.3690515 -0.44816846
-7.7723136 4.4090252 -0.44736734
-7.7347264 4.450654 -0.4467665
-7.6969213 4.4919887 -0.44616565
-7.6743703 4.5421839 -0.44646606
-7.6377926 4.5840478 -0.44596538
-7.5941644 4.62148 -0.4450641
-7.5146666 4.6365223 -0.4420599
-7.4784555 4.6777773 -0.44160926
-7.4403343 4.7176929 -0.44105852
-7.3507552 4.7243762 -0.43745348
-7.2973604 4.7535806 -0.43600145
-7.2647214 4.7960658 -0.43580115
-7.2500978 4.8505483 -0.43670243
-7.2077994 4.8865356 -0.43595135
-7.1538072 4.9142694 -0.43449932
-7.1210604 4.9563603 -0.43434912
-7.1068387 5.0114732 -0.43535054
-7.0808311 5.0584688 -0.43565094
-7.0116329 5.0742993 -0.43329766
-7.0294991 5.1532478 -0.43635193
-6.9969454 5.1956878 -0.43630186
-6.9761081 5.2469268 -0.43700284
-6.9922442 5.3265529 -0.4400571
-6.996594 5.3980308 -0.44241041
-6.9790802 5.4531589 -0.4434118
-6.953321 5.5020761 -0.44391251
-6.9498253 5.5689955 -0.44586521
-6.9915252 5.6732073 -0.45077208
-7.0468669 5.7901869 -0.45663029
-7.0288644 5.8480086 -0.45778188
-7.006598 5.9026103 -0.45868316
-7.0287566 5.9953995 -0.46253854
-7.0492821 6.0880284 -0.46634385
-7.0614157 6.1745591 -0.46964848
-7.1602416 6.3389249 -0.47881129
-7.1279049 6.3887396 -0.47926193
-7.1218529 6.4625583 -0.48151508
-7.1048651 6.527082 -0.48306724
-7.2189894 6.714076 -0.49363202
-7.4001579 6.9677544 -0.50895345
-7.403532 7.0571327 -0.51215792
-5.8559103 5.6508398 -0.40736139
-7.4028153 7.231905 -0.51821637
-7.6366644 7.5524979 -0.53784382
-7.5132489 7.5221877 -0.53238618
-7.6731744 7.7771726 -0.5471068
-7.6322799 7.8312607 -0.54760748
-7.5667686 7.8599558 -0.54635572
-7.5197749 7.9076843 -0.54645586
-7.4348726 7.9150934 -0.54380214
-7.3712215 7.9444566 -0.54270059
-7.3020926 7.9674463 -0.54119849
-7.2369819 7.9943309 -0.53999686
-7.1378655 7.9827456 -0.53624159
-7.0708995 8.0061798 -0.5348897
-6.9625549 7.9816775 -0.53038341
-6.8821583 7.9879289 -0.52798003
-6.8019485 7.9934955 -0.52557665
-6.7187181 7.9945569 -0.52292299
-6.6650734 8.0302525 -0.52257246
-6.6239057 8.0810385 -0.5232234
-6.555974 8.0990171 -0.52177137
-6.4911895 8.120368 -0.52056968
-6.4418607 8.1608286 -0.52061975
-6.4235921 8.2411633 -0.5232234
-6.3984876 8.3136654 -0.52532631
-6.3503771 8.3567457 -0.52557665
-6.3403378 8.4506779 -0.52903152
-6.3400841 8.5592451 -0.5333876
-6.2850881 8.5947618 -0.53318733
-6.2287259 8.6283054 -0.53288692
-6.152483 8.6338272 -0.53088409
-6.0660653 8.6240349 -0.52798003
-5.9913917 8.6299171 -0.52607739
-5.9371977 8.6648693 -0.52597725
-5.8995838 8.7243023 -0.52737921
-5.8442788 8.7578449 -0.52722901
-5.8080072 8.8202324 -0.52883124
-5.7739105 8.8866911 -0.53068382
-5.7257419 8.9320421 -0.53128463
-5.6873765 8.9931736 -0.53283685
-5.6289163 9.0228176 -0.53253639
-5.5661197 9.0452776 -0.53183544
-5.5193233 9.0937748 -0.53268659
-5.4782963 9.1523218 -0.53413862
-5.4220347 9.1857634 -0.53413862
-5.3610492 9.211091 -0.53368801
-5.3059206 9.2464113 -0.53383821
-5.2613797 9.3005257 -0.53508997
-5.1939998 9.3143167 -0.53403848
-5.1276107 9.329381 -0.53308719
-5.0745506 9.3685713 -0.53353781
-5.0141492 9.3942451 -0.5332374
-4.9234085 9.362072 -0.5296824
-4.8226862 9.3087454 -0.52497584
-4.7568526 9.3212585 -0.52402449
-4.681181 9.3136835 -0.52197164
-4.595149 9.284049 -0.51871711
-4.5608473 9.3587561 -0.5213207
-4.4951296 9.3694553 -0.52036941
-4.4222026 9.3643484 -0.51856685
-4.3575048 9.3759089 -0.51771569
-4.2895098 9.3797626 -0.51646394
-4.2097483 9.3567219 -0.51376015
-4.141345 9.3577166 -0.51240826
-4.0770736 9.367383 -0.5115571
-3.9762971 9.2912207 -0.50604939
-0.90105635 2.1412311 -0.11585383
-0.88293982 2.134721 -0.11520292
-0.86418527 2.1262193 -0.11445187
-0.84667951 2.1203511 -0.11385103
-0.81578881 2.0799448 -0.1113976
-0.79439831 2.0625422 -0.11019592
-0.78208095 2.0683119 -0.11024599
-0.76207983 2.0534079 -0.10919452
-0.74024135 2.032706 -0.10784263
-0.72876263 2.0400314 -0.10799284
-0.71887237 2.0520055 -0.1083934
-0.70659232 2.0573225 -0.10844347
-0.69427407 2.0625658 -0.10849354
-0.68660855 2.0819635 -0.10929466
-0.66983157 2.0737817 -0.10864375
-2.9232717 9.8755007 -0.51571286
-2.8628991 9.8942108 -0.51576293
-2.8119164 9.9461899 -0.51756549
-2.7643895 10.012356 -0.52011907
-2.7117386 10.061916 -0.52182144
-2.6527424 10.088991 -0.52237219
-2.3814592 9.2885418 -0.48011312
-2.5326085 10.136289 -0.52317333
-2.4656429 10.132229 -0.52217191
-2.3990533 10.128701 -0.52122056
-2.3343933 10.132525 -0.52066982
-2.274796 10.158354 -0.52127063
-2.2149696 10.183831 -0.52187151
-2.166466 10.263681 -0.52527624
-2.1116588 10.316898 -0.52732915
-2.0479271 10.327702 -0.52722901
-1.9882838 10.359691 -0.52823037
-1.9224939 10.359911 -0.52762955
-1.8659375 10.410835 -0.52963233
-1.8003213 10.412247 -0.52913165
-1.7409939 10.450683 -0.53053361
-1.6787336 10.473003 -0.53113443
-1.5919452 10.337012 -0.52372408
-1.5455632 10.462186 -0.52958226
-1.4777026 10.445761 -0.52828044
-1.4079612 10.413062 -0.52617753
-1.3436581 10.418533 -0.52602732
-1.2708257 10.354217 -0.52237219
-1.2113142 10.39654 -0.52412462
-1.1512215 10.43753 -0.52582705
-1.0888104 10.460291 -0.52662814
-1.0263579 10.484667 -0.52752942
-0.96264404 10.497729 -0.52787989
-0.89880866 10.510405 -0.52823037
-0.83532763 10.528665 -0.52888131
-0.76932496 10.514666 -0.52792996
-0.70212394 10.479327 -0.52592719
-0.63526434 10.441569 -0.52382421
-0.5698213 10.420339 -0.52257246
-0.50548542 10.415658 -0.52217191
-0.44004497 10.382641 -0.52036941
-0.37567937 10.36718 -0.51946813
-0.31179029 10.360306 -0.51901752
-0.2480714 10.356033 -0.51871711
-0.18455885 10.359358 -0.51881725
-0.12103811 10.36429 -0.51901752
-0.057430726 10.36284 -0.51891738
0.0061444608 10.345019 -0.5180161
0.069552757 10.3348 -0.51751542
0.13288735 10.328187 -0.51721495
0.19597241 10.312199 -0.51646394
0.25821304 10.269866 -0.51441109
0.32025412 10.237142 -0.51285887
0.38123056 10.186081 -0.51040548
0.44341949 10.176564 -0.51005495
0.50555563 10.167667 -0.50975454
0.56810099 10.167366 -0.50990474
0.63171321 10.183624 -0.51090616
0.69350719 10.169593 -0.51040548
0.75411546 10.141242 -0.50920379
0.81408131 10.108549 -0.50780183
0.87531412 10.094408 -0.50735122
0.93815982 10.098793 -0.5078519
1.0012892 10.104773 -0.50845271
1.0627491 10.093472 -0.50820237
1.1222262 10.064924 -0.50710082
1.181393 10.036028 -0.50599933
1.2403705 10.007775 -0.50494784
1.2998195 9.9851208 -0.50419676
1.3599824 9.9690399 -0.50379622
1.4197147 9.9506207 -0.50329554
1.4804496 9.9397459 -0.50319541
1.5406448 9.9255409 -0.50294501
1.6013585 9.9149151 -0.50289494
1.6601814 9.8930826 -0.50229412
1.7181113 9.8669662 -0.50149298
1.7779119 9.8523083 -0.50129271
1.8385144 9.8421946 -0.50134277
1.9000071 9.8366117 -0.50164324
1.960914 9.8277073 -0.50179344
2.0217831 9.8184242 -0.50194365
2.0846868 9.8185349 -0.50259453
2.1466002 9.813364 -0.50299507
2.1955829 9.7503166 -0.50044155
2.2492824 9.710391 -0.49908963
2.3035007 9.6740608 -0.49793804
2.3640027 9.6645956 -0.49818838
2.4298275 9.6760616 -0.49954027
2.4886544 9.6590357 -0.49944013
2.5422611 9.6223412 -0.49833858
2.5908127 9.5679998 -0.4963358
2.6427975 9.5278625 -0.49508405
2.6971166 9.497056 -0.494333
2.7536662 9.4745741 -0.49403256
2.814311 9.466115 -0.4944832
2.8766987 9.4630022 -0.49523425
2.9335229 9.4413586 -0.49503398
2.9926076 9.4269886 -0.49523425
3.0593278 9.4359999 -0.49668628
3.1184237 9.4208431 -0.49688655
3.1739326 9.394908 -0.49653608
3.2240326 9.3535395 -0.49538445
3.2624817 9.2798758 -0.49253047
3.308912 9.2305374 -0.4909783
3.3689153 9.2194414 -0.49147901
3.4344838 9.2229309 -0.49278083
3.4952617 9.2128897 -0.49338165
3.5488448 9.1838169 -0.49298111
3.6011059 9.1516457 -0.49243033
3.6490202 9.1089802 -0.49132881
3.6946614 9.0614491 -0.48997691
3.7490437 9.035841 -0.48982668
3.8059695 9.0163479 -0.49002698
3.8643737 9.0001669 -0.49042752
3.9267192 8.9927607 -0.49132881
3.9842558 8.9739752 -0.49162921
4.0236301 8.9147673 -0.48972654
4.0665932 8.8644934 -0.48832458
4.1192203 8.8357534 -0.48812431
4.1737852 8.8112144 -0.48817438
4.2329688 8.7962389 -0.48877522
4.2886162 8.7736883 -0.4889755
4.3379288 8.7382641 -0.48847479
4.3923631 8.7132654 -0.48857495
4.4389181 8.6728144 -0.4878239
4.4998784 8.6604815 -0.48867509
4.5580592 8.6424246 -0.48922586
4.6086454 8.6098919 -0.4889755
4.6642485 8.5867176 -0.48927593
4.723597 8.5701818 -0.48997691
4.7804813 8.5488825 -0.49042752
4.8387599 8.5298128 -0.49102837
4.9019656 8.5190067 -0.49212992
4.9616966 8.5017071 -0.49288097
5.0132604 8.4702435 -0.4928309
5.0589705 8.4290466 -0.49223006
5.1230564 8.4183235 -0.49343172
5.1819558 8.3986292 -0.4941327
5.2291546 8.3599014 -0.49373215
5.2819557 8.3301897 -0.49388236
5.3399897 8.3085451 -0.49453327
5.400682 8.2906866 -0.49543452
5.4525518 8.259059 -0.49553466
5.5064578 8.2304277 -0.4958351
5.5703068 8.2163258 -0.49703678
5.6313615 8.1976337 -0.4979881
5.6884017 8.1727629 -0.49858895
5.7332616 8.1303596 -0.49813831
5.7952332 8.1120939 -0.49918979
5.8530965 8.0877094 -0.49989077
5.9073358 8.0580864 -0.50029135
5.9656 8.0337152 -0.50104237
6.0165825 7.9993548 -0.50119257
6.0558686 7.9495759 -0.50039148
6.1216149 7.9344082 -0.50179344
6.2163057 7.9557209 -0.50554866
6.2798781 7.9362254 -0.50675035
6.3378239 7.9092336 -0.50750142
6.3893809 7.8740745 -0.50775176
6.4420142 7.8401232 -0.50810224
6.4938312 7.8050547 -0.50840265
6.5454617 7.7696452 -0.50870311
6.6046791 7.7430139 -0.50960433
6.6664262 7.7189713 -0.51070589
6.7208958 7.686192 -0.51125664
6.7646203 7.6410699 -0.5110063
6.8067112 7.594213 -0.51065582
6.8551941 7.5545239 -0.51080602
6.9257441 7.5387959 -0.51260853
6.979353 7.5042028 -0.51315933
7.019105 7.4546928 -0.51270866
7.0936565 7.4418464 -0.51481164
7.1592984 7.4190226 -0.51626366
7.2200403 7.3906708 -0.51736522
7.2764893 7.3575921 -0.5181663
7.3271513 7.3184524 -0.51856685
7.3726296 7.2740574 -0.51861691
7.4228458 7.2342591 -0.51901752
7.4814849 7.2024307 -0.52001888
7.5573831 7.1866717 -0.52222198
7.6180806 7.1558919 -0.5233736
7.669899 7.1164856 -0.52392435
7.7369819 7.0908833 -0.52552658
7.792192 7.0540009 -0.52632773
7.8405395 7.010716 -0.5266782
7.8893981 6.9677644 -0.52707875
7.9395289 6.9257898 -0.52757949
8.0121422 6.903019 -0.52958226
8.053587 6.8530803 -0.52953219
8.0947199 6.8028927 -0.52948213
8.1316986 6.7492695 -0.52918172
8.185317 6.7093773 -0.52998281
1.3483001 1.0916671 -0.086362593
1.354193 1.0827498 -0.086312525
1.3655149 1.0781331 -0.086612947
1.3634393 1.0629804 -0.086062178
1.3754765 1.0588584 -0.086412668
1.3843331 1.0522115 -0.086562879
1.3867689 1.0407007 -0.086312525
1.4003515 1.0375222 -0.086763158
1.4034665 1.0265522 -0.086562879
1.4081193 1.0167522 -0.086462736
1.426532 1.0167868 -0.087213784
1.4384625 1.0120367 -0.087564275
1.4389021 0.99920452 -0.087213784
1.4598364 1.000518 -0.088115044
1.4642932 0.9904229 -0.088014908
1.4570504 0.9725498 -0.087213784
8.6425571 5.6910162 -0.5181663
8.6714516 5.6340704 -0.51781583
1.4452759 0.92670125 -0.085461333
1.4467142 0.91514677 -0.085210986
1.4353546 0.89568031 -0.084209584
1.4331678 0.88214558 -0.083758958
1.4197699 0.86193532 -0.082657419
1.420747 0.85064298 -0.082407065
1.4242196 0.84089398 -0.082306929
1.4224467 0.82812035 -0.081906363
1.4257687 0.81838262 -0.081806228
1.4281555 0.80814362 -0.081656016
1.4374489 0.80179745 -0.081906363
1.440591 0.79200029 -0.081806228
1.4454235 0.78314608 -0.081806228
1.4502015 0.77426237 -0.081806228
1.4566929 0.76627922 -0.081906363
1.4622542 0.7577861 -0.081956439
1.4695451 0.75016153 -0.082106642
1.4973223 0.75279135 -0.083408467
9.0969696 4.5025592 -0.50825244
9.0983887 4.4339685 -0.50680041
9.1182203 4.3746028 -0.50639987
9.1421814 4.3172927 -0.50624967
9.179368 4.2661672 -0.50685048
9.1926565 4.203948 -0.50614953
9.1991501 4.1388588 -0.50509804
9.2152405 4.0782943 -0.50459737
9.2364273 4.0200796 -0.50439703
9.2627563 3.9641163 -0.50449723
9.2638903 3.8975241 -0.50324547
9.2747097 3.8352659 -0.50254446
9.2952919 3.7771568 -0.50239426
9.3090172 3.7163484 -0.50189358
9.2665577 3.6336386 -0.49838865
9.2728338 3.570611 -0.49753746
9.2973709 3.5147059 -0.49768767
9.3253164 3.4600241 -0.49803817
9.3491869 3.4037647 -0.49818838
9.3426199 3.3365943 -0.49673635
9.3308678 3.2679827 -0.49503398
9.32335 3.2012627 -0.49358195
9.3342972 3.1411288 -0.49313131
9.3505497 3.0828574 -0.49298111
9.3512316 3.0195949 -0.49202979
9.3600607 2.9591494 -0.49152908
9.3971233 2.9075656 -0.49253047
9.4319944 2.8550589 -0.49343172
9.4493341 2.7971315 -0.49343172
9.4480915 2.7338247 -0.4924804
9.4368162 2.6679223 -0.49102837
9.4356794 2.6051843 -0.49012712
9.4389505 2.5438609 -0.4894762
9.4408588 2.4823413 -0.48877522
9.4326935 2.4184141 -0.48757353
9.4144106 2.3522601 -0.48587117
9.4005241 2.2876022 -0.48441914
9.3891144 2.2238944 -0.48311731
9.3763056 2.1601884 -0.48176542
9.3679428 2.0978148 -0.48066387
9.3728304 2.0385969 -0.48026332
9.3822308 1.9804292 -0.48011312
9.396163 1.9232241 -0.48021325
9.3999491 1.8639802 -0.47981268
9.4014015 1.8043859 -0.479312
9.3995304 1.7442974 -0.47866109
9.4031734 1.6853567 -0.47831059
9.3956232 1.6245657 -0.47740933
9.3778305 1.56229 -0.47600737
9.3744202 1.5026646 -0.47535646
9.3617458 1.441772 -0.47425491
9.3368244 1.3793404 -0.47255254
9.3203888 1.3185278 -0.47130078
9.3292942 1.261448 -0.47135085
9.3220005 1.2022649 -0.4705998
9.2964888 1.1410292 -0.4689475
9.2993469 1.0835034 -0.46874723
9.2889433 1.0245622 -0.46789601
9.2861147 0.96661663 -0.4674454
9.2998228 0.91039819 -0.46784595
9.308218 0.85359192 -0.46799618
9.3073092 0.79595125 -0.46769574
9.2821493 0.7364586 -0.46619365
9.2595987 0.67752337 -0.46484175
9.2815189 0.62189621 -0.46574301
9.2931356 0.5654192 -0.46614358
9.2874546 0.50789636 -0.46569294
9.2973795 0.45123878 -0.46604344
9.298975 0.39414039 -0.46599337
9.2762661 0.3361719 -0.46474162
9.2851429 0.2794576 -0.46509212
9.2717056 0.22212134 -0.46434104
9.2369452 0.16458739 -0.46253854
9.2327881 0.10784926 -0.4622882
9.2382689 0.051223479 -0.46253854
7.7162447 -0.017353049 -0.53737324
7.7130003 -0.064673863 -0.53716451
7.6526098 -0.11113463 -0.53298956
1.3524262 -0.028472662 -0.093507349
1.3492343 -0.036690533 -0.093298607
1.3400105 -0.044673752 -0.092672363
1.345692 -0.053128324 -0.093089856
1.3293958 -0.060664456 -0.091976538
1.3250134 -0.068615913 -0.091698214
1.3146081 -0.076172568 -0.09100239
1.3190937 -0.084554061 -0.091350302
1.3195454 -0.09271571 -0.091419883
1.3219358 -0.10103716 -0.091628626
1.3292447 -0.10979965 -0.092185289
1.3275523 -0.11786593 -0.092115708
1.3228315 -0.12563407 -0.091837376
1.3498273 -0.13654645 -0.093785681
1.3390449 -0.14376611 -0.093089856
1.3767965 -0.15635158 -0.095803574
1.3867074 -0.16609651 -0.096568979
1.3767537 -0.17348373 -0.095942736
1.4241257 -0.18831415 -0.09935227
1.4427075 -0.19977678 -0.10074392
1.4493533 -0.20976494 -0.10130057
1.4470525 -0.21850556 -0.10123099
1.4506122 -0.2281532 -0.10157891
1.4403239 -0.23560426 -0.10095266
1.428032 -0.2426044 -0.10018726
1.4294641 -0.25188008 -0.10039601
1.4308361 -0.26118249 -0.10060475
1.4282261 -0.26977229 -0.10053517
1.4294815 -0.27910283 -0.10074392
1.4296981 -0.28826219 -0.10088308
1.4210651 -0.2956101 -0.10039601
1.428004 -0.30620253 -0.10102225
1.425124 -0.31474411 -0.10095266
1.4338675 -0.32591003 -0.10171807
1.4376696 -0.33606181 -0.10213557
7.3482203 -1.7625685 -0.52624005
7.3401732 -1.8083389 -0.52644879
7.3405452 -1.8562771 -0.52728379
7.3126011 -1.8970258 -0.52610087
7.282506 -1.9369889 -0.52477884
7.270484 -1.9816371 -0.52477884
7.248579 -2.0235291 -0.52408302
7.2168427 -2.0624869 -0.52269137
7.1925616 -2.1033707 -0.52185637
7.1967239 -2.1526082 -0.52310884
7.1547608 -2.1879764 -0.52102137
7.1154919 -2.2238035 -0.51914269
7.0960107 -2.2656016 -0.51872516
7.094306 -2.3131182 -0.51962972
7.0894446 -2.3597541 -0.52032554
7.0578294 -2.3974359 -0.51907307
7.0128226 -2.4302468 -0.51684642
6.9874325 -2.4695752 -0.51608104
6.9627624 -2.5090218 -0.51538521
6.9556642 -2.5547917 -0.51601148
6.9389229 -2.5970733 -0.51594186
6.9107394 -2.6349816 -0.5150373
6.892581 -2.6766136 -0.51489812
6.8676786 -2.7155545 -0.51427191
5.9920683 -2.4120352 -0.44969946
5.9826941 -2.4510248 -0.45011696
5.9758301 -2.4911418 -0.4507432
5.9751267 -2.5339921 -0.45185652
5.9640465 -2.572582 -0.45220444
5.9974828 -2.6307628 -0.45596188
6.0668731 -2.705699 -0.46250263
6.5517077 -2.970196 -0.50091207
6.5868173 -3.0349662 -0.50501746
6.5906582 -3.0858984 -0.50675702
6.5436726 -3.1129973 -0.50459993
6.5118732 -3.1470139 -0.50362581
6.4942322 -3.1877897 -0.50376499
6.4665141 -3.223573 -0.50313872
6.4323716 -3.2559829 -0.50202543
6.4069481 -3.2926543 -0.50160789
6.3875089 -3.332366 -0.50167751
6.3404922 -3.3574936 -0.49959001
6.3347106 -3.4043615 -0.50077289
6.3163304 -3.4445989 -0.50098169
6.2985673 -3.4852223 -0.50125998
6.2761941 -3.5233157 -0.50119042
6.2449212 -3.55633 -0.50042498
6.2281656 -3.5975742 -0.50084251
6.1818719 -3.6216047 -0.49889418
6.1466689 -3.6518261 -0.49785045
6.124146 -3.6894727 -0.49785045
6.1005406 -3.7264602 -0.49778089
6.0894351 -3.7711744 -0.49875504
6.0602665 -3.8047552 -0.49826795
6.0452232 -3.8472238 -0.49896377
6.0374322 -3.8945169 -0.50028586
6.0125866 -3.9309428 -0.50021625
5.9900174 -3.9688635 -0.50035542
5.9771476 -4.0133271 -0.5013296
5.9689059 -4.0611482 -0.50272125
5.9307332 -4.0886378 -0.50160789
5.7059717 -3.9855862 -0.48462981
4.9248714 -3.4852533 -0.4199878
4.8855562 -3.5026209 -0.41845697
4.866394 -3.5342906 -0.41866574
4.8454199 -3.5646749 -0.41873533
4.8458557 -3.6110263 -0.42068362
5.0489602 -3.8107426 -0.44037542
5.72614 -4.3771434 -0.50188625
5.7117963 -4.4219656 -0.50299954
5.6979032 -4.467392 -0.50418246
5.6750722 -4.505991 -0.50459993
5.6519823 -4.5444779 -0.50501746
5.633275 -4.5866299 -0.5058524
5.6050258 -4.621109 -0.5058524
5.5719709 -4.6515779 -0.50543493
5.5463719 -4.6882548 -0.50571328
5.5228066 -4.7267389 -0.50620031
5.5012393 -4.7670693 -0.50689614
5.4643865 -4.7941561 -0.50620031
5.4333754 -4.8262701 -0.5060612
5.4036598 -4.8595176 -0.5060612
5.377429 -4.8959403 -0.50640911
5.359024 -4.9396601 -0.5075224
5.331531 -4.9751716 -0.50780076
5.3154082 -5.0214915 -0.50919241
5.2671933 -5.0374651 -0.5075224
5.2361846 -5.0696893 -0.5075224
5.2227912 -5.1191783 -0.50926197
5.2160683 -5.1757188 -0.51169735
5.1863246 -5.2097473 -0.51190609
5.1465659 -5.2336483 -0.5111407
5.1178317 -5.2687063 -0.51148862
5.095768 -5.3108058 -0.51253235
5.0678897 -5.3470407 -0.51301938
5.046577 -5.3904147 -0.5142023
5.0195031 -5.4278698 -0.51482856
4.9854307 -5.4578304 -0.51475894
4.9558587 -5.4927611 -0.51517648
4.9167523 -5.5171089 -0.51461983
4.8880811 -5.553164 -0.51517648
4.8571882 -5.5868154 -0.51552439
4.8254166 -5.6195407 -0.51580268
4.8063316 -5.6673012 -0.51747268
4.7791553 -5.705862 -0.51830769
4.7427826 -5.733542 -0.51816851
4.7056193 -5.7602177 -0.51795977
4.6714396 -5.7905354 -0.51809895
4.6432815 -5.8284516 -0.51893389
4.6296382 -5.8850565 -0.5214389
4.6062937 -5.9298959 -0.5229001
4.5795369 -5.9707117 -0.5240134
4.5524521 -6.0114222 -0.52512676
4.5226502 -6.0488291 -0.52596176
4.4895983 -6.0820832 -0.52644879
4.4445562 -6.0990362 -0.52554423
4.4309373 -6.1593928 -0.52839714
4.3924828 -6.1856518 -0.52832752
4.3561635 -6.2149377 -0.52853626
4.316812 -6.2399087 -0.52839714
4.2863193 -6.277812 -0.52937126
4.2577543 -6.3188844 -0.53062373
4.2277408 -6.358181 -0.53173709
4.1930265 -6.3906746 -0.53229374
4.1569886 -6.4213066 -0.53271121
4.1142879 -6.441648 -0.53229374
4.0704298 -6.4600201 -0.53173709
4.0417757 -6.5026655 -0.5331983
4.0070152 -6.5358472 -0.53389412
3.9730313 -6.5705543 -0.53472912
3.9351954 -6.5990925 -0.53507704
3.9012048 -6.6342921 -0.5359816
3.8734355 -6.680542 -0.53779072
3.8378181 -6.7137094 -0.53855616
3.7990007 -6.7414765 -0.53890407
3.7754898 -6.7969251 -0.54147857
3.7298808 -6.812963 -0.54092193
3.6742685 -6.8102612 -0.53890407
3.6394374 -6.84589 -0.53994781
3.6121774 -6.8963695 -0.5421744
3.5693364 -6.9175172 -0.54210484
3.5173311 -6.9206133 -0.54064363
3.4730144 -6.9384966 -0.54036528
3.429934 -6.9587817 -0.54029572
3.3849931 -6.9752088 -0.53994781
3.3451409 -7.0021482 -0.54043484
3.3131526 -7.0460124 -0.54224402
3.2744656 -7.0761671 -0.5430094
3.2376008 -7.110652 -0.54412276
3.2090013 -7.1640673 -0.54669726
3.1641784 -7.1817966 -0.54655808
3.1109285 -7.1800241 -0.5449577
3.0695515 -7.2054014 -0.54544479
3.0445528 -7.2701063 -0.54892391
3.0181155 -7.3329291 -0.55226386
2.9711943 -7.3466854 -0.55191594
2.9201653 -7.3499455 -0.55080265
2.8808153 -7.3825936 -0.55191594
2.8508134 -7.440186 -0.55490798
2.8100257 -7.4706097 -0.55588216
2.7592964 -7.4746094 -0.55490798
2.717119 -7.5017166 -0.55567342
2.6850677 -7.5577269 -0.55859584
2.6383154 -7.5731177 -0.55852628
2.5924432 -7.5910516 -0.55866545
2.5540502 -7.6314111 -0.56047457
2.5127723 -7.664001 -0.56172705
2.4650896 -7.6773753 -0.56158793
2.4269121 -7.7209058 -0.56367534
2.3841856 -7.7509065 -0.5647887
2.3388822 -7.7730317 -0.56534535
2.2950866 -7.8006349 -0.56631953
2.2568316 -7.848125 -0.56875491
2.2191594 -7.8992796 -0.57146859
2.1790962 -7.943532 -0.57369524
2.1349597 -7.9740977 -0.57494771
2.0948172 -8.0208292 -0.5773831
2.0512261 -8.0557661 -0.57898349
2.0053627 -8.0827236 -0.58002722
1.9587767 -8.107482 -0.58093178
1.917444 -8.1552773 -0.58350635
1.870927 -8.1824484 -0.58461964
1.8256638 -8.2161722 -0.58622009
1.7800571 -8.2496471 -0.58782047
1.734108 -8.2828712 -0.58942086
1.6886122 -8.3197508 -0.59129959
1.6404189 -8.3446379 -0.59234333
1.5958998 -8.3898258 -0.59484828
1.5523316 -8.4426298 -0.59790987
1.5034649 -8.4686928 -0.59909278
1.455179 -8.4993906 -0.60062361
1.4112818 -8.5583572 -0.60417229
1.3643705 -8.6023245 -0.60667729
1.3172729 -8.6480093 -0.60932142
1.266637 -8.6727095 -0.61050433
1.2138129 -8.6832819 -0.61071306
1.1627563 -8.7073755 -0.61189592
1.1123322 -8.7380972 -0.61356592
1.0613346 -8.7665443 -0.61509675
1.0087769 -8.7837934 -0.61586213
0.96283937 -8.8632069 -0.62101126
0.9136253 -8.9195585 -0.62455994
0.86203456 -8.9577646 -0.62685615
0.80893475 -8.9837494 -0.62831742
0.75638282 -9.0193615 -0.63047445
0.70767766 -9.1093664 -0.63645852
0.65867984 -9.2100544 -0.64320803
0.60482579 -9.254735 -0.64606088
0.55139232 -9.3150349 -0.6500271
0.49777052 -9.3849869 -0.65468907
0.44003558 -9.3848743 -0.65448034
0.38329703 -9.40833 -0.65594161
0.32905188 -9.5112 -0.66296941
0.27353019 -9.6127558 -0.66992766
0.2141628 -9.5972996 -0.66874474
0.15591894 -9.6383305 -0.67152804
0.097532459 -9.7139206 -0.67674673
0.038069725 -9.750248 -0.67925167
-0.02186539 -9.8001766 -0.68273079
-0.082403503 -9.8487377 -0.68614036
-0.14362475 -9.9029074 -0.68996733
-0.2051855 -9.9407368 -0.69268107
-0.26724249 -9.9791794 -0.69546437
-0.3296479 -10.013246 -0.69796932
-0.39271465 -10.052901 -0.70089179
-0.4587099 -10.145972 -0.70757169
-0.52294898 -10.181821 -0.71028543
-0.58850336 -10.232201 -0.71404284
-0.65349233 -10.263241 -0.71647823
-0.71805114 -10.281928 -0.71807861
-0.787094 -10.35591 -0.72357565
-0.8474378 -10.312111 -0.72086191
-0.91464412 -10.351434 -0.72399312
-0.98189563 -10.385353 -0.72677642
-1.0473992 -10.396998 -0.72802889
-1.1135067 -10.412199 -0.72955972
-1.1814094 -10.440855 -0.73206466
-1.2475783 -10.451241 -0.7333172
-1.3154101 -10.473082 -0.73540467
-1.3808199 -10.473715 -0.73603088
-1.4434227 -10.453187 -0.73519588
-1.5078199 -10.446108 -0.73533505
-1.5787193 -10.482037 -0.73853582
-1.6561438 -10.555923 -0.74445033
-1.7231311 -10.559345 -0.74542451
-1.7957218 -10.594801 -0.7486949
-1.8601784 -10.580636 -0.7484861
-1.927388 -10.581782 -0.74939072
-1.9948664 -10.583481 -0.75036484
-2.0603402 -10.573979 -0.75057358
-2.1257722 -10.564073 -0.75078237
-2.1960258 -10.577202 -0.75266105
-2.2677729 -10.59572 -0.75495726
-2.3372531 -10.602063 -0.75641853
-2.4049103 -10.599197 -0.75725353
-2.4696739 -10.58327 -0.75718391
-2.5313087 -10.554337 -0.75620979
-2.5900576 -10.51439 -0.75447023
-2.6525681 -10.490562 -0.75391352
-2.7228968 -10.497264 -0.75558352
-2.7880247 -10.483252 -0.75579226
-2.8538697 -10.471722 -0.75620979
-2.9204824 -10.462662 -0.756836
-2.982707 -10.43783 -0.75634891
-3.0452967 -10.414545 -0.756001
-3.1111424 -10.402354 -0.75648808
-3.1760778 -10.386885 -0.75676644
-3.2364783 -10.356727 -0.756001
-3.2938986 -10.317666 -0.75460935
-3.3599269 -10.305798 -0.75523561
-3.431603 -10.310544 -0.75711435
-3.5002561 -10.305352 -0.75829726
-3.5624428 -10.280853 -0.75808847
-3.6241286 -10.255038 -0.75781018
-3.6903651 -10.241993 -0.758506
-3.7541707 -10.221966 -0.75871474
-3.8248618 -10.220228 -0.76031512
-3.8981597 -10.224531 -0.76240259
-3.9604619 -10.19949 -0.76233304
-4.0328717 -10.200046 -0.76421171
-4.0972447 -10.179735 -0.76455963
-4.1581163 -10.150711 -0.76428133
-4.2218571 -10.12869 -0.76455963
-4.2847047 -10.104431 -0.7646988
-4.3584743 -10.105432 -0.76678628
-4.4348211 -10.111387 -0.76929122
-4.5024672 -10.096741 -0.7702654
-4.5733948 -10.088914 -0.77179623
-4.6377172 -10.066098 -0.7722137
-4.6985483 -10.035645 -0.77207452
-4.7673216 -10.021941 -0.77325743
-4.8460851 -10.02843 -0.77604073
-4.9176354 -10.019104 -0.77764112
-4.9937034 -10.018205 -0.77993733
-5.0645394 -10.006067 -0.78139859
-5.1354141 -9.9934368 -0.7828598
-5.2127824 -9.9926958 -0.78529519
-5.281467 -9.9746284 -0.78640848
-5.3562627 -9.9675188 -0.7884264
-5.4373784 -9.9712515 -0.79134887
-5.5134287 -9.9647608 -0.79350591
-5.5822792 -9.9446621 -0.7946192
-5.6481299 -9.9188919 -0.79531503
-5.7532854 -9.9609327 -0.80150789
-5.8354721 -9.9615965 -0.80443037
-5.9066744 -9.9427576 -0.80582201
-5.9804392 -9.9276905 -0.80756158
-6.0755577 -9.9469986 -0.812154
-6.1664104 -9.9578772 -0.81612021
-6.2576251 -9.9680138 -0.82008636
-6.3101015 -9.9159632 -0.81897306
-6.391912 -9.9097548 -0.82168674
-6.4673338 -9.8928928 -0.82356548
-6.5361781 -9.8654985 -0.82460922
-6.5982566 -9.827692 -0.82481796
-6.6763887 -9.8134155 -0.82704461
-6.7579899 -9.8034773 -0.82968873
-6.8482881 -9.8051739 -0.83337659
-6.9152365 -9.7727413 -0.83421159
-6.9640293 -9.7147217 -0.83288956
-7.031126 -9.6823015 -0.83379412
-7.0791726 -9.6237087 -0.83247203
-7.1285539 -9.5672913 -0.83135873
-7.1847196 -9.5201855 -0.83108038
-7.8427019 -10.260594 -0.89996696
-7.9244413 -10.236733 -0.90212399
-7.9489465 -10.139241 -0.89780986
-7.9334793 -9.9926119 -0.88911206
-7.6696272 -9.5394487 -0.85292923
-7.7286463 -9.4929829 -0.85299885
-7.7670784 -9.4215193 -0.85084176
-7.7320523 -9.2626352 -0.84075236
-7.638063 -9.0367279 -0.82447004
-7.6453729 -8.9336033 -0.81932098
-7.6863265 -8.8706903 -0.81785977
-7.732717 -8.8143625 -0.81702477
-7.799242 -8.780921 -0.8183468
-7.8209581 -8.6972933 -0.81500685
-7.860074 -8.6336498 -0.81354564
-7.8831553 -8.5529814 -0.81048399
-7.8939748 -8.4599562 -0.80623949
-7.9149108 -8.378726 -0.80310827
-7.9330797 -8.2953959 -0.79976833
-7.9366488 -8.1978235 -0.79503673
-7.8764801 -8.0363979 -0.78404272
-7.8968363 -7.9588814 -0.78118986
-7.8939176 -7.8588953 -0.77611035
-7.8786912 -7.748055 -0.76991749
-7.8946018 -7.6689806 -0.7668559
-7.9307132 -7.6100345 -0.76581216
-7.9193397 -7.5063252 -0.76024556
-7.8312635 -7.3321314 -0.74744236
-7.7933507 -7.2073994 -0.73957956
-7.7372651 -7.067935 -0.73011637
-7.7093892 -6.9561677 -0.72343647
-7.7876716 -6.9405942 -0.72677642
-7.8226242 -6.8860874 -0.7260806
-7.8737621 -6.8458138 -0.7269156
-7.9148626 -6.7967224 -0.72684604
-7.9412022 -6.7351236 -0.72545439
-7.97932 -6.6837087 -0.72517604
-8.0171061 -6.6320786 -0.72489768
-8.017478 -6.5499406 -0.72127944
-8.0140409 -6.4655423 -0.71738279
-8.0270348 -6.3951111 -0.71501702
-8.0237885 -6.3124275 -0.71125954
-8.1143618 -6.3034701 -0.71585202
-8.1172686 -6.2262387 -0.71272081
-8.1274862 -6.1552334 -0.71028543
-8.0540552 -6.0222054 -0.70061344
-8.1213522 -5.9951892 -0.70325756
-8.121707 -5.9188037 -0.70012641
-8.1384373 -5.8548751 -0.69845641
-8.1758356 -5.8059835 -0.69859558
-8.1908855 -5.7413921 -0.69685602
-8.3153772 -5.7528963 -0.70444047
-8.3884153 -5.7276444 -0.7076413
-8.3952751 -5.6571112 -0.70527548
-8.412385 -5.5938911 -0.70381427
-8.4140224 -5.520823 -0.70110053
-8.4192686 -5.4506574 -0.69873476
-8.4710493 -5.4107099 -0.70026553
-8.5294085 -5.3745866 -0.702353
-8.56392 -5.3232036 -0.70249218
-8.5470972 -5.2403107 -0.69845641
-8.5867729 -5.1924143 -0.69908267
-8.6116171 -5.135541 -0.69852597
-8.6180296 -5.0679379 -0.69650811
-8.6437864 -5.0119605 -0.69609058
-8.6960268 -4.9712076 -0.69783014
-8.7011633 -4.9035516 -0.69581228
-8.7119026 -4.8394108 -0.69428146
-8.6801834 -4.752326 -0.68941069
-8.7004004 -4.6942387 -0.68871486
-8.6973314 -4.6239052 -0.68620992
-8.7105179 -4.5625825 -0.685027
-8.723279 -4.5012722 -0.68384409
-8.7000456 -4.4218955 -0.67987794
-8.6458387 -4.3277898 -0.6735459
-8.6695471 -4.273335 -0.67333716
-8.7548351 -4.2488093 -0.67792964
-8.7582388 -4.1842585 -0.67619008
-8.7160435 -4.098598 -0.67097139
-8.7129631 -4.0320506 -0.6688143
-8.7030411 -3.9628015 -0.66617018
-8.6953297 -3.8950505 -0.66373479
-8.601305 -3.7897291 -0.65475869
-8.6353807 -3.741641 -0.65559369
-8.6994743 -3.7061822 -0.6587249
-8.7588558 -3.6681502 -0.66150814
-8.8014927 -3.6226926 -0.66303897
-8.8069096 -3.5618856 -0.6617865
-8.8054228 -3.4985702 -0.66004694
-8.8304405 -3.4459262 -0.66032529
-8.868185 -3.3981047 -0.66157776
-8.9056749 -3.3499496 -0.66283023
-8.9344845 -3.2983522 -0.6634565
-8.9629965 -3.2465277 -0.66408271
-8.9235287 -3.1704259 -0.65969902
-8.9917994 -3.1326823 -0.66331732
-8.9957476 -3.0722911 -0.66220397
-9.0844316 -3.0404708 -0.66735309
-9.1285095 -2.9930661 -0.66923183
-9.1723471 -2.9452343 -0.67111051
-9.217844 -2.8975759 -0.67312843
-9.2459373 -2.8441885 -0.67389381
-9.3568296 -2.8155794 -0.68071288
-9.3997679 -2.7657182 -0.68259162
-9.431901 -2.7124028 -0.68370497
-9.4733362 -2.6614954 -0.68551409
-9.458704 -2.5948708 -0.68328744
-9.4821568 -2.5388489 -0.68384409
-9.5072079 -2.4831414 -0.68453991
-9.4748964 -2.412694 -0.68113041
-9.4953308 -2.3559537 -0.68154788
-9.5280323 -2.3020995 -0.68286997
-9.5730524 -2.2509019 -0.68509662
-9.5701513 -2.1883392 -0.68391371
-9.6223507 -2.1382351 -0.68669701
-9.7698565 -2.1081998 -0.69629937
-5.4884391 -1.1488414 -0.39027613
-5.4865866 -1.1133568 -0.3896499
-5.4345846 -1.068121 -0.38547495
-5.3694973 -1.0211412 -0.38039544
-5.291286 -0.9726547 -0.37441134
-5.2627769 -0.93406397 -0.37197596
-5.2153134 -0.89265996 -0.36821851
-5.1665578 -0.85171157 -0.36439148
-5.1460705 -0.81592929 -0.36258236
-5.1273108 -0.7807312 -0.36091238
-5.0935082 -0.74363065 -0.35819864
-5.0584569 -0.70683634 -0.35541537
-5.0439115 -0.67327476 -0.35409328
-5.0291462 -0.63991845 -0.35277122
-5.0052481 -0.60568893 -0.35082293
-4.9662552 -0.5700686 -0.34783089
-4.9349489 -0.5358122 -0.34539551
-4.9371514 -0.50542009 -0.34532592
-4.9451241 -0.475595 -0.34567383
-4.9320526 -0.44381076 -0.3445605
-4.8810029 -0.40903428 -0.34080306
-4.8864045 -0.3793093 -0.34101182
-4.8766994 -0.34846497 -0.34017682
-4.850873 -0.31671205 -0.33822852
-4.8497376 -0.28676465 -0.33801976
-4.8414445 -0.25647277 -0.33732393
-4.8449197 -0.22685497 -0.33746311
-4.84024 -0.19687878 -0.33704561
-4.8583059 -0.16776344 -0.33822852
-4.8761954 -0.13843377 -0.33941141
-4.8689747 -0.10833282 -0.33885476
-4.935379 -0.079524666 -0.34344721
-4.9327812 -0.049210012 -0.34323844
-4.9369807 -0.01895795 -0.34351677
-4.9559579 0.011376192 -0.34483886
-4.9647727 0.04185969 -0.34546509
-4.9554448 0.072192565 -0.34483886
-4.9977956 0.10347968 -0.34783089
-5.0299749 0.13502277 -0.3501271
-5.0370283 0.16614565 -0.35068375
-5.0727963 0.19848759 -0.35325831
-5.1362596 0.23253442 -0.35778117
-5.1586461 0.26527211 -0.35945114
-5.2395835 0.30166906 -0.36522648
-5.2446027 0.33425617 -0.36571357
-5.2882309 0.36962417 -0.36891434
-5.3256516 0.40508679 -0.37169763
-5.3558755 0.44045094 -0.37399384
-5.3510847 0.4731302 -0.3738547
-5.3460946 0.50576729 -0.37371552
-5.559268 0.56034529 -0.38888448
-5.5438223 0.59317356 -0.38804948
-5.5361128 0.62673026 -0.38777116
-5.5707951 0.66529649 -0.39048487
-5.6616292 0.71139443 -0.39716479
-5.7115541 0.75328821 -0.4009918
-5.7552466 0.79500276 -0.40440133
-5.8065391 0.83842129 -0.40836754
-5.8328524 0.87878615 -0.41059417
-5.8588872 0.91950524 -0.41282082
-5.9072857 0.96427077 -0.41664785
-5.9406004 1.0071647 -0.41943115
-6.0129104 1.0574106 -0.42499772
-6.0543995 1.1030415 -0.42840725
-6.1171203 1.153285 -0.43334761
-6.1618252 1.200906 -0.43703547
-6.1993279 1.2477415 -0.44023627
-6.2247648 1.2926493 -0.44260207
-6.2957315 1.3477259 -0.44823822
-6.3604083 1.4024332 -0.45345691
-6.4363222 1.4606323 -0.45951056
-6.4806705 1.5125628 -0.4633376
-6.5294728 1.5662549 -0.46751255
-6.6282263 1.6330068 -0.47530577
-6.688684 1.6914936 -0.48038527
-6.7283921 1.7455243 -0.48400357
-6.7966099 1.8077956 -0.48970932
-6.8797131 1.875165 -0.49652839
-6.9583988 1.9425486 -0.50306916
-6.9962268 1.9994581 -0.5066874
-7.1188345 2.0818169 -0.51649851
-7.1623168 2.1423197 -0.5206039
-7.2196321 2.2078083 -0.52575296
-7.3154507 2.2862775 -0.53375494
-7.3668575 2.3520513 -0.53855616
-7.552413 2.4624417 -0.55323803
-7.5305357 2.506531 -0.55275095
-7.5924706 2.5789938 -0.55845672
-9.0630007 3.1405227 -0.6681881
-9.0548468 3.2000611 -0.6690231
-8.9928074 3.2403457 -0.66589189
-8.9072046 3.2713933 -0.66102111
-8.8271685 3.303611 -0.65656781
-8.8328314 3.3676605 -0.65851611
-8.7441149 3.3954387 -0.6534366
-8.6962128 3.4383922 -0.65141875
-8.5740776 3.4510925 -0.64383423
-8.4733496 3.4711208 -0.63785017
-8.4224262 3.5107672 -0.63562351
-8.4126654 3.5674422 -0.63652813
-8.3695488 3.6099086 -0.63492769
-8.3225746 3.6503782 -0.63304901
-8.2927303 3.6981261 -0.6324923
-8.2498941 3.7398796 -0.63096154
-8.2249784 3.7895949 -0.63082236
-8.2286758 3.852679 -0.63290983
-8.202179 3.9018114 -0.6327011
-8.1619158 3.9442537 -0.63144857
-8.1232319 3.9872279 -0.63033527
-8.0646849 4.0200872 -0.62769115
-7.9820113 4.040216 -0.62316829
-7.9508595 4.0859256 -0.6226812
-7.9070649 4.1249456 -0.62121999
-7.8110743 4.1360445 -0.6156534
-7.7609439 4.1706738 -0.6137051
-7.6940422 4.1957712 -0.61043471
-7.678627 4.2486973 -0.61126971
-7.6376243 4.2874317 -0.6100868
-7.5513568 4.300158 -0.60528564
-7.4980493 4.330945 -0.60312855
-7.46703 4.3743501 -0.60278064
-7.4211802 4.4088764 -0.60124987
-7.4204788 4.4702849 -0.60340691
-7.3971663 4.5183315 -0.60375482
-7.3370733 4.5436788 -0.6011107
-7.2938471 4.5790668 -0.59985822
-7.2521467 4.6151662 -0.59874487
-7.2144709 4.6536298 -0.59797949
-7.1632347 4.6830726 -0.59610075
-7.1169009 4.7153678 -0.59463954
-7.0853491 4.7572799 -0.5944308
-7.0609746 4.8040314 -0.59484828
-7.0067239 4.8302817 -0.5927608
-6.9744997 4.8714705 -0.59255207
-6.9420352 4.9124446 -0.59234333
-6.9150057 4.9572725 -0.59262162
-6.8788075 4.9955058 -0.59213454
-6.8657055 5.0506229 -0.59366536
-6.8409858 5.0974231 -0.59422201
-6.8087835 5.1387014 -0.59415245
-6.7929773 5.1924977 -0.5955441
-6.7680883 5.2395763 -0.59617031
-6.7538691 5.2951612 -0.59777075
-6.7423468 5.3532495 -0.59964943
-6.7568002 5.4326453 -0.603894
-6.7782679 5.5187173 -0.60883433
-6.8335705 5.6338091 -0.61690587
