# .PCD v0.7 - Point Cloud Data file format
VERSION 0.7
FIELDS x y z
SIZE 4 4 4
TYPE F F F
COUNT 1 1 1
WIDTH 1456
HEIGHT 1
VIEWPOINT 0 0 0 1 0 0 0
POINTS 1456
DATA ascii
-20.849562 -0.12986162 -0.29096958
-20.904961 -0.0019331692 -0.2917375
-20.904579 0.1263373 -0.2917375
-20.810427 0.25346947 -0.29043901
-19.026953 0.34850326 -0.26555839
-18.928495 0.46289599 -0.26421803
-18.734406 0.57318759 -0.26155126
-18.572659 0.68232691 -0.25934523
-18.347345 0.78680336 -0.25625959
-18.347166 0.8996107 -0.25632939
-18.357277 1.0130515 -0.25655279
-18.384647 1.1277525 -0.25702751
-18.398331 1.2419519 -0.2573207
-18.4133 1.3565084 -0.25764185
-18.450478 1.4731262 -0.25828409
-16.772421 1.4427484 -0.23489745
-16.601954 1.5307603 -0.23263557
-16.367355 1.6104678 -0.22948013
-16.279596 1.7027513 -0.22839108
-16.010448 1.7739753 -0.2247609
-15.890019 1.8593953 -0.22322507
-15.829683 1.9508659 -0.22254092
-15.820391 2.0483434 -0.2225828
-15.834277 2.1490083 -0.22295979
-15.839602 2.2487957 -0.22322507
-15.860123 2.3510756 -0.22371374
-15.88295 2.45415 -0.22424431
-15.902145 2.5571163 -0.22473298
-15.916728 2.6597512 -0.22516581
-16.174978 2.8050358 -0.22906126
-16.163368 2.905292 -0.22914504
-16.362484 3.0448442 -0.23223068
-16.089186 3.096242 -0.22861446
-12.595244 2.5040514 -0.17914647
-12.516955 2.568423 -0.17825289
-12.397268 2.623234 -0.17677289
-12.150377 2.6489828 -0.17347781
-12.066577 2.7083752 -0.17251442
-11.965945 2.7630148 -0.17131369
-11.854399 2.8139818 -0.16995935
-11.779595 2.8726876 -0.16913559
-11.67057 2.9220812 -0.16782314
-11.603031 2.9809453 -0.16711107
-11.567117 3.0474987 -0.16685975
-11.544339 3.117373 -0.1668039
-11.543304 3.1932144 -0.16706918
-11.540811 3.2688882 -0.1673205
-11.548387 3.3477137 -0.1677254
-11.547759 3.4244804 -0.16801861
-11.554278 3.5036871 -0.1684235
-11.543069 3.5777731 -0.16857709
-11.518992 3.647929 -0.16854917
-11.673347 3.7757797 -0.17114614
-12.003159 3.963984 -0.17634007
-11.965345 4.0330882 -0.1761446
-11.990487 4.1236658 -0.17688459
-11.898911 4.1739907 -0.17590724
-11.601931 4.1499295 -0.17188613
-11.800764 4.3029089 -0.1752231
-11.836938 4.3985729 -0.17615856
-11.859286 4.4898849 -0.17689855
-11.881892 4.581996 -0.17765251
-10.209928 4.0093403 -0.1529953
-10.018942 4.0054665 -0.15049607
-9.9543524 4.0506597 -0.1498957
-9.8831186 4.0925336 -0.14919759
-9.7831841 4.1216512 -0.14806665
-9.6703997 4.1441836 -0.14674024
-9.5824585 4.1762757 -0.14579082
-9.5045471 4.2119017 -0.14499497
-9.4092388 4.2389255 -0.14393385
-9.3375959 4.275764 -0.14323574
-9.2595119 4.3089304 -0.14243989
-9.1840858 4.3425832 -0.14168593
-9.1257219 4.3836994 -0.14119726
-9.0698957 4.4255795 -0.14075047
-9.0649691 4.4922481 -0.14109953
-9.0113325 4.53475 -0.14069462
-8.9851189 4.590867 -0.14072254
-8.9035244 4.6182866 -0.13988481
-8.9024477 4.6872725 -0.14031763
-8.9070301 4.7597175 -0.1408482
-8.9277582 4.8414512 -0.14164405
-8.9180326 4.907227 -0.14196518
-8.9401379 4.9911008 -0.14280291
-9.0389805 5.1192861 -0.14488328
-9.0687828 5.2841921 -0.14639118
-9.0973072 5.3758559 -0.1473825
-9.0907383 5.4475083 -0.14781533
-9.1673746 5.5701671 -0.14961645
-9.1892109 5.6609268 -0.15053795
-9.2306309 5.7648759 -0.15179455
-9.2449293 5.8529634 -0.15261832
-9.2736387 5.9511628 -0.15369341
-9.3123846 6.0570211 -0.15495001
-9.337656 6.1553221 -0.15599717
-9.368722 6.2586031 -0.15715604
-9.4410963 6.3910828 -0.15902697
-9.4363346 6.4726472 -0.15961337
-9.506465 6.6068945 -0.1614843
-9.5376921 6.7157607 -0.16271298
-9.506073 6.7811246 -0.16288052
-6.0621176 4.3806639 -0.10426729
-6.0351238 4.4177775 -0.10426729
-5.9717603 4.4279246 -0.10363899
-5.902904 4.4332576 -0.10291295
-5.6861887 4.3253117 -0.099589959
-5.5272646 4.2582068 -0.097258277
-5.4560986 4.2569804 -0.096462429
-5.4181075 4.2810793 -0.096253
-5.381588 4.3061218 -0.096071489
-5.3232136 4.3132515 -0.095499039
-5.1358662 4.2139053 -0.092594907
-5.0553088 4.1999698 -0.091603592
-4.9682317 4.1794133 -0.090486616
-4.8755097 4.152761 -0.089257948
-4.8287358 4.1643128 -0.088867001
-4.8038464 4.194521 -0.088880964
-4.7180896 4.1709342 -0.087763995
-4.6819777 4.1904693 -0.087568521
-4.6072755 4.1748037 -0.086647019
-4.4857888 4.1151195 -0.084831931
-4.3871903 4.0745187 -0.083435714
-4.3271418 4.0684834 -0.082765535
-4.2977509 4.0908213 -0.08268176
-4.2617693 4.1067071 -0.082472324
-4.1541834 4.0524807 -0.080866672
-4.123548 4.0722728 -0.08075498
-4.0949483 4.0939631 -0.080685169
-4.0711565 4.1204348 -0.080713093
-4.0360203 4.1353188 -0.08051762
-4.000855 4.1499271 -0.080322146
-3.9773846 4.1765704 -0.080364034
-3.9640143 4.2140064 -0.080615357
-3.9271934 4.2265296 -0.080391958
-3.917412 4.2682271 -0.080727056
-3.9643486 4.3729334 -0.082248934
-3.9561176 4.4180341 -0.082639873
-3.9560938 4.4729347 -0.083212323
-3.9331787 4.5023961 -0.083310053
-3.9309518 4.5559707 -0.083854578
-3.9081111 4.5860934 -0.083966278
-3.8876238 4.6191673 -0.084133826
-3.8572907 4.6406279 -0.084091939
-3.8135183 4.645659 -0.083756849
-3.793756 4.6798453 -0.083952315
-3.7705934 4.7100611 -0.084077977
-3.7540233 4.7487965 -0.084357217
-3.7315822 4.7804122 -0.084510803
-3.7027903 4.8040104 -0.084524766
-3.6350961 4.7765102 -0.08364515
-3.5967102 4.7867336 -0.083435714
-3.5547616 4.7918477 -0.083142512
-3.5182035 4.8038888 -0.082974963
-3.4751878 4.8067479 -0.082653835
-3.4380777 4.8174 -0.082472324
-3.3998168 4.8261433 -0.082262896
-3.3667154 4.8419876 -0.082179122
-3.3295875 4.8518357 -0.081997611
-3.3092859 4.8862491 -0.082234971
-3.2525742 4.8665581 -0.081564784
-3.214395 4.8739028 -0.081355348
-3.174613 4.8784485 -0.081104033
-3.1251726 4.8675442 -0.080601394
-3.0850821 4.8705783 -0.080336109
-3.0365949 4.8597369 -0.079847433
-3.0004234 4.8680625 -0.079679891
-2.9517996 4.8556213 -0.079177253
-2.8926454 4.8247585 -0.078381404
-2.8441594 4.8105698 -0.077864803
-2.8166032 4.8313856 -0.077920653
-2.8083298 4.8858547 -0.078521028
-2.785692 4.9160438 -0.078730464
-2.764739 4.9496303 -0.078995742
-2.756016 5.005919 -0.079624042
-2.7247717 5.0218563 -0.07961008
-2.6934354 5.0375991 -0.079596117
-2.6568825 5.0434146 -0.079428568
-2.6300318 5.0676098 -0.07955423
-2.611176 5.1076908 -0.079931207
-2.5689952 5.1021819 -0.079596117
-2.5256486 5.0936608 -0.07921914
-2.491715 5.1036711 -0.079135366
-2.4495242 5.096333 -0.078786306
-2.4344559 5.1456141 -0.079316869
-2.4024153 5.1595483 -0.079302907
-2.3644645 5.1605563 -0.079093479
-2.3216617 5.1503549 -0.078716502
-2.3191962 5.2303171 -0.079721779
-2.2606823 5.1839566 -0.078800268
-2.2453806 5.2363281 -0.079386681
-2.2201998 5.266592 -0.079638004
-2.1855466 5.2745728 -0.07955423
-2.1520102 5.2851057 -0.079512343
-2.1121137 5.2796431 -0.079233103
-2.0895512 5.3176308 -0.07961008
-2.07704 5.3825927 -0.080391958
-2.0375981 5.3784046 -0.080140643
-2.0097854 5.4048643 -0.080350071
-1.9882361 5.4490318 -0.080824785
-1.9716105 5.5082002 -0.081522897
-1.9553268 5.5701985 -0.082262896
-1.9259923 5.5962734 -0.082472324
-1.9021631 5.6392522 -0.082933076
-1.8734863 5.6688561 -0.083198361
-1.8272753 5.6450462 -0.08268176
-1.7989466 5.6761689 -0.082974963
-1.7590492 5.6708651 -0.08273761
-1.7285752 5.6959033 -0.082947038
-1.7078162 5.7543321 -0.08364515
-1.6708047 5.7589407 -0.083561376
-1.627257 5.7402239 -0.083142512
-1.5882702 5.7366095 -0.082947038
-1.5454766 5.7182536 -0.082542136
-1.5022035 5.6966896 -0.082095347
-1.4657271 5.6999893 -0.082011573
-1.4333984 5.7195444 -0.082165159
-1.401359 5.74086 -0.082346663
-1.3681874 5.7581058 -0.082472324
-1.3323803 5.7644444 -0.0824444
-1.3015876 5.7929983 -0.08273761
-1.2807267 5.8682828 -0.083701
-1.2444882 5.8750529 -0.083687037
-1.21425 5.9109826 -0.084091939
-1.1916186 5.9869685 -0.085069291
-1.1561847 6.0010405 -0.085167028
-1.1173271 5.9972091 -0.085013442
-1.085997 6.0344591 -0.085446268
-1.0530545 6.0646524 -0.085781366
-1.020112 6.0966411 -0.08614438
-0.98411489 6.1116705 -0.086270042
-0.95469761 6.1699657 -0.087010033
-0.91858292 6.1875763 -0.087177582
-0.89396834 6.2871413 -0.088503987
-0.86156815 6.3380852 -0.089146249
-0.82407641 6.3541598 -0.089299835
-0.78874689 6.3888674 -0.089718699
-0.75092733 6.4055042 -0.089886241
-0.71205097 6.4139667 -0.08994209
-0.67299473 6.4211988 -0.089983977
-0.64152759 6.5058088 -0.091114916
-0.60444802 6.5404882 -0.091547742
-0.57091701 6.6207819 -0.092622831
-0.53458875 6.6779823 -0.093376786
-0.49883175 6.7519374 -0.0943681
-0.46137685 6.8137307 -0.095191874
-0.41980547 6.820425 -0.095247723
-0.38552043 6.95965 -0.097160541
-0.34369415 6.9798613 -0.097411856
-0.30288181 7.028791 -0.098068081
-0.26170319 7.0834751 -0.09880808
-0.21940351 7.1229262 -0.099338643
-0.17547235 7.1151419 -0.099212982
-0.1315895 7.1040878 -0.099045433
-0.086020827 6.9447894 -0.096811488
-0.043083489 6.8931923 -0.096085452
-0.00078488182 6.8693295 -0.095750362
0.041219264 6.8452077 -0.095415264
0.084231541 6.9278116 -0.096574128
0.12682983 6.9321632 -0.09664394
0.16963142 6.9422503 -0.096797526
0.21127677 6.9100962 -0.096364692
0.26028228 7.0885305 -0.098877884
0.31054246 7.2446399 -0.10108391
0.34602535 7.0598354 -0.098528832
0.38647154 7.0056634 -0.097802803
0.43643075 7.1169353 -0.099394485
0.48265079 7.1520333 -0.099925049
0.52895039 7.1818442 -0.1003858
0.57491767 7.2023849 -0.1007209
0.62295669 7.2435517 -0.1013492
0.67547059 7.3272133 -0.10257787
0.72815299 7.4015427 -0.10368088
0.8022666 7.6714115 -0.10753444
0.85383779 7.7070909 -0.10810689
0.90680659 7.75037 -0.10879104
0.95495641 7.7496214 -0.10886085
1.006855 7.7773318 -0.10933556
1.0589949 7.8037047 -0.10979632
1.1235847 7.914866 -0.11145781
1.1671426 7.8741937 -0.1109831
1.215894 7.8698492 -0.11102498
1.2786068 7.9520774 -0.11229555
1.3474834 8.0644016 -0.11399893
1.4114639 8.1397238 -0.11518572
1.4693424 8.1751957 -0.11581402
1.5293556 8.2191086 -0.11656797
1.588073 8.2527733 -0.11718231
1.6341963 8.2203169 -0.11686118
1.6852075 8.2130737 -0.11690307
1.7424016 8.2348614 -0.11736382
1.8014175 8.263092 -0.1179223
1.8459529 8.2245665 -0.11753136
1.9004328 8.2306213 -0.11778268
1.9488206 8.2100496 -0.11765702
2.0152705 8.2639952 -0.11860645
2.0659394 8.2514734 -0.11860645
2.1053336 8.1950617 -0.11797815
2.1601636 8.1993942 -0.11822947
2.2073052 8.1744013 -0.11806192
2.2584872 8.1645584 -0.11811777
2.3041813 8.1351538 -0.11789438
2.3301105 8.0382719 -0.11669363
2.3731339 8.0027332 -0.11638647
2.4555638 8.0980616 -0.11799211
2.8616431 9.232749 -0.13480258
2.9478261 9.3084335 -0.13617088
3.0156574 9.3234682 -0.13665955
3.0928769 9.3655558 -0.13755313
3.1748781 9.4193602 -0.13862821
1.8801024 5.4671941 -0.080559507
1.9202331 5.4744258 -0.080838747
1.9558079 5.4681892 -0.080922522
1.9961743 5.4748735 -0.081201769
2.0387859 5.4868917 -0.081564784
2.0363011 5.3788958 -0.080140643
2.0638704 5.3523064 -0.079931207
2.0944796 5.3339577 -0.079847433
2.1279111 5.3228626 -0.079875357
2.1688232 5.330081 -0.08018253
14.351163 34.655373 -0.52359349
14.428041 34.245075 -0.51872069
14.644982 34.172443 -0.51897198
14.890342 34.16444 -0.52022856
15.03406 33.924339 -0.51796669
15.27438 33.903473 -0.51906973
15.47296 33.789112 -0.51876253
15.672824 33.678123 -0.51852518
12.992676 27.477041 -0.42423859
13.107771 27.285942 -0.42252123
13.205665 27.063019 -0.42031521
13.327071 26.891891 -0.418919
13.476093 26.778351 -0.41843033
13.604206 26.624817 -0.41732731
13.725418 26.46007 -0.41605675
13.856303 26.316076 -0.41512129
13.959077 26.121208 -0.41338998
14.107173 26.01309 -0.41304091
14.212048 25.827049 -0.4114632
14.339544 25.684359 -0.41058359
14.522001 25.640261 -0.41129565
14.586904 25.390278 -0.40871263
14.662377 25.162931 -0.40649265
14.794115 25.034615 -0.40587831
14.904785 24.872181 -0.40471944
14.990136 24.670025 -0.40291834
15.140702 24.576733 -0.40290436
2.6953654 4.3160019 -0.070883714
2.7292852 4.3112092 -0.071079187
2.7475863 4.2817588 -0.070869751
2.7596316 4.2430263 -0.070506737
2.7459903 4.165906 -0.06950146
2.7537258 4.1223731 -0.069054671
2.7784078 4.1045709 -0.069040708
2.8074996 4.0932174 -0.069138445
2.8422637 4.0898719 -0.069375798
2.8552158 4.0551867 -0.069082595
16.878176 23.659985 -0.40565491
17.052317 23.596497 -0.40635303
17.297779 23.629387 -0.40874055
16.121454 21.741356 -0.37777245
17.886692 23.815092 -0.41572165
18.123896 23.82506 -0.41782993
18.252045 23.690435 -0.41742504
18.499786 23.709646 -0.41975671
18.752167 23.731411 -0.42217219
18.888056 23.604193 -0.42196274
19.179207 23.668863 -0.42521593
19.315832 23.540686 -0.42503443
19.952789 23.717354 -0.43261591
20.336548 23.874594 -0.43775398
21.654224 25.107758 -0.46280211
21.852596 25.025633 -0.46375155
22.022959 24.910553 -0.46411458
22.983644 25.677942 -0.48103672
24.997952 27.585855 -0.51965612
25.259352 27.532896 -0.52156895
25.461159 27.413286 -0.5222531
25.61998 27.247074 -0.5220716
25.793577 27.096601 -0.52221119
25.917028 26.893906 -0.5213595
26.238665 26.895414 -0.52450103
26.69268 27.027014 -0.53025341
26.819128 26.823833 -0.52948552
27.27593 26.294409 -0.52885723
27.520029 26.205845 -0.53046286
27.810678 26.159121 -0.53296208
29.296768 24.047537 -0.52908057
29.415806 23.844656 -0.52857798
29.549072 23.653717 -0.52835459
29.707769 23.483122 -0.52860588
29.707846 23.188425 -0.52606475
29.989748 23.113743 -0.52853608
29.879562 22.737951 -0.52412403
21.549566 16.191181 -0.37620869
21.574625 16.003845 -0.37492415
21.712751 15.900703 -0.37562227
27.180777 19.649906 -0.46816361
26.245193 18.729429 -0.45005465
26.52478 18.441912 -0.45093426
26.503874 18.18716 -0.44867241
26.886526 18.208094 -0.45325199
27.294533 18.241121 -0.45823649
27.531155 18.155872 -0.46033081
27.652935 17.993694 -0.46051234
23.7938 15.275613 -0.39465272
23.903976 15.140031 -0.39493197
23.909929 14.939033 -0.39350784
24.00625 14.795189 -0.39359158
23.519838 14.297032 -0.38416713
28.951702 17.356461 -0.47117943
24.283123 14.355895 -0.39373121
23.835165 13.89442 -0.38507468
27.076431 15.562036 -0.43591097
27.054832 15.329554 -0.43404004
27.165844 15.173011 -0.43431929
27.236534 14.993984 -0.43397021
27.896662 15.135087 -0.44300374
26.890285 14.376239 -0.42560688
26.940834 14.191401 -0.42502046
30.073357 15.606491 -0.47293866
30.219299 15.447613 -0.47373453
30.267073 15.238517 -0.47300848
30.355526 15.050295 -0.47293866
30.632402 14.954115 -0.47581488
30.714571 14.761545 -0.47567526
30.796432 14.568958 -0.47554961
30.89703 14.385207 -0.4757311
31.030167 14.216178 -0.47642922
31.086729 14.011954 -0.47596845
31.177605 13.823378 -0.47605222
31.368158 13.678176 -0.47767186
10.983705 4.7096367 -0.16670616
10.919334 4.6029272 -0.16529599
10.909497 4.5201492 -0.16472353
10.930545 4.4504852 -0.16462579
10.975286 4.3903885 -0.16489108
11.027146 4.3328357 -0.16526806
11.144946 4.3003664 -0.16663635
31.251608 11.838464 -0.46647418
31.378017 11.666696 -0.46728399
30.632727 11.176135 -0.45515084
30.858887 11.04457 -0.45749649
30.688318 10.771565 -0.45397803
31.169846 10.72622 -0.46012139
31.227497 10.532207 -0.46000969
30.422823 10.053338 -0.4472343
30.786453 9.9643888 -0.45167428
30.88133 9.7861738 -0.4521769
28.910351 8.7726746 -0.42169747
30.832878 9.1498127 -0.44892371
30.341063 8.8016672 -0.44096527
30.234802 8.5700693 -0.43864757
30.732494 8.3050833 -0.44435808
30.187288 7.9593253 -0.43575737
30.038971 7.7234058 -0.43292305
30.01499 7.521203 -0.43190381
30.03826 6.9420104 -0.4303261
30.313454 6.8099475 -0.43366307
10.510585 2.2937081 -0.15004928
10.497072 2.2233722 -0.14965834
10.37927 2.1319654 -0.14778741
10.106779 2.0114503 -0.14372441
9.9706707 1.9208395 -0.14161612
9.8495655 1.8349057 -0.13973123
9.7838793 1.7606241 -0.13864218
9.6230783 1.6707997 -0.13621277
9.5325565 1.5948944 -0.13478862
9.3832254 1.5107871 -0.1325407
9.2510138 1.4313248 -0.13054411
9.1913757 1.3644056 -0.12958072
9.0599918 1.2881405 -0.12761205
8.9082079 1.2108468 -0.12536414
8.7835855 1.1390648 -0.12350717
8.7268982 1.0773096 -0.12261359
8.6439638 1.0132672 -0.121357
8.4989614 0.94344521 -0.11923475
8.4140949 0.88179719 -0.11796419
8.3258095 0.82093239 -0.11665174
8.3157549 0.76845098 -0.11644231
8.1858253 0.70581949 -0.11455742
8.0793657 0.64672601 -0.11300761
7.9705 0.58881855 -0.11142989
7.9580011 0.5388211 -0.11120649
7.8643494 0.4840261 -0.10985216
7.7094288 0.42702934 -0.10764614
7.6959248 0.37893084 -0.10742274
7.6601443 0.33006778 -0.10689218
7.6000729 0.28077292 -0.10602652
7.5436859 0.23235075 -0.10521672
7.4789958 0.18443425 -0.10429522
7.4469957 0.13793045 -0.10383447
7.4307051 0.092023969 -0.1035971
7.4291296 0.046415851 -0.10356918
7.4008617 -0.014090989 -0.24640042
7.3936405 -0.059445929 -0.24616711
7.4051285 -0.10498028 -0.24656707
7.4053435 -0.15043554 -0.24660039
7.4112759 -0.19605544 -0.2468337
7.4219203 -0.24191613 -0.24723366
7.4442649 -0.28837803 -0.24803357
7.4553351 -0.33463123 -0.24846685
7.477097 -0.38159049 -0.24926676
7.4965668 -0.42871541 -0.25
7.5137444 -0.47596735 -0.25066662
7.5366054 -0.52386153 -0.25153318
7.5611539 -0.57220477 -0.25246641
7.5993371 -0.6220091 -0.25386626
7.6282325 -0.67151546 -0.25496614
7.6717315 -0.72280473 -0.25656596
7.6920128 -0.77235824 -0.2573992
7.7984366 -0.83139831 -0.26113212
7.8219905 -0.88247997 -0.26209867
7.8442168 -0.93376374 -0.2630319
7.8661075 -0.98535341 -0.26396513
7.9183774 -1.0412837 -0.26593158
8.0118399 -1.1036172 -0.26929787
10.357357 -1.4913286 -0.34855568
10.317372 -1.5502504 -0.34752247
10.214848 -1.5990039 -0.3443895
10.17525 -1.6568341 -0.3433896
10.081129 -1.7050751 -0.34055659
9.9799099 -1.7510154 -0.33749026
9.8863773 -1.7972078 -0.33469057
9.8172121 -1.8469371 -0.33272412
9.7419252 -1.8947411 -0.3305577
9.6184092 -1.9320499 -0.32675812
9.564291 -1.9823117 -0.32532495
9.5196934 -2.0340705 -0.32422507
9.4240656 -2.0741889 -0.32139206
9.3711958 -2.1229241 -0.32002553
9.2616282 -2.1579387 -0.31672591
9.2161369 -2.2070472 -0.31562603
9.1985397 -2.2626002 -0.31549272
9.1592884 -2.3126392 -0.31462613
9.1275101 -2.3642862 -0.31402621
9.1843138 -2.4392264 -0.31649259
10.086302 -2.7450781 -0.34818906
9.9729929 -2.7800832 -0.34485611
9.907692 -2.8275132 -0.34318963
9.8872786 -2.8874123 -0.34308964
10.319472 -3.0824399 -0.35875455
10.381615 -3.1705093 -0.36158755
9.9269085 -3.0983899 -0.34638926
10.235277 -3.263669 -0.35785466
10.207456 -3.3239348 -0.35758802
10.10151 -3.3581333 -0.35458836
10.075982 -3.4184465 -0.35442171
10.06804 -3.4847832 -0.35488832
12.743808 -4.4984941 -0.45027769
12.557219 -4.6067009 -0.44564486
12.551185 -4.6920624 -0.44644478
12.364309 -4.7088795 -0.44081205
12.329593 -4.7824888 -0.44061208
12.291649 -4.8547478 -0.44031212
12.257921 -4.9285855 -0.44017881
12.242249 -5.0097613 -0.44071206
12.217737 -5.0874734 -0.44094539
12.18169 -5.1603947 -0.44077873
12.136947 -5.229507 -0.44031212
12.068928 -5.2882376 -0.43901226
12.003386 -5.3475513 -0.43781239
11.941214 -5.4079094 -0.43674585
11.900543 -5.477735 -0.43647921
11.902017 -5.5671654 -0.43777907
11.820202 -5.7067194 -0.43731245
11.763426 -5.768579 -0.43651253
11.651764 -5.8027821 -0.43367952
11.553505 -5.842598 -0.43134645
11.514771 -5.9120097 -0.43124646
11.466757 -5.9765472 -0.43081319
11.420151 -6.0416527 -0.43044657
11.39079 -6.1158662 -0.43074653
11.355683 -6.187078 -0.43084651
11.278144 -6.2348809 -0.42934668
11.216139 -6.2907658 -0.42844677
11.183409 -6.3629279 -0.42868009
11.198692 -6.4628983 -0.43077984
11.134675 -6.517355 -0.42984661
11.115102 -6.5977964 -0.43064654
11.080404 -6.6694808 -0.43087983
11.011971 -6.7206836 -0.4298133
10.673018 -6.786572 -0.42138091
10.460922 -7.0180616 -0.4196811
10.327975 -7.3026748 -0.42141423
10.243246 -7.4329734 -0.42164755
10.21299 -7.6040697 -0.42421392
9.659709 -7.7607613 -0.41281518
9.5940752 -7.8053794 -0.41204861
9.5197744 -7.8424959 -0.4109154
9.4438438 -7.8777151 -0.40971553
9.3518047 -7.8987556 -0.40781575
9.2568274 -7.9163671 -0.40578264
9.153676 -7.9259157 -0.4033829
9.1026163 -7.9799557 -0.40328291
9.140193 -8.1126137 -0.40714917
9.0277948 -8.1124334 -0.40434948
8.9290524 -8.1232872 -0.40214971
8.8525743 -8.1535482 -0.40094984
8.7570562 -8.1654568 -0.3988834
8.6602726 -8.1751299 -0.3967503
8.6287355 -8.2460661 -0.39761689
8.6146116 -8.3342962 -0.3993167
8.5190392 -8.3436413 -0.39725026
8.56563 -8.4928608 -0.40184975
8.5338144 -8.5657902 -0.4028163
8.4292164 -8.56528 -0.40034992
8.3869524 -8.6275883 -0.40084985
9.552103 -16.459461 -0.63422382
7.6781673 -14.429193 -0.54466712
6.9046774 -13.994687 -0.52000326
6.8186779 -14.03679 -0.52000326
6.1163707 -12.994507 -0.4785412
6.0667715 -13.097086 -0.48094091
5.9887824 -13.139521 -0.48114091
5.9129543 -13.186963 -0.48154086
5.8202324 -13.196478 -0.48057431
5.7431278 -13.24111 -0.48090759
5.0024548 -11.93264 -0.4310798
4.9276204 -11.959414 -0.4309465
4.8687754 -12.025553 -0.43224636
4.8059793 -12.083061 -0.43324625
5.2927914 -13.797426 -0.49240631
5.2055664 -13.823095 -0.49217302
5.1338191 -13.890399 -0.49343953
5.0225945 -13.850232 -0.49090648
2.5816026 -9.6283579 -0.33202419
2.5323415 -9.6817265 -0.33332404
2.474864 -9.7048302 -0.33359069
2.4167163 -9.7256527 -0.33379066
2.3511169 -9.716013 -0.33295742
2.2719777 -9.6475668 -0.33012441
2.1502452 -9.3885489 -0.32079211
2.067836 -9.2903519 -0.31699255
1.9573543 -9.0557165 -0.30856016
1.8654288 -8.8944244 -0.30266079
1.7952799 -8.8293104 -0.30006111
1.4669178 -7.448699 -0.25276637
1.3223543 -6.9391899 -0.23516834
1.2755848 -6.9245667 -0.23440175
1.2017262 -6.7561302 -0.22843575
1.11781 -6.5161319 -0.22007002
1.0654165 -6.4479275 -0.21753697
1.0154722 -6.3891993 -0.21533722
0.96417618 -6.3162708 -0.21267085
0.92264998 -6.3032794 -0.21203758
0.87965405 -6.2781386 -0.21100436
0.836869 -6.251719 -0.20993781
0.79013604 -6.1913052 -0.20773806
0.74453795 -6.1335306 -0.20563829
0.69864887 -6.0664973 -0.20323856
0.64136642 -5.8868628 -0.19707258
0.59326899 -5.7743664 -0.19317302
0.55648077 -5.7639699 -0.19270641
0.51894206 -5.7433872 -0.1919065
0.48293608 -5.7374997 -0.19160652
0.44601011 -5.7184339 -0.19087328
0.41055548 -5.7160788 -0.19070663
0.37501541 -5.7115092 -0.19047332
0.33788157 -5.6787844 -0.18930678
0.30175039 -5.6567979 -0.18850687
0.26854652 -5.6904898 -0.18957342
0.23095374 -5.6271214 -0.187407
0.19656192 -5.6324272 -0.18754031
0.16401732 -5.7034597 -0.18987338
0.12842792 -5.67838 -0.18900682
0.093135923 -5.6520801 -0.18810692
0.058568604 -5.663538 -0.18847354
0.023514474 -5.5938306 -0.18614048
-0.010743718 -5.5578895 -0.18494061
-0.044742767 -5.5447268 -0.18450733
-0.078693323 -5.539351 -0.18434067
-0.1125796 -5.5337672 -0.18417403
-0.14595252 -5.5109925 -0.18344077
-0.17898525 -5.4860196 -0.18264087
-0.21221885 -5.4738321 -0.18227424
-0.24584639 -5.4734254 -0.18230757
-0.27917182 -5.4668231 -0.18214092
-0.31236848 -5.4590201 -0.18194094
-0.34604779 -5.4599934 -0.18204093
-0.37961242 -5.4587646 -0.18207426
-0.41249692 -5.448359 -0.18180762
-0.44600111 -5.4467216 -0.18184096
-0.48151454 -5.4677768 -0.18264087
-0.51205784 -5.4328785 -0.18157431
-0.54448587 -5.4206839 -0.18127435
-0.57815975 -5.421216 -0.18140766
-0.61118889 -5.4155803 -0.18134101
-0.64428866 -5.4107361 -0.18130767
-0.67648304 -5.398747 -0.18104105
-0.71037775 -5.4004397 -0.18124102
-0.74527287 -5.4088507 -0.1816743
-0.77844685 -5.4041762 -0.1816743
-0.81055254 -5.3923798 -0.18144099
-0.84393328 -5.3892794 -0.18150765
-0.88710088 -5.446147 -0.18360741
-0.91816854 -5.426805 -0.1831408
-0.94885963 -5.4063029 -0.18264087
-0.98290765 -5.4052954 -0.18280751
-1.0182722 -5.4109492 -0.18320747
-1.0485927 -5.3898835 -0.18270752
-1.0842026 -5.3960867 -0.1831408
-1.1150614 -5.3785672 -0.18277419
-1.1451199 -5.3579402 -0.18230757
-1.1784036 -5.3527651 -0.18237422
-1.2244704 -5.4039197 -0.184374
-1.2782373 -5.4848828 -0.187407
-1.3065159 -5.4545813 -0.18664041
-1.3158557 -5.3484383 -0.18327412
-1.3285909 -5.2608013 -0.1805411
-1.3881551 -5.3580112 -0.18417403
-1.4286995 -5.3783717 -0.18517391
-1.4800417 -5.4370112 -0.18750699
-1.5477188 -5.5510602 -0.19177318
-1.5759919 -5.521276 -0.19107325
-1.6109606 -5.5153399 -0.19120657
-1.6427697 -5.4986477 -0.19097327
-1.6878605 -5.5257435 -0.19227313
-1.5978826 -5.1183891 -0.178408
-1.6268297 -5.1008706 -0.17814137
-1.6853251 -5.1744232 -0.18107437
-1.8242215 -5.4864511 -0.19240645
-1.8610618 -5.4846191 -0.19273974
-1.9015436 -5.4929309 -0.19343966
-1.9501803 -5.5235705 -0.19493949
-1.9877582 -5.5218453 -0.19530612
-2.0198812 -5.5048532 -0.19513947
-2.0497711 -5.4820576 -0.19477284
-2.0965295 -5.5039358 -0.19600603
-2.1617022 -5.5720367 -0.19890571
-2.1613436 -5.4712868 -0.19577274
-2.1870456 -5.4384484 -0.19507281
-2.229079 -5.4462018 -0.19583939
-2.2705214 -5.451798 -0.19653931
-2.3054893 -5.4414449 -0.19667263
-2.35307 -5.4602404 -0.19787249
-2.404577 -5.4868941 -0.19937232
-2.4548724 -5.5094686 -0.20073885
-2.5137799 -5.549839 -0.20277195
-2.6242521 -5.7004571 -0.20887128
-2.6761165 -5.7204609 -0.21020445
-2.72189 -5.7265005 -0.2110377
-2.7839143 -5.7654953 -0.21310413
-2.8302383 -5.7707396 -0.21393737
-2.9662769 -5.9554582 -0.22146986
-3.0767241 -6.0834184 -0.22693592
-3.1285999 -6.0928774 -0.22800247
-3.1899445 -6.1196542 -0.22973561
-3.270895 -6.1821275 -0.23283526
-3.330512 -6.2024474 -0.23436843
-3.439748 -6.3126664 -0.23933454
-3.4436047 -6.2284627 -0.23693481
-3.4211378 -6.099122 -0.23280193
-3.4555318 -6.0728035 -0.23260196
-3.4872341 -6.0419641 -0.23223533
-3.5121253 -5.9997516 -0.23143542
-3.543262 -5.9686341 -0.23106879
-3.5885794 -5.9613385 -0.23163539
-3.5954146 -5.8905778 -0.22973561
-4.0432258 -6.5338998 -0.2558327
-4.1830778 -6.6681452 -0.26209867
-4.2335663 -6.6575341 -0.26269859
-4.2624254 -6.6129498 -0.26196533
-4.451035 -6.8134356 -0.27099767
-4.4911027 -6.7834959 -0.27089769
-4.531527 -6.7541518 -0.27083102
-4.5537815 -6.6981163 -0.26969782
-4.6095347 -6.6914496 -0.27056438
-4.0150657 -5.7524543 -0.23353519
-3.9204681 -5.5440912 -0.22603603
-3.9480107 -5.5109935 -0.2256694
-4.7212987 -6.5059328 -0.2676647
-4.8167677 -6.5525413 -0.2707977
-4.0451999 -5.43258 -0.22546941
-4.0838733 -5.4148388 -0.22576939
-4.1333995 -5.4111247 -0.22666928
-5.0268774 -6.4979744 -0.27356404
-5.0678859 -6.4685812 -0.27363071
-5.1186614 -6.4514575 -0.27423066
-5.1813097 -6.4487581 -0.27546385
-5.2397017 -6.440104 -0.27646372
-5.2842026 -6.4140043 -0.27673036
-5.3465047 -6.4090905 -0.27793023
-5.4386082 -6.438777 -0.28066325
-5.5085416 -6.4409866 -0.28222975
-5.5819764 -6.4463573 -0.28396291
-5.7050939 -6.5074348 -0.28819576
-5.8285046 -6.5664935 -0.29239529
-5.9027534 -6.568522 -0.2940951
-6.0162516 -6.6127653 -0.29772803
-6.0770254 -6.5977812 -0.2987279
-6.1194386 -6.5625625 -0.29882792
-6.1609626 -6.5263443 -0.29889455
-6.2319627 -6.5209351 -0.30039439
-6.3149405 -6.5271106 -0.30246082
-6.426198 -6.5610747 -0.30586046
-6.5866604 -6.64289 -0.31155983
-6.7363276 -6.7109857 -0.31669256
-6.8998961 -6.7901106 -0.32242528
-7.1736078 -6.9733729 -0.33322406
-7.4923506 -7.1943674 -0.34598932
-7.779985 -7.3793745 -0.35718805
-7.8608537 -7.364984 -0.35882121
-7.8926935 -7.3043923 -0.35822126
-7.9262996 -7.2457104 -0.35772133
-7.9557743 -7.1835423 -0.35705474
-7.9922428 -7.1279383 -0.35672143
-8.0313292 -7.074801 -0.35652146
-8.0082397 -6.9676538 -0.35358846
-8.0053635 -6.8792987 -0.3515887
-8.1114273 -6.8843784 -0.35438836
-8.2737637 -6.9352851 -0.35962111
-8.3177023 -6.8856626 -0.35968778
-8.3412256 -6.819313 -0.35888788
-8.3945751 -6.777422 -0.35938781
-8.4828892 -6.7631721 -0.36138758
-8.4873209 -6.6819348 -0.35982111
-8.5463085 -6.6438417 -0.36058769
-5.4372253 -4.1732903 -0.22816911
-5.4746771 -4.1489053 -0.22866906
-9.1440601 -6.8423095 -0.38045213
-9.2445517 -6.8294291 -0.38288519
-13.716872 -10.004232 -0.56576478
-11.155002 -8.0312223 -0.45797682
-11.1055 -7.8925653 -0.45394394
-11.195445 -7.853548 -0.45564374
-11.426658 -7.9115877 -0.46307623
-13.988415 -9.5590258 -0.56459826
-14.121379 -9.5233097 -0.56759793
-14.186203 -9.4409142 -0.56786454
-14.275609 -9.3745394 -0.56913108
-14.424285 -9.3460112 -0.57276404
-14.510832 -9.2761717 -0.57393056
-14.61228 -9.2152176 -0.575697
-14.706736 -9.1491432 -0.57719684
-14.775374 -9.0665731 -0.5776968
-14.88032 -9.0057583 -0.5796299
-14.930149 -8.911212 -0.57942992
-15.034501 -8.8488398 -0.58136308
-15.07987 -8.7514067 -0.58102977
-15.125477 -8.6542454 -0.58072978
-15.349781 -8.6580105 -0.58729571
-15.483852 -8.6088324 -0.59039539
-15.598612 -8.5477667 -0.59276175
-15.68858 -8.4723167 -0.59419495
-15.791442 -8.4031267 -0.59612805
-15.872801 -8.3218536 -0.59726131
-16.032785 -8.2807198 -0.6013608
-16.04677 -8.1636066 -0.5999943
-16.202892 -8.1182728 -0.60396051
-16.282873 -8.0337372 -0.60509372
-16.384001 -7.9590073 -0.60702688
-16.492035 -7.8867874 -0.60922658
-16.580809 -7.8046017 -0.61072642
-16.677355 -7.7254028 -0.61252624
-16.803562 -7.6589928 -0.61542594
-16.88763 -7.5725112 -0.61679244
-16.992302 -7.4945631 -0.61892551
-17.044384 -7.3929434 -0.61915886
-17.153778 -7.3156691 -0.62149191
-17.187283 -7.2056398 -0.62109196
-17.357769 -7.1522141 -0.62565809
-17.551401 -7.1063428 -0.6310575
-17.591888 -6.9974074 -0.63095754
-17.689415 -6.9107933 -0.63292396
-17.894783 -6.8647733 -0.63875663
-18.035709 -6.7921839 -0.64228958
-18.096733 -6.6886683 -0.64298952
-18.250181 -6.6183944 -0.64698905
-18.48819 -6.5766373 -0.6539883
-18.436659 -6.431139 -0.65075529
-18.639374 -6.3738432 -0.65652132
-18.65918 -6.2530017 -0.65585476
-18.682003 -6.1334052 -0.65532148
-18.745926 -6.0272255 -0.65625471
-18.811155 -5.921093 -0.65725458
-18.876741 -5.8146801 -0.65828782
-19.045078 -5.738831 -0.66292059
-19.231405 -5.6665006 -0.66818672
-19.248524 -5.5434127 -0.66758674
-19.334127 -5.4398212 -0.66938657
-19.405691 -5.3316793 -0.67071974
-19.368536 -5.1938672 -0.66832
-19.623394 -5.1333623 -0.67601919
-19.840464 -5.0602884 -0.68241847
-19.676182 -4.8899965 -0.6757192
-19.880667 -4.8114967 -0.68171853
-19.978886 -4.7056913 -0.68408495
-19.970364 -4.5745335 -0.68281841
-20.210728 -4.4992628 -0.69008428
-20.227209 -4.3728437 -0.68971765
-20.3906 -4.2773805 -0.6943838
-20.499708 -4.1691189 -0.69721681
-20.973448 -3.9981041 -0.7116152
-21.550951 -3.9713275 -0.73037976
-21.669971 -3.7189078 -0.73281282
-21.823538 -3.4701285 -0.73651242
-22.041491 -3.2279878 -0.74247843
-22.01436 -3.0861599 -0.7409119
-22.032885 -2.9510243 -0.7409119
-22.213165 -2.836544 -0.746378
-22.489101 -2.7316546 -0.755077
-22.389273 -2.5802219 -0.75117743
-22.519938 -2.4553647 -0.75504369
-22.61014 -2.3249104 -0.7575767
-22.660784 -2.1896911 -0.75880992
-22.725555 -2.0552886 -0.76054305
-22.829361 -1.9235312 -0.76360941
-22.900518 -1.7880862 -0.76560915
-23.04141 -1.514864 -0.76964206
-23.127127 -1.2356777 -0.77194178
-23.51264 -1.1116482 -0.78457373
-23.482071 -0.96583575 -0.78334051
-23.610409 -0.82603592 -0.78744006
-23.610777 -0.53605592 -0.78717345
-23.689569 -0.39243305 -0.78970647
-22.668156 -0.23636879 -0.75557697
-22.535255 -0.096696623 -0.75111079
-22.47146 0.041462738 -0.74897772
-20.834129 0.42205638 -0.69451708
-20.967028 0.5534668 -0.69904995
-20.921282 0.68074381 -0.69765007
-19.875967 0.89104605 -0.66308725
-19.8302 1.0109518 -0.66175407
-19.772734 1.1297027 -0.66005427
-19.485147 1.233274 -0.65068865
-19.506128 1.3548168 -0.6516552
-18.499847 1.3990693 -0.61829227
-18.491911 1.5126374 -0.61832559
-18.413586 1.6200316 -0.61602587
-16.623163 1.5654176 -0.55639917
-16.442198 1.6502258 -0.55066645
-16.228029 1.7293788 -0.54383391
-16.129717 1.8190668 -0.54090089
-15.845327 1.8855369 -0.53173524
-15.822551 1.981361 -0.53136861
-15.767485 2.0728092 -0.52993548
-15.796054 2.1752427 -0.53133529
-15.829894 2.2789583 -0.53293514
-15.88974 2.3871794 -0.53543484
-15.863932 2.4829323 -0.53506821
-15.899694 2.5885742 -0.53680134
-15.941654 2.6959143 -0.53876781
-15.993722 2.8057656 -0.54110086
-16.024387 2.9126041 -0.54273403
-16.057291 3.0204787 -0.54446715
-16.082603 3.1275311 -0.54596698
-12.390503 2.4886894 -0.4210476
-12.175353 2.523304 -0.41424835
-12.035512 2.571449 -0.41001549
-12.101499 2.6632895 -0.41281518
-11.866584 2.6880448 -0.40534934
-11.719432 2.7304246 -0.4008832
-11.628588 2.7845974 -0.39835012
-11.507436 2.8303604 -0.39478385
-11.478224 2.8979805 -0.39438391
-11.442811 2.9638453 -0.39378399
-11.440831 3.0383613 -0.39435059
-11.473084 3.122411 -0.39611706
-11.462376 3.1951642 -0.39641702
-11.510791 3.2849054 -0.39878342
-11.498095 3.3577135 -0.39905006
-11.499301 3.4347787 -0.39981663
-11.499994 3.5119855 -0.40058321
-11.482999 3.5839705 -0.40074986
-11.535067 3.6780396 -0.40334958
-11.614919 3.7821639 -0.40694916
-11.688232 3.885514 -0.4103488
-11.714334 3.9741738 -0.41211528
-11.695396 4.0479379 -0.41231525
-11.718404 4.1365876 -0.41401505
-11.774617 4.2378545 -0.41691473
-11.751207 4.3110547 -0.41701472
-11.846238 4.4285684 -0.42134756
-11.845928 4.5114861 -0.42231414
-10.034521 3.8923898 -0.35852125
-9.9676876 3.9370005 -0.35698807
-9.8710127 3.9690092 -0.35438836
-9.7447224 3.987869 -0.3507221
-9.6767044 4.0295315 -0.34915563
-9.6195869 4.0751877 -0.34798908
-9.4704866 4.0807514 -0.34348959
-9.4068203 4.1219392 -0.34208974
-9.327487 4.1555872 -0.3401233
-9.2471857 4.188005 -0.33812353
-9.1695642 4.2208486 -0.33622372
-9.0864573 4.2503576 -0.33412397
-9.0656223 4.3086047 -0.33432394
-8.9985123 4.3445973 -0.33282411
-8.9214315 4.3750892 -0.33095765
-8.8631058 4.414155 -0.32979113
-8.8322859 4.4666514 -0.32965779
-8.8411674 4.5394754 -0.33102432
-8.9265947 4.652761 -0.33529049
-8.9093628 4.713521 -0.33572379
-8.8855572 4.7709355 -0.33592376
-8.9026318 4.8507071 -0.33769023
-8.9050655 4.923131 -0.33892342
-8.9235058 5.005055 -0.34078988
-8.9768925 5.1076522 -0.34402287
-9.067441 5.2330704 -0.34872234
-9.0903664 5.3209171 -0.35085544
-9.1348982 5.4225049 -0.3538551
-9.2401781 5.5619435 -0.35925451
-9.2075825 5.6195769 -0.35932115
-9.2324228 5.7127767 -0.36165422
-9.2623911 5.8102088 -0.36422062
-9.2231922 5.8647871 -0.36408728
-9.2315588 5.9499636 -0.36585376
-9.2174692 6.0212522 -0.36675367
-9.1845169 6.0804543 -0.36692029
-9.3520451 6.2742171 -0.37515271
-5.9740443 4.0615993 -0.24050108
-5.8897471 4.0573611 -0.23810135
-5.8631015 4.0922794 -0.23803468
-5.7881002 4.0929828 -0.23600158
-5.7571898 4.1243467 -0.23576827
-5.6088157 4.0703793 -0.23070216
-5.5249457 4.0615096 -0.2282691
-5.4975157 4.0935431 -0.22816911
-5.4659109 4.1223841 -0.22790247
-5.4373364 4.1534181 -0.22776917
-5.3034425 4.1029301 -0.223203
-5.0169535 3.9307759 -0.21213757
-4.9512415 3.928565 -0.21037111
-4.9192514 3.9526122 -0.21003781
-4.8677697 3.9606471 -0.20887128
-4.8325763 3.9815445 -0.20840466
-4.8072877 4.0104818 -0.20837133
-4.7642632 4.0244265 -0.20757142
-4.7356825 4.0503359 -0.20740476
-4.5996675 3.9831524 -0.20250531
-4.4323416 3.886127 -0.19617268
-4.3837457 3.8913577 -0.19507281
-4.3523517 3.9115028 -0.19473951
-4.3120041 3.9233391 -0.19400626
-4.3172569 3.9768054 -0.19533944
-4.2803473 3.9916344 -0.19477284
-4.239058 4.0020442 -0.19400626
-4.2144217 4.0279794 -0.19400626
-4.1752605 4.039865 -0.19333966
-4.1382546 4.0535197 -0.19277306
-4.1054978 4.071095 -0.19240645
-4.0790296 4.0947933 -0.19233978
-4.0531268 4.1190324 -0.19230644
-3.9769182 4.0915127 -0.18987338
-3.9731989 4.1381845 -0.1909066
-3.9594259 4.1748118 -0.19147322
-3.9870389 4.2559137 -0.19407292
-3.9764647 4.2971673 -0.19483951
-3.9378839 4.3082085 -0.19423957
-3.9060163 4.3263559 -0.19397293
-3.8647606 4.3338323 -0.19323967
-3.8420603 4.3619637 -0.19343966
-3.8427784 4.4171228 -0.19483951
-3.8351462 4.4633574 -0.19583939
-3.8219163 4.5035686 -0.19657265
-3.7961373 4.529232 -0.19667263
-3.7580769 4.5401225 -0.19613935
-3.736475 4.5708332 -0.19647264
-3.6706858 4.5470181 -0.19447288
-3.6483247 4.5764885 -0.19477284
-3.613374 4.5901504 -0.19440621
-3.5550821 4.5735731 -0.19277306
-3.5379069 4.60957 -0.19337299
-3.5234423 4.6495109 -0.19413958
-3.4912543 4.6662416 -0.1939396
-3.4572117 4.6803412 -0.19363964
-3.4078147 4.6732044 -0.1924731
-3.3516283 4.6559062 -0.1909066
-3.3316827 4.6886039 -0.19140655
-3.2873528 4.6868672 -0.19050665
-3.2568259 4.7044849 -0.19040667
-3.2245152 4.719429 -0.19020668
-3.1982906 4.7432685 -0.19037333
-3.1370089 4.7145467 -0.18844022
-3.0751038 4.6835823 -0.18644044
-3.0348942 4.6847486 -0.18574052
-2.9888651 4.6763363 -0.18467396
-2.9595821 4.6937423 -0.18464063
-2.9386458 4.7245426 -0.18514058
-2.9080329 4.7399297 -0.18504059
-2.8856223 4.7687993 -0.18547387
-2.8286452 4.7400732 -0.18367408
-2.7984934 4.7556176 -0.18360741
-2.7878234 4.8046823 -0.18484062
-2.7587862 4.8225651 -0.18487394
-2.7492764 4.875092 -0.18624046
-2.7329111 4.9163275 -0.18717369
-2.7007723 4.9294982 -0.18704037
-2.6923218 4.9864287 -0.18857354
-2.677639 5.0328522 -0.18970674
-2.643923 5.0438766 -0.18950677
-2.6101725 5.0546761 -0.18930678
-2.556901 5.0269489 -0.18767363
-2.5107849 5.0121627 -0.18654042
-2.4742343 5.0158224 -0.18610714
-2.4438481 5.0318089 -0.18614048
-2.4129274 5.0467091 -0.18614048
-2.3925581 5.0840259 -0.18697371
-2.3642588 5.104959 -0.18720701
-2.3490582 5.1548367 -0.18850687
-2.3259726 5.1883044 -0.18920679
-2.3013544 5.2189384 -0.18980673
-2.2553675 5.2008696 -0.18864019
-2.2167473 5.1989822 -0.18807359
-2.1979446 5.2438235 -0.18920679
-2.1779132 5.2867813 -0.19027334
-2.1473086 5.304677 -0.19043998
-2.1161971 5.3214674 -0.1905733
-2.0736849 5.3092175 -0.18967341
-2.0514512 5.3489022 -0.19063997
-2.0266945 5.3829007 -0.19140655
-1.9991717 5.4102345 -0.19193983
-1.9911542 5.4919262 -0.19440621
-1.9671336 5.5313478 -0.19537278
-1.9308525 5.5367084 -0.19513947
-1.8945796 5.541832 -0.19490616
-1.8627632 5.5599856 -0.19513947
-1.8466961 5.6263857 -0.19707258
-1.8139741 5.6433196 -0.19727257
-1.7634076 5.6038175 -0.1955061
-1.7248704 5.60116 -0.19503948
-1.6991216 5.6403461 -0.19603936
-1.6492255 5.598897 -0.19423957
-1.6236922 5.6396437 -0.19530612
-1.5825602 5.6264105 -0.1945062
-1.5382092 5.6003571 -0.19327301
-1.4983802 5.5894179 -0.19257309
-1.4600085 5.5830364 -0.19203982
-1.4235009 5.5831738 -0.19173984
-1.3901807 5.5956826 -0.19187316
-1.3591118 5.6177068 -0.19233978
-1.3275958 5.6385875 -0.19277306
-1.2974368 5.666111 -0.19343966
-1.2735063 5.722743 -0.19510613
-1.2474505 5.7724547 -0.19653931
-1.2128289 5.7839131 -0.19667263
-1.1761214 5.7853694 -0.19647264
-1.172479 5.9542751 -0.20197204
-1.1301196 5.9309225 -0.20093882
-1.100953 5.9770608 -0.202272
-1.0649582 5.9876394 -0.20240532
-1.0270151 5.9871659 -0.20217201
-0.99188954 6.0032153 -0.20250531
-0.95644861 6.0180721 -0.20280528
-0.91799521 6.0139475 -0.20247199
-0.87296534 5.9640894 -0.20060553
-0.83205163 5.9386506 -0.19957231
-0.79440272 5.9347286 -0.19927233
-0.7678498 6.0168204 -0.20187205
-0.73067576 6.0194335 -0.20180538
-0.69532979 6.037704 -0.202272
-0.6633628 6.0885539 -0.2038385
-0.66065723 6.4295435 -0.21513724
-0.62619394 6.4852057 -0.21687038
-0.58999163 6.5287414 -0.21820356
-0.55495745 6.5919933 -0.22020334
-0.52282691 6.70189 -0.22376961
-0.48169506 6.7049718 -0.22376961
-0.44172576 6.7257528 -0.22436954
-0.39937845 6.7103782 -0.22376961
-0.35835689 6.7156963 -0.22386959
-0.31775737 6.7307472 -0.22430289
-0.27517819 6.7016139 -0.22326966
-0.23562644 6.7481232 -0.2247695
-0.19565846 6.7993932 -0.22643597
-0.15479757 6.8384352 -0.2277025
-0.11319961 6.8612413 -0.22843575
-0.071264885 6.8777966 -0.22896902
-0.029152837 6.8990927 -0.22966895
0.013176116 6.8971429 -0.22960229
0.055424415 6.8879375 -0.22930232
0.097588398 6.8804722 -0.22906901
0.14035004 6.906723 -0.22996892
0.18351653 6.9357052 -0.2309688
0.22876495 7.0173588 -0.23373516
0.27170253 7.0128269 -0.23363517
0.31606916 7.0409813 -0.23463506
0.3598761 7.0508871 -0.23503502
0.40398741 7.0635133 -0.23553497
0.44833025 7.0768609 -0.23606823
0.49638221 7.140779 -0.23830132
0.54297519 7.1744723 -0.23953451
0.58959299 7.2028813 -0.24060106
0.63666737 7.2319827 -0.24170095
0.68590063 7.2796836 -0.24343409
0.7329495 7.2992043 -0.244234
0.78566289 7.3691058 -0.24673371
0.83433503 7.3949347 -0.24776693
0.88417995 7.4273891 -0.24903345
0.92837131 7.4109149 -0.24866682
0.97408676 7.4070606 -0.24873349
1.0221071 7.4197564 -0.24936675
1.0673299 7.4113669 -0.24930009
1.131786 7.5311885 -0.25356629
1.1918807 7.6129708 -0.25656596
1.2470804 7.6577969 -0.25833243
1.3017085 7.6953321 -0.25986558
1.3419954 7.6478233 -0.2585324
1.3999752 7.7004113 -0.26059884
1.4551407 7.7339125 -0.262032
1.5060011 7.7424974 -0.26263195
1.5589892 7.7605481 -0.26356518
1.6148913 7.7909613 -0.26493168
1.6860478 7.8903742 -0.2686646
1.741303 7.9111152 -0.26973113
1.8154188 8.0133543 -0.27359739
1.8665943 8.0108242 -0.27389735
1.9145491 7.9943604 -0.2737307
1.966668 7.99508 -0.27416399
2.0218031 8.0070877 -0.27499723
2.0606232 7.9548631 -0.27363071
2.1224749 7.9913344 -0.27533051
2.1759298 7.994555 -0.27589712
2.2163563 7.9502454 -0.27483058
2.2557731 7.9038191 -0.27369738
2.2997458 7.8744793 -0.27316409
2.3471615 7.857347 -0.27306411
2.4023337 7.8657379 -0.27386403
2.4526358 7.8575282 -0.27409732
2.5044453 7.8537579 -0.27449727
2.5566101 7.8505979 -0.27493057
2.6394076 7.9390903 -0.27859682
2.7163231 8.0060349 -0.28152984
1.8930455 5.4683743 -0.19257309
1.9392034 5.4924693 -0.19383961
1.969484 5.4710631 -0.19350632
2.0019841 5.4560609 -0.19340633
2.0378737 5.4502273 -0.19363964
2.0556281 5.396524 -0.19217314
2.0789444 5.3586497 -0.19127323
2.1099498 5.341145 -0.19110659
2.1486475 5.3429351 -0.19163986
2.1601958 5.2778502 -0.1897734
3.9872756 9.5752106 -0.34548935
4.058816 9.5809345 -0.34658924
4.1266227 9.5769615 -0.34735581
4.1989441 9.5825853 -0.34848902
4.2625427 9.5675964 -0.34888899
4.3244662 9.5485458 -0.34915563
4.3875699 9.5318184 -0.34952223
4.467144 9.549983 -0.35118872
4.7315574 9.9556942 -0.36718693
10.803271 22.377911 -0.82826883
10.946095 22.322866 -0.82870215
11.08687 22.263336 -0.82900208
11.241305 22.230564 -0.83033526
11.407624 22.219852 -0.83253503
11.547443 22.15653 -0.8328017
11.712617 22.140917 -0.83490145
11.844468 22.061586 -0.83463478
11.959531 21.951635 -0.83323497
12.0969 21.883087 -0.83343494
12.20259 21.757891 -0.83150184
12.32598 21.665234 -0.83083522
12.457186 21.586597 -0.83073527
12.853444 21.355358 -0.8308019
12.979031 21.267555 -0.8304686
2.6418548 4.2688403 -0.16700926
2.7226961 4.3397584 -0.17044222
2.7449832 4.3162236 -0.17017558
2.7687085 4.2950988 -0.17000894
2.7950106 4.2780294 -0.17000894
2.7599726 4.1682916 -0.16630936
2.7587717 4.1114388 -0.16470952
2.7772048 4.0845151 -0.16430958
2.807884 4.0756283 -0.16464287
2.8442776 4.0747151 -0.16530946
2.8294151 4.0008764 -0.16300972
14.77612 19.846762 -0.82473588
15.02523 19.672678 -0.82510251
15.159721 19.598297 -0.82586914
15.349519 19.10634 -0.81690347
15.37312 18.897051 -0.81197065
15.477979 18.789255 -0.81140405
15.551366 18.644041 -0.80923766
15.679657 18.565067 -0.80997092
15.770883 18.214848 -0.80307168
16.064867 18.100674 -0.80667126
16.054762 17.43211 -0.78990644
16.307274 17.489708 -0.79703897
16.589218 17.574657 -0.80553806
16.755093 13.871262 -0.72498035
16.623245 13.591055 -0.71564806
16.669001 13.458662 -0.71404827
16.759665 12.381887 -0.69448376
16.888615 12.317691 -0.69668353
16.71488 12.034544 -0.68645132
16.7379 11.895859 -0.68438488
16.800758 11.786044 -0.68398494
16.876867 11.68558 -0.68415159
16.969706 11.596468 -0.68501818
17.116772 11.543539 -0.68808448
17.143183 11.408947 -0.68631804
17.24461 11.324391 -0.68758452
17.321318 11.223258 -0.68788451
17.36628 11.101692 -0.68695128
17.394341 10.969866 -0.68538481
17.430771 10.843924 -0.68418491
17.523388 10.752972 -0.68521816
17.589891 10.645764 -0.68525147
17.672047 10.547881 -0.68591803
17.795864 10.474231 -0.68821782
17.867579 10.369355 -0.68851775
17.896168 10.239671 -0.68718457
17.978682 10.140964 -0.68795115
18.021351 10.019773 -0.68721789
18.09038 9.9133301 -0.68751788
18.179007 9.8173409 -0.68858445
18.206257 9.6882391 -0.68735123
18.25474 9.570775 -0.68695128
18.265169 9.4338179 -0.68515146
18.287079 9.3034391 -0.68381828
18.330418 9.1843405 -0.68331838
18.375671 9.0663872 -0.68291837
18.420168 8.948225 -0.68251842
18.445873 8.8212328 -0.68145192
18.466194 8.6921358 -0.6802187
18.427589 8.5362329 -0.67685241
18.481438 8.4238319 -0.67691904
18.373188 8.2387056 -0.67108637
18.475515 8.1488066 -0.67298615
10.950709 4.7495794 -0.39765021
10.936439 4.6638689 -0.39608371
10.912313 4.5746484 -0.39418393
10.920772 4.499609 -0.393484
10.940763 4.4295149 -0.39321738
10.964023 4.3608227 -0.39308405
11.026878 4.3076515 -0.39438391
11.123087 4.2667608 -0.39688364
18.583799 6.9986134 -0.66182077
18.690834 6.778213 -0.66262066
29.355862 9.2405787 -1.0259135
12.016826 3.3013453 -0.41518158
12.059059 3.2335038 -0.41594818
12.080606 3.159956 -0.41601482
12.097831 3.0852771 -0.41594818
12.107804 3.0088184 -0.41564819
12.079412 2.9231834 -0.41404837
12.06891 2.842365 -0.41308182
12.066638 2.7637942 -0.41241524
11.998496 2.6708055 -0.40951556
10.703697 2.3136792 -0.36478722
10.435986 2.1888556 -0.35518828
10.315043 2.0974882 -0.35062212
10.219854 2.0129046 -0.34695587
10.010135 1.9078559 -0.33942339
9.9213982 1.8279213 -0.33602375
9.8045092 1.7442449 -0.33169091
9.6692419 1.6590291 -0.32675812
9.5618982 1.5802679 -0.3227919
9.461854 1.5041429 -0.3190923
9.2831879 1.4173833 -0.31275967
9.1433764 1.3386682 -0.30776024
9.0296764 1.2654699 -0.30366069
8.9609957 1.1998227 -0.30109432
8.8343515 1.1277218 -0.29659483
8.7706623 1.0649357 -0.2942284
8.6281004 0.99393225 -0.28922898
8.5158043 0.928078 -0.28526273
8.4129715 0.86466241 -0.28162983
8.3325644 0.80475569 -0.27876347
8.2746372 0.74793971 -0.27666372
8.1466141 0.68598932 -0.27223086
8.1307411 0.63443309 -0.27156428
7.990932 0.57420516 -0.26676482
7.9444408 0.52188313 -0.26509833
7.7788863 0.46307594 -0.25946563
7.8165116 0.4172042 -0.26063216
7.6721706 0.36229271 -0.25573272
7.6642632 0.31479934 -0.25539941
7.5971303 0.26535326 -0.25309968
7.5296831 0.21674293 -0.25079992
7.4879065 0.16956094 -0.24936675
7.4408393 0.12281691 -0.24776693
7.4364557 0.077106223 -0.24760029
7.4237962 0.031419408 -0.24716699
7.6524014 -0.0044849478 -0.38302737
7.7491059 -0.052093256 -0.38788417
8.2120199 -0.10561234 -0.41111663
11.369678 -0.21609245 -0.56948805
11.425049 -0.28728357 -0.57234204
11.394121 -0.3564747 -0.57089001
8.9083633 -0.3881318 -0.44641599
11.271913 -0.56048602 -0.56518203
11.311142 -0.63203543 -0.56733507
8.9854364 -0.5573597 -0.45072201
8.9529514 -0.6105116 -0.44926998
8.9689569 -0.66691607 -0.4502714
8.9238796 -0.71864802 -0.44821852
8.69841 -0.75423104 -0.43710297
8.6916294 -0.80740446 -0.43700284
8.6875048 -0.86081862 -0.43705291
8.683054 -0.91421258 -0.43710297
10.964613 -1.4273485 -0.553716
10.456345 -1.8207523 -0.53148496
10.400747 -1.8768944 -0.52923179
10.281812 -1.986011 -0.52437502
10.191077 -2.0334256 -0.52036941
9.5611534 -1.9688003 -0.48877522
9.3271227 -1.9803375 -0.47740933
9.370409 -2.0496967 -0.48026332
9.3255033 -2.0999126 -0.47861102
9.2920103 -2.15236 -0.47755954
9.2261629 -2.1968403 -0.47485575
9.2387037 -2.2598174 -0.47620764
9.7393103 -2.5093391 -0.50359595
9.7749071 -2.5825734 -0.50624967
9.7106752 -2.6294496 -0.50374615
9.7347794 -2.7001965 -0.50584906
9.743968 -2.7672446 -0.50720096
9.7268047 -2.8269806 -0.50720096
9.5853138 -2.9138839 -0.50164324
9.558671 -2.9699759 -0.50119257
9.6097574 -3.0506325 -0.50484771
9.5471563 -3.0953696 -0.50254446
9.4426508 -3.1256428 -0.49803817
9.5926876 -3.3724639 -0.50915372
9.405406 -3.3716028 -0.50029135
9.5645523 -3.5617077 -0.51105636
9.2946777 -3.591687 -0.49893942
9.3249979 -3.7355616 -0.50299507
9.362401 -3.8845451 -0.50755149
9.3715143 -3.9559016 -0.509354
9.1369066 -3.923089 -0.49788797
9.0941591 -4.1719594 -0.5009923
8.653513 -4.3622403 -0.48522025
8.650588 -4.4275417 -0.48657215
8.6170549 -4.4773135 -0.48622164
8.5894213 -4.5301027 -0.48622164
8.5332861 -4.5676379 -0.48461941
8.4849138 -4.6089463 -0.48346779
8.4529753 -4.6589932 -0.48326752
8.4242296 -4.710772 -0.48326752
8.3143768 -4.7165418 -0.47861102
8.240346 -4.809155 -0.47770974
8.0843391 -4.7848444 -0.47034946
8.1019268 -4.862628 -0.47310331
8.1316595 -4.948595 -0.47660822
8.1886883 -5.0524154 -0.48176542
8.1897087 -5.1226926 -0.48366809
8.1395664 -5.1610804 -0.48256654
8.0959826 -5.2033668 -0.48186556
8.0513506 -5.2447672 -0.48111451
7.9990144 -5.2808638 -0.47991282
7.9498591 -5.318738 -0.47891143
7.9096351 -5.3623734 -0.47846079
7.8617649 -5.4006252 -0.47755954
7.7907724 -5.4225159 -0.47525632
7.6643195 -5.4753299 -0.47160122
7.5569525 -5.4689679 -0.46704483
7.5941348 -5.5671992 -0.47145101
7.4267278 -5.5148468 -0.46313938
7.3576307 -5.5338969 -0.46093631
7.3386316 -5.5904379 -0.46188763
