# .PCD v0.7 - Point Cloud Data file format
VERSION 0.7
FIELDS x y z
SIZE 4 4 4
TYPE F F F
COUNT 1 1 1
WIDTH 1435
HEIGHT 1
VIEWPOINT 0 0 0 1 0 0 0
POINTS 1435
DATA ascii
17.569916 -10.093968 -0.28277376
17.544798 -10.223232 -0.28337413
17.517895 -10.352058 -0.28396055
17.47806 -10.473742 -0.2843515
17.415174 -10.581827 -0.28437942
17.327784 -10.67485 -0.2840164
17.225491 -10.758194 -0.28341603
17.13888 -10.850848 -0.28308094
17.097223 -10.972008 -0.28349981
17.099148 -11.12196 -0.28465867
17.079838 -11.259138 -0.28548244
17.036207 -11.380945 -0.28591526
17.015734 -11.518895 -0.286753
17.041206 -11.689261 -0.28838655
16.998722 -11.814148 -0.2888892
16.977417 -11.954495 -0.28976882
16.933865 -12.079927 -0.29028541
16.878065 -12.197076 -0.29060656
16.816622 -12.310448 -0.2908439
16.095818 -11.935154 -0.27963227
15.885567 -11.931007 -0.27724475
15.771474 -11.99738 -0.27653268
15.724494 -12.114675 -0.2770074
15.644345 -12.206625 -0.27690965
15.467163 -12.221796 -0.27509457
15.341914 -12.276487 -0.27420098
15.218133 -12.331362 -0.27333534
15.14141 -12.423873 -0.27332136
15.069509 -12.520379 -0.27340513
14.884516 -12.521845 -0.27143648
14.744986 -12.559772 -0.27029157
14.625998 -12.614091 -0.26952365
14.487317 -12.650325 -0.26839271
14.387699 -12.719772 -0.26798782
14.172294 -12.685109 -0.26541877
14.061591 -12.742288 -0.26480445
13.939671 -12.788445 -0.26398069
13.824307 -12.839714 -0.26328257
13.72851 -12.908543 -0.26296145
13.608489 -12.953929 -0.26217955
13.44739 -12.95878 -0.26060182
13.307504 -12.982395 -0.25942901
13.216211 -13.052562 -0.25920561
13.097691 -13.095232 -0.25845164
12.959469 -13.117024 -0.25730675
12.873851 -13.191287 -0.257209
12.776013 -13.252754 -0.25687394
12.668253 -13.303379 -0.25634336
12.53295 -13.32405 -0.2552543
12.430542 -13.378724 -0.25483546
12.257622 -13.356028 -0.25296453
12.107614 -13.356165 -0.25155434
11.980078 -13.379549 -0.2506049
11.871923 -13.423594 -0.25006038
11.753155 -13.454768 -0.24929246
11.593302 -13.437295 -0.24764492
11.491179 -13.485345 -0.24722606
11.395342 -13.540298 -0.24694681
11.278172 -13.569209 -0.24620682
11.152196 -13.586371 -0.24527135
11.03651 -13.614929 -0.24455929
10.8934 -13.608234 -0.24323288
10.778694 -13.635597 -0.24253477
10.665294 -13.663643 -0.24186458
10.548293 -13.68606 -0.24111062
10.405989 -13.674137 -0.23977025
10.302069 -13.711349 -0.2393095
10.18915 -13.735756 -0.23863931
10.078684 -13.762521 -0.23802498
9.9448414 -13.756036 -0.23685215
9.696456 -13.587275 -0.23291482
9.7447653 -13.833714 -0.23611216
9.6203156 -13.836598 -0.23514877
9.5267487 -13.882999 -0.23493934
9.3342953 -13.783061 -0.23227257
9.114542 -13.63806 -0.22887975
9.135829 -13.853163 -0.23154652
9.0653801 -13.931587 -0.23192351
8.9554176 -13.949085 -0.23129521
8.85254 -13.97674 -0.23084842
8.7591953 -14.018924 -0.23065294
8.6724873 -14.071554 -0.23063898
8.5766335 -14.109122 -0.23038767
8.3958158 -14.00454 -0.22783259
8.3087101 -14.054071 -0.22780466
8.1256361 -13.93893 -0.22512393
8.0489235 -14.004129 -0.22537525
7.9643235 -14.055863 -0.22541714
7.8530622 -14.059945 -0.22470506
7.7034745 -13.993117 -0.22287601
7.6498938 -14.099886 -0.22382544
7.5839772 -14.185359 -0.22443978
7.4977264 -14.233396 -0.22446771
7.3959732 -14.251619 -0.22403488
7.3170352 -14.313648 -0.22430016
7.2236743 -14.347558 -0.22413261
7.1208467 -14.362048 -0.22367185
6.9505615 -14.237441 -0.22106093
6.8427143 -14.237464 -0.22040471
6.7453918 -14.258393 -0.22008358
6.6370974 -14.255096 -0.21939944
6.5449233 -14.285553 -0.21924585
6.4657741 -14.344586 -0.21953905
6.3869572 -14.405013 -0.21986018
6.2880583 -14.420102 -0.21949716
6.186851 -14.429006 -0.21905038
6.0888786 -14.444582 -0.21871528
5.9986029 -14.477975 -0.21865943
5.9051304 -14.503397 -0.21849188
5.7959747 -14.489224 -0.21773793
5.6831942 -14.464023 -0.21683039
5.5738206 -14.445448 -0.21603455
5.4259276 -14.32322 -0.21370286
5.2950792 -14.240966 -0.21198551
5.204515 -14.264734 -0.21185985
5.1162157 -14.294518 -0.21183193
5.0297346 -14.329414 -0.21188778
4.9436688 -14.365679 -0.21197155
4.8519144 -14.385321 -0.21181796
4.7635565 -14.414821 -0.21181796
4.662395 -14.404774 -0.21124552
4.5709004 -14.423578 -0.2111059
4.4793515 -14.441804 -0.21096627
4.3900733 -14.467103 -0.21093835
4.2963862 -14.477471 -0.21070099
4.1849089 -14.425776 -0.20957005
4.0914073 -14.433866 -0.20931874
3.9875598 -14.40377 -0.20852289
3.8884103 -14.38839 -0.20795044
3.7931688 -14.385873 -0.20757346
3.709558 -14.427276 -0.20783874
3.6309285 -14.489532 -0.2084112
3.5429025 -14.515425 -0.20846704
3.4475305 -14.510623 -0.20809007
3.3505502 -14.497406 -0.20760138
3.2549579 -14.488424 -0.20718253
3.1672766 -14.513985 -0.2072663
3.0777464 -14.53119 -0.20723838
2.9784684 -14.500828 -0.20654026
2.8820212 -14.481565 -0.2060097
2.783653 -14.449883 -0.2053116
2.6898112 -14.439167 -0.20492065
2.5986843 -14.441623 -0.20472518
2.5038664 -14.421829 -0.20422255
2.4039452 -14.368874 -0.20325916
2.312079 -14.360648 -0.20293802
2.2262132 -14.389387 -0.20314746
2.13832 -14.405743 -0.20318934
2.0507321 -14.424531 -0.20327312
1.9701306 -14.495301 -0.20409688
1.8803805 -14.501166 -0.20401311
1.7876933 -14.482659 -0.20359424
1.6933254 -14.44668 -0.20293802
1.5988048 -14.404127 -0.20219803
1.5125806 -14.43455 -0.20249122
1.4251605 -14.455501 -0.20265877
1.3367124 -14.46696 -0.20270066
1.235726 -14.333428 -0.20071803
1.1378648 -14.217146 -0.19898672
1.0530387 -14.256768 -0.19944747
0.96722895 -14.287902 -0.19979653
0.88064688 -14.311531 -0.20004785
0.79276115 -14.315668 -0.20003389
0.70215487 -14.264336 -0.19925201
0.61053079 -14.173473 -0.1979256
0.52314681 -14.16596 -0.19777201
0.43566266 -14.150914 -0.19752069
0.34744734 -14.097343 -0.19673881
0.26003528 -14.050222 -0.19605467
0.17381984 -14.051555 -0.19605467
0.087715976 -14.071354 -0.19631995
0.0013761636 -14.096624 -0.196669
-0.085209928 -14.111366 -0.19687843
-0.17219627 -14.143572 -0.19733919
-0.25947109 -14.169242 -0.19771616
-0.34515971 -14.116405 -0.19700409
-0.42947558 -14.039062 -0.19595693
-0.51300228 -13.965218 -0.19496562
-0.59898156 -13.9688 -0.19506335
-0.68482822 -13.967858 -0.19510524
-0.77052045 -13.963393 -0.19510524
-0.85624492 -13.959401 -0.1951192
-0.94295985 -13.969846 -0.1953426
-1.029688 -13.977757 -0.19553806
-1.1159917 -13.978152 -0.1956358
-1.2003678 -13.955103 -0.19541241
-1.2833093 -13.918601 -0.1950075
-1.3716259 -13.940316 -0.19542636
-1.4593208 -13.952522 -0.19571957
-1.5446843 -13.941318 -0.19569165
-1.6278729 -13.911716 -0.19541241
-1.7114905 -13.887571 -0.19521694
-1.5790253 -12.196007 -0.17155103
-1.6434734 -12.109796 -0.17047594
-1.7072046 -12.025235 -0.16942878
-1.7783184 -11.996729 -0.16917747
-2.0743816 -13.425362 -0.18952036
-2.1730714 -13.514065 -0.19095847
-2.2674882 -13.569511 -0.19193582
-2.3331077 -13.453869 -0.19049771
-2.4129615 -13.424538 -0.19028829
-2.5033369 -13.452731 -0.19090262
-2.5928259 -13.473448 -0.19141921
-2.6738887 -13.449439 -0.19130753
-2.7529454 -13.416128 -0.19107017
-2.8544655 -13.489961 -0.19236866
-2.9501784 -13.531785 -0.19322035
-3.0355613 -13.524161 -0.19337393
-3.1522343 -13.65142 -0.19546825
-3.2380168 -13.640576 -0.19559391
-3.3154931 -13.595195 -0.1952309
-3.3782046 -13.492149 -0.19404411
-3.2168307 -12.52112 -0.18034722
-3.2174249 -12.212042 -0.17617252
-3.2899497 -12.183382 -0.17604686
-3.3558452 -12.131165 -0.1755861
-3.8068349 -13.439898 -0.19488184
-3.8950756 -13.436454 -0.19517505
-4.0024652 -13.49666 -0.19640373
-4.0872355 -13.478546 -0.19650145
-4.1716371 -13.458944 -0.19658522
-4.260179 -13.452159 -0.19686447
-4.3500257 -13.448598 -0.19719957
-4.4403024 -13.445391 -0.19754861
-4.5160108 -13.397994 -0.19725542
-4.5821996 -13.323701 -0.19657126
-4.6562529 -13.273633 -0.19625014
-4.729528 -13.222218 -0.19591504
-4.7954965 -13.151615 -0.19530071
-4.8614745 -13.082578 -0.19471429
-4.9473209 -13.067464 -0.19493769
-5.0356832 -13.058319 -0.19525883
-5.1241193 -13.048581 -0.19557995
-5.2404656 -13.107882 -0.19694825
-5.3505702 -13.148646 -0.19805126
-5.474761 -13.220883 -0.19964294
-5.5794616 -13.243251 -0.20049463
-5.6720381 -13.235419 -0.20089954
-5.7787113 -13.259031 -0.20179312
-5.8688712 -13.243436 -0.20210029
-5.959878 -13.229055 -0.20243539
-6.0580068 -13.229511 -0.20300783
-6.1470833 -13.209314 -0.20327312
-6.2164779 -13.146942 -0.20289613
-6.2914 -13.096833 -0.20271462
-6.3707652 -13.056187 -0.2026867
-6.4489808 -13.013268 -0.20263085
-6.5282578 -12.972559 -0.20261689
-6.6159225 -12.948285 -0.20286821
-6.7007718 -12.918097 -0.20303576
-6.7878294 -12.891781 -0.20327312
-6.8898969 -12.893101 -0.20395726
-6.9831781 -12.87695 -0.20437613
-7.0586839 -12.827728 -0.20427839
-7.1450591 -12.798144 -0.20450178
-7.2357717 -12.775813 -0.20485084
-7.3055587 -12.716435 -0.20461348
-7.3859649 -12.67569 -0.20468329
-7.5165081 -12.719658 -0.20613536
-7.6052065 -12.691309 -0.20642857
-7.6746283 -12.630733 -0.20620517
-7.7530336 -12.585107 -0.2062331
-7.8433504 -12.558501 -0.20658214
-7.9245396 -12.516897 -0.20669384
-7.9650092 -12.411655 -0.20575838
-8.0786352 -12.420384 -0.20672177
-8.1921158 -12.427349 -0.2076712
-8.2965422 -12.419253 -0.20838328
-8.3994951 -12.407857 -0.20905346
-8.5043154 -12.398137 -0.20976552
-8.6196051 -12.402376 -0.21072891
-8.7369909 -12.408117 -0.21173419
-8.8547716 -12.412884 -0.21273947
-8.9869938 -12.436119 -0.21407984
-9.1269197 -12.467877 -0.21558775
-9.2282639 -12.445374 -0.21617417
-9.3212671 -12.410903 -0.2165651
-9.390584 -12.344721 -0.21641153
-9.4716454 -12.293999 -0.21653718
-9.5622787 -12.255358 -0.21688624
-9.6453562 -12.206653 -0.21706775
-9.7263203 -12.155047 -0.21720737
-9.8240108 -12.123883 -0.21772397
-9.9736948 -12.155361 -0.21938547
-10.069817 -12.120084 -0.21986018
-10.213515 -12.140704 -0.2213681
-10.316995 -12.11206 -0.2219964
-10.41724 -12.078815 -0.22255488
-10.512204 -12.038771 -0.22300167
-10.680582 -12.081166 -0.22499827
-10.785186 -12.049676 -0.22564052
-10.882419 -12.009204 -0.2261292
-10.993754 -11.983466 -0.22691108
-11.084089 -11.9341 -0.22726014
-11.168066 -11.877521 -0.22748354
-11.276585 -11.84643 -0.22820957
-11.428852 -11.859814 -0.22981521
-11.566344 -11.856027 -0.2311137
-11.661359 -11.807599 -0.23156048
-11.783077 -11.785321 -0.23253785
-11.883621 -11.74091 -0.23309633
-12.003385 -11.714562 -0.2340318
-12.087276 -11.652488 -0.23426916
-12.231682 -11.647744 -0.23567933
-12.319673 -11.58823 -0.23600046
-12.411788 -11.532157 -0.23640537
-12.520622 -11.490939 -0.2371314
-12.633862 -11.452848 -0.23794121
-12.759022 -11.42447 -0.23897441
-12.858842 -11.372464 -0.2395329
-12.946453 -11.309137 -0.23986799
-13.027714 -11.239937 -0.24009138
-13.164171 -11.217506 -0.24133402
-13.266415 -11.16485 -0.24194835
-13.351589 -11.0973 -0.24225552
-13.468893 -11.055768 -0.2431491
-13.663089 -11.075547 -0.24542494
-13.73079 -10.991504 -0.24542494
-13.790914 -10.901465 -0.24529928
-13.820498 -10.787725 -0.24464305
-13.882471 -10.699669 -0.24457325
-13.997991 -10.652434 -0.24545287
-13.952771 -10.483457 -0.24352609
-14.190299 -10.52632 -0.24654192
-14.35546 -10.512898 -0.24828719
-14.555831 -10.523033 -0.25063282
-14.641287 -10.448623 -0.25099584
-14.758258 -10.396017 -0.25190338
-14.848862 -10.324102 -0.25236413
-14.952328 -10.260519 -0.2530483
-15.158234 -10.265576 -0.25546375
-15.235901 -10.182374 -0.25571507
-15.340663 -10.116771 -0.25642714
-15.443517 -10.049174 -0.25711128
-15.635308 -10.037953 -0.25927541
-15.810643 -10.014056 -0.26116031
-15.927759 -9.9518232 -0.26208183
-16.050661 -9.8922014 -0.26310107
-16.146088 -9.8148241 -0.26367351
-16.219728 -9.7237949 -0.26389691
-16.313519 -9.6444435 -0.26445538
-16.446678 -9.587471 -0.26565614
-16.538139 -9.5053082 -0.26618668
-16.738825 -9.4844933 -0.26847649
-16.832499 -9.401597 -0.26904896
-16.926659 -9.3183908 -0.26963535
-17.025702 -9.2372427 -0.27030554
-17.156132 -9.1722012 -0.27147835
-17.242167 -9.0826044 -0.27195308
-17.337511 -8.9973631 -0.27258137
-17.438688 -8.9144783 -0.27330741
-17.585939 -8.8540707 -0.27475947
-17.67577 -8.7637653 -0.27531797
-17.77953 -8.6797085 -0.27609986
-17.91176 -8.6085663 -0.27732852
-18.052824 -8.5404034 -0.27869681
-18.176498 -8.4628134 -0.27979982
-18.238991 -8.356123 -0.27996737
-18.161386 -8.1861191 -0.27799872
-18.380379 -8.1495056 -0.28058171
-18.695841 -8.1524734 -0.28463075
-18.901739 -8.1045895 -0.28700432
-18.984283 -8.0024395 -0.28750694
-19.076443 -7.9037919 -0.28816319
-19.159773 -7.80092 -0.28869373
-19.319613 -7.7281451 -0.29038316
-19.444841 -7.6401715 -0.29155597
-19.623823 -7.5718269 -0.2935386
-19.811108 -7.5047598 -0.29564691
-19.769621 -7.3506532 -0.29434842
-19.836897 -7.2374358 -0.29468352
-19.970367 -7.1475911 -0.29600993
-20.092157 -7.0524063 -0.29716879
-20.224871 -6.9598994 -0.29849517
-20.3032 -6.8478141 -0.29902574
-20.444523 -6.7560482 -0.30049178
-20.068916 -6.4956164 -0.29437634
-20.650759 -6.5442224 -0.30232081
-21.120285 -6.5506792 -0.30860379
-21.405985 -6.4955802 -0.31219208
-21.552801 -6.3959727 -0.31375584
-21.65694 -6.2825494 -0.31470528
-21.688347 -6.1476383 -0.31460753
-21.945375 -6.0752673 -0.31779093
-5.7279067 -1.5480851 -0.08268176
-5.6773524 -1.4971051 -0.0818161
-5.6225166 -1.4458084 -0.080894597
-5.6196432 -1.4083657 -0.080727056
-5.6087513 -1.3691161 -0.080447808
-5.5878615 -1.3277422 -0.080028944
-5.5588822 -1.2848754 -0.07949838
-5.5461745 -1.2461401 -0.079205178
-5.4833784 -1.1967379 -0.078199901
-5.4915967 -1.1632771 -0.078213863
-5.4917746 -1.1281513 -0.078116126
-5.4887862 -1.0924816 -0.077976502
-5.4718218 -1.0542433 -0.077641413
-5.4722896 -1.0195504 -0.077557638
-5.482379 -0.98666209 -0.077613488
-5.4715819 -0.95009685 -0.077376127
-5.4496951 -0.91188663 -0.076985188
-5.4443283 -0.87668264 -0.076831602
-5.440712 -0.84188461 -0.076705948
-5.4289613 -0.80598956 -0.076468587
-5.4427137 -0.77392948 -0.076594248
-5.3789959 -0.73122829 -0.075630859
-5.4131289 -0.7020666 -0.076049723
-5.4490905 -0.6727584 -0.076496512
-5.4481506 -0.6387288 -0.0764267
-5.4450107 -0.60451555 -0.076328963
-5.4555788 -0.57182354 -0.0764267
-5.411221 -0.53362972 -0.07575652
-5.418376 -0.50078493 -0.075812362
-5.4213467 -0.467529 -0.075812362
-5.4001918 -0.43234128 -0.075477272
-5.4007487 -0.39905092 -0.075449347
-5.3572049 -0.36279917 -0.074807085
-5.3862762 -0.33157882 -0.07518407
-5.3882098 -0.29852301 -0.07518407
-5.4588499 -0.26884693 -0.076147459
-5.4214373 -0.23366939 -0.075602934
-5.4307623 -0.20069475 -0.075714633
-5.4378881 -0.16755296 -0.0757984
-5.4238195 -0.13381426 -0.075588971
-5.4335361 -0.10069819 -0.075714633
-5.4650464 -0.067739658 -0.076147459
-5.4853568 -0.034329828 -0.0764267
-5.4904637 -0.00067207363 -0.076496512
-5.4953642 0.033047061 -0.076566324
-5.4870591 0.066667847 -0.076454625
-5.4795485 0.1002063 -0.076356888
-5.4728332 0.13367954 -0.076273113
-5.4789057 0.16747183 -0.07637085
-5.4897656 0.20152727 -0.076538399
-5.5014129 0.23576513 -0.07671991
-5.4998627 0.26951674 -0.07671991
-5.4901185 0.30281731 -0.076608211
-5.4951434 0.33692697 -0.076705948
-5.5258942 0.37286094 -0.077166699
-5.5284882 0.40712753 -0.077236511
-5.5328627 0.44159919 -0.07733424
-5.5629244 0.47836825 -0.077794991
-5.5877638 0.51506364 -0.078185938
-5.5884786 0.54973149 -0.078241788
-5.602901 0.58588392 -0.078493103
-5.6121202 0.62168342 -0.078674614
-5.6250834 0.65808284 -0.078911968
-5.6249084 0.69307452 -0.078967817
-5.6423659 0.7304002 -0.07927499
-5.6873193 0.77173173 -0.079973094
-5.7072258 0.81012803 -0.080322146
-5.7278638 0.84894419 -0.080685169
-5.73737 0.88636422 -0.080894597
-5.8117881 0.93441105 -0.082025535
-37.877995 6.3298821 -0.53607565
-37.905437 6.5737967 -0.53702509
-37.899818 6.8126249 -0.53752774
-37.876961 7.0487046 -0.53780699
-37.83889 7.282114 -0.53789073
-37.812126 7.5178566 -0.53815603
-37.949432 7.7875152 -0.5407809
-38.241364 8.0922613 -0.54563975
-38.385399 8.3691435 -0.54841822
-38.403572 8.6202822 -0.54942352
-38.387955 8.8645344 -0.549968
-38.37759 9.1105347 -0.5506103
-38.450169 9.3773546 -0.55246723
-38.473381 9.6335058 -0.55364007
-38.577213 9.9114428 -0.5559997
-38.654907 10.184649 -0.55801022
-38.824329 10.484465 -0.56137514
-38.899006 10.761147 -0.56339961
-38.987133 11.043499 -0.56564754
-38.938805 11.288359 -0.56594074
-39.287731 11.651309 -0.57204223
-39.397305 11.947289 -0.57469505
-39.71579 12.310475 -0.58043349
-39.748177 12.588351 -0.58202517
-32.526714 10.742188 -0.47814655
-32.446922 10.937096 -0.47795108
-32.333817 11.12037 -0.47728091
-32.111179 11.264605 -0.47500506
-32.115837 11.488029 -0.47610807
-30.424284 11.093972 -0.45202333
-29.890751 11.107682 -0.44509807
-29.703272 11.245914 -0.44332489
-29.450415 11.565347 -0.44163546
-29.437389 11.769219 -0.44251508
-29.397036 11.962814 -0.44300374
-29.324003 12.143348 -0.44301772
-29.257235 12.326542 -0.44314337
-26.81356 11.491199 -0.40717679
-26.505142 11.552034 -0.40356061
-26.31218 11.660567 -0.40170363
-26.102476 11.759776 -0.39959532
-26.025282 11.917634 -0.39952552
-25.970703 12.085958 -0.39981872
-25.937639 12.264746 -0.40046099
-25.996187 12.488179 -0.40254137
-25.980179 12.677272 -0.40349078
-26.219954 12.994067 -0.40844736
-26.106684 13.138073 -0.40793076
-26.125301 13.348969 -0.40949452
-26.176041 13.578083 -0.41158885
-26.258568 13.826023 -0.41421375
-26.246435 14.025998 -0.41537261
-26.323366 14.275441 -0.41796955
-26.355293 14.502733 -0.41988239
-26.446531 14.765071 -0.42277256
-26.490292 15.003447 -0.42493668
-26.548594 15.252377 -0.42736611
-26.586687 15.492011 -0.42950234
-26.564301 15.698092 -0.43068913
-31.85461 19.089115 -0.51838559
-31.727482 19.278502 -0.51823199
-31.634134 19.48855 -0.51865083
-31.564844 19.714067 -0.51948857
-31.451822 20.184179 -0.52166671
-31.372644 20.406227 -0.52242064
-58.94722 38.859039 -0.98569977
-58.887272 39.339977 -0.98871559
-58.86668 39.850788 -0.99245745
-58.862644 40.376961 -0.99654835
-58.601475 40.728817 -0.99633896
-59.055195 41.583858 -1.0083743
-58.768814 41.923946 -1.0078577
-29.190058 21.094643 -0.50272
-29.018925 21.243229 -0.5020079
-28.839039 21.384556 -0.50115621
-28.643324 21.513067 -0.50003928
-28.357986 21.57218 -0.49735853
-28.072218 21.627995 -0.49466383
-27.922428 21.786919 -0.49437061
-27.591303 21.802235 -0.49086612
-27.268074 21.819935 -0.48748726
-27.010155 21.886744 -0.48526728
-26.876898 22.053333 -0.48529521
-26.557266 22.065109 -0.48195824
-26.321907 22.143965 -0.48014316
-26.040915 22.181864 -0.47749034
-58.808872 51.992241 -1.0959172
-24.665836 22.351835 -0.46463117
-22.014999 20.197039 -0.41700616
-21.91337 20.352835 -0.41743901
-21.796816 20.495131 -0.41760656
-21.682961 20.640207 -0.41784391
-21.485348 20.704865 -0.41647562
-16.062304 15.669958 -0.31316945
-15.78819 15.785292 -0.31157774
-15.513945 15.70262 -0.30805928
-15.351656 15.730249 -0.30674684
-15.379068 15.953007 -0.30924606
-14.987579 15.933682 -0.3052808
-14.910629 16.048054 -0.30571362
-14.883544 16.217329 -0.30719364
-15.010742 16.558746 -0.31191283
-15.079987 17.051046 -0.31767923
-17.767984 21.112665 -0.38514447
-17.65728 21.24436 -0.38556334
-17.369265 21.160627 -0.38210073
-17.458212 21.537117 -0.38695955
-17.303864 21.616512 -0.38647088
-17.175243 21.72777 -0.38656861
-17.044676 21.836689 -0.38663843
-16.893888 21.919477 -0.38626146
-16.729404 21.983734 -0.38557729
-16.599003 22.092367 -0.38568899
-33.117313 44.645519 -0.77602971
-32.821484 44.818844 -0.77552706
-32.552895 45.02911 -0.77569461
-32.191185 45.109173 -0.77365613
-15.911211 22.587872 -0.38563314
-15.751196 22.654699 -0.38511655
-15.646969 22.802036 -0.38598222
-15.465273 22.836349 -0.384949
-15.4382 23.100407 -0.3877973
-15.309929 23.215567 -0.38814634
-33.714767 51.813637 -0.8630141
-33.381081 51.995968 -0.86262316
-33.020218 52.134769 -0.86154807
-32.661556 52.275341 -0.86054277
-32.203789 52.253445 -0.85691261
-31.870613 52.430405 -0.85659146
-31.496895 52.539211 -0.85519522
-18.593605 31.451378 -0.51000828
-27.033812 46.375538 -0.74938983
-26.689951 46.438244 -0.7477423
-26.400568 46.594177 -0.7476306
-26.066391 46.669739 -0.74626231
-25.750608 46.776245 -0.74542457
-25.451189 46.911396 -0.74507552
-25.144482 47.032288 -0.74453104
-24.831657 47.140568 -0.74381894
-24.528124 47.265419 -0.7434001
-24.979479 48.866261 -0.7661584
-24.686815 49.033794 -0.76639581
-22.66276 47.905716 -0.73983973
-14.854508 31.905027 -0.49125704
-21.906174 47.815689 -0.73424089
-23.431915 54.649612 -0.83011919
-23.08256 54.760109 -0.82963049
-22.739233 54.884079 -0.8293792
-22.383945 54.978123 -0.82870901
-22.0369 55.091221 -0.82835996
-19.914696 55.642834 -0.82506484
-17.203846 49.014366 -0.72517943
-16.906681 49.130348 -0.72534698
-16.616089 49.266323 -0.72583562
-16.314112 49.369247 -0.72586358
-16.008724 49.461758 -0.72576582
-15.699796 49.54285 -0.72552848
-15.388107 49.614376 -0.72517943
-15.077872 49.689682 -0.72491413
-14.770708 49.774551 -0.72481638
-14.462511 49.855606 -0.72469074
-14.161785 49.962646 -0.72496998
-13.852551 50.039928 -0.72484434
-12.940063 57.601658 -0.8241992
-12.602584 57.754219 -0.82526034
-12.242587 57.805027 -0.82489735
-9.1040382 45.748383 -0.6511659
-8.8316698 45.847565 -0.6517942
-8.5476255 45.887135 -0.65159875
-8.2636042 45.925922 -0.65141726
-10.164797 58.551426 -0.82964444
-9.790988 58.526894 -0.82842976
-9.433279 58.595741 -0.82856935
-9.0753994 58.664379 -0.8287369
-8.7052879 58.651703 -0.82778752
-7.0457115 51.843323 -0.73040128
-6.7300453 51.905407 -0.73068053
-6.4268656 52.070763 -0.73243976
-6.1070113 52.107231 -0.73241186
-5.8100033 52.349438 -0.73530203
-5.1726508 52.472523 -0.73608387
-4.8555551 52.557041 -0.73683786
-4.5351262 52.610748 -0.73718691
-4.2155776 52.67944 -0.7377733
-3.8957241 52.751186 -0.73842955
-3.5756891 52.828968 -0.73919743
-3.2547846 52.903801 -0.73995143
-2.6103413 53.04163 -0.74137557
-2.2867706 53.101604 -0.74200386
-1.3083259 35.436398 -0.49498495
-1.6366822 53.181633 -0.74278575
-1.3104089 53.193672 -0.74282759
-1.1247149 60.810669 -0.84910774
-0.75156653 60.816425 -0.84910774
-0.38512909 61.903763 -0.86424273
-0.0051906179 60.721077 -0.8477115
0.37670335 62.258793 -0.86919934
0.75980598 62.345291 -0.87045592
1.1441675 62.43943 -0.87185216
1.5299084 62.539192 -0.87336004
1.9156624 62.595589 -0.87429553
2.2987509 62.556675 -0.87393248
2.8311257 51.294922 -0.71717912
3.0728221 50.086941 -0.70053619
3.3116589 49.053547 -0.68635058
3.7973013 51.539261 -0.72145152
4.1197567 51.593731 -0.72255456
4.4380522 51.588402 -0.72284776
4.7553358 51.569164 -0.72297341
4.8398771 49.18362 -0.6899249
5.144484 49.180847 -0.69031584
5.7583141 49.205379 -0.69160038
6.0862999 49.381493 -0.6945883
6.3713365 49.205383 -0.69264752
6.5121546 47.979355 -0.67593479
6.8095207 47.960274 -0.67624199
7.1158419 47.99968 -0.67740083
8.7775173 56.803226 -0.80241823
7.7116385 47.954159 -0.67804313
8.8474522 52.942589 -0.74934798
4.4610558 25.723495 -0.36438271
4.3262048 24.06789 -0.34128928
4.4019051 23.65456 -0.33580214
4.5061464 23.41502 -0.33278629
4.5758314 23.015242 -0.32749462
4.6934466 22.872131 -0.32586107
4.8165174 22.761711 -0.3247022
4.9622674 22.760057 -0.3251071
5.1033597 22.736012 -0.32520485
5.2317452 22.656532 -0.32452068
5.3741288 22.638596 -0.32473013
5.5254922 22.656681 -0.32547012
5.6675644 22.63496 -0.32565162
5.8060942 22.598789 -0.32563767
5.8692393 22.276535 -0.32150486
5.7651987 21.349112 -0.30861777
5.8347654 21.091684 -0.30540645
5.9022112 20.837099 -0.30223706
5.9934816 20.674685 -0.30040801
6.0971975 20.55987 -0.29927707
6.1498213 20.279984 -0.29574463
6.2445364 20.14636 -0.29434842
6.3462977 20.039032 -0.29334313
6.4472861 19.932167 -0.29235181
6.5509653 19.836214 -0.29152805
6.6700001 19.788065 -0.29141635
6.8712907 19.97937 -0.29485106
7.0093098 19.981176 -0.29550728
7.1519861 19.994282 -0.296345
7.283783 19.975386 -0.29672199
7.3762584 19.849712 -0.29552123
7.4819827 19.761997 -0.29489294
7.5991411 19.705454 -0.29473937
7.7162538 19.649149 -0.29459974
7.8299918 19.584721 -0.29434842
7.9545369 19.547422 -0.29451597
8.0735626 19.496399 -0.29448804
8.1895437 19.4382 -0.29436237
8.3090544 19.388502 -0.29437634
8.4350548 19.353653 -0.29462767
8.5382538 19.266796 -0.2940971
8.6706867 19.245951 -0.29458576
8.8194218 19.259661 -0.29561898
8.9627438 19.259575 -0.29645669
9.1294775 19.307266 -0.29804841
9.3486567 19.460888 -0.30130157
10.397511 21.308239 -0.33090141
10.560028 21.308546 -0.33190668
9.3663654 18.612061 -0.29077411
9.500864 18.594307 -0.2914024
10.838117 20.893988 -0.32849991
9.527544 18.09499 -0.28538468
9.6624289 18.081165 -0.28609678
11.198943 20.650522 -0.32785764
11.340386 20.608574 -0.32829049
11.477347 20.557812 -0.32859764
11.611649 20.501791 -0.32883501
11.795506 20.531595 -0.33046857
11.950965 20.509806 -0.33129236
12.158488 20.574682 -0.33354026
12.326649 20.570023 -0.33468515
12.586076 20.713612 -0.33827344
12.837234 20.837755 -0.34158248
13.15077 21.056273 -0.3464832
13.390976 21.150908 -0.34938735
13.755425 21.434402 -0.35546088
13.934663 21.423357 -0.35668954
14.332214 21.741508 -0.36344725
14.501452 21.707203 -0.36435479
14.691547 21.702272 -0.36577892
18.468653 26.924326 -0.45573726
18.499977 26.618368 -0.45247012
18.570845 26.373545 -0.45023617
18.625473 26.109324 -0.44766712
18.732031 25.920799 -0.44639656
18.889544 25.803759 -0.44636863
19.099928 25.758049 -0.44759732
19.24921 25.629177 -0.44740185
19.502968 25.637913 -0.4496358
19.80088 25.700733 -0.45286104
35.449677 45.43259 -0.80449855
46.972118 59.444038 -1.0577446
47.38533 59.216381 -1.0588477
52.772217 63.515438 -1.1529108
36.048664 38.812408 -0.73949069
37.835896 39.261879 -0.76120186
68.908684 69.771278 -1.3691431
36.548134 36.108574 -0.71723497
36.905685 36.017025 -0.71990174
34.602821 33.357559 -0.6709643
37.708054 35.468624 -0.72269416
38.133015 35.429874 -0.72665942
38.405678 35.246609 -0.72772056
0.64066243 0.58105886 -0.011907464
0.64496058 0.57778388 -0.011921426
0.64699566 0.57249081 -0.011893502
0.64974314 0.56785232 -0.01187954
0.64261603 0.55471045 -0.011684069
0.64600754 0.55075699 -0.011684069
0.65090483 0.54807049 -0.011711994
0.65117967 0.54150981 -0.011656145
0.65526289 0.53813845 -0.011670107
0.65855247 0.53410769 -0.011670107
0.66181731 0.53005683 -0.011670107
0.67133266 0.53094649 -0.011781804
0.68009543 0.53112394 -0.01187954
0.70789289 0.54586297 -0.012312368
0.72077739 0.54877537 -0.012479913
0.72093344 0.54193991 -0.012424065
0.70416814 0.52261347 -0.012075011
0.70171452 0.51414758 -0.011977275
0.70647675 0.51100391 -0.0120052
0.70634323 0.50433612 -0.011949351
0.70533723 0.49711347 -0.01187954
0.70344836 0.48935151 -0.011795767
0.70313978 0.48276302 -0.011739918
0.7077446 0.47956088 -0.011767843
0.72646934 0.48576534 -0.012033124
0.72609729 0.47909674 -0.011977275
0.73237574 0.47681388 -0.012033124
0.72855616 0.46798959 -0.011921426
0.73141396 0.46351048 -0.011921426
0.73339629 0.45848405 -0.011907464
0.73193955 0.45135233 -0.011837654
0.7321319 0.44529462 -0.011795767
0.73056233 0.43822333 -0.011725956
0.73151606 0.43271476 -0.011698032
0.73242962 0.42721102 -0.011670107
0.73677105 0.42370534 -0.011698032
0.73500717 0.41671202 -0.011628221
0.74016911 0.41365698 -0.011670107
0.7461971 0.41103643 -0.011725956
0.74255294 0.40311235 -0.011628221
0.75823939 0.40561989 -0.011837654
0.77133 0.40655181 -0.0120052
0.77292252 0.4013508 -0.011991237
0.77982223 0.39887625 -0.012061048
0.78493428 0.39543274 -0.012102935
0.78734583 0.39060906 -0.012102935
0.79152483 0.38664791 -0.012130859
0.78847504 0.37918517 -0.012047086
0.78807521 0.37305731 -0.0120052
0.78763002 0.36694863 -0.011963313
0.7925939 0.36335829 -0.0120052
0.79936641 0.3605426 -0.012075011
0.80156356 0.35563099 -0.012075011
0.80373067 0.35070598 -0.012075011
0.81046236 0.34773794 -0.012144822
0.81995195 0.34586555 -0.012256519
0.82482994 0.34197608 -0.012298405
0.82413447 0.33577743 -0.012256519
0.82339406 0.32960024 -0.012214633
0.82819289 0.32563877 -0.012256519
0.83204114 0.32127079 -0.012284443
0.82932144 0.31438839 -0.012214633
0.8218627 0.30580926 -0.012075011
0.82466298 0.30110335 -0.012088973
0.83120215 0.29772231 -0.012158783
0.79338735 0.27870819 -0.011572372
0.78184569 0.26927984 -0.011376902
3.2459502 1.0949838 -0.047664609
3.2630513 1.0784974 -0.047818191
3.2705586 1.0587633 -0.047832154
3.2665086 1.0353529 -0.047678571
3.2670698 1.0135133 -0.047594797
3.283752 0.99664158 -0.047748383
0.73517179 0.21839291 -0.01053917
0.70000607 0.20329215 -0.010008608
0.68969619 0.1957211 -0.0098410612
0.68335855 0.1848951 -0.0097154016
0.70139885 0.1577931 -0.009868986
0.70506006 0.14053239 -0.009868986
0.7297492 0.12230321 -0.010162191
0.71962678 0.1160751 -0.010008608
0.68672848 0.10646002 -0.0095338933
0.73484403 0.10929058 -0.010204079
0.70580226 0.10055784 -0.0097852126
0.69253492 0.094340146 -0.0095897419
0.69905031 0.090860456 -0.0096735153
3.4018257 0.42008233 -0.047692534
3.4261875 0.40176174 -0.047999702
3.4385262 0.38183442 -0.048139323
3.4517436 0.36187494 -0.048292909
3.4648449 0.34176761 -0.048446491
3.4828074 0.321973 -0.048669886
3.4946795 0.30145553 -0.048809506
3.4874926 0.2792891 -0.048683848
3.4961212 0.25840047 -0.048781585
3.5096123 0.23775405 -0.04894913
3.515995 0.21652196 -0.049018942
3.5202525 0.19510996 -0.049060825
3.5313706 0.17399786 -0.049200449
3.5433605 0.15279968 -0.049354032
3.5562217 0.13149779 -0.04952158
3.5589607 0.10973624 -0.049549505
3.5625658 0.087970674 -0.049591389
3.5840328 0.066497743 -0.049884595
3.5923722 0.0446041 -0.049996294
3.6025767 0.022623049 -0.050135914
3.5080323 -0.0070206947 -0.11658157
3.5079234 -0.028545445 -0.11658157
3.5116794 -0.050125439 -0.11671488
3.5532737 -0.072520629 -0.11811472
3.5537612 -0.094348088 -0.11814805
3.5780883 -0.11696358 -0.11898129
3.6132565 -0.14030574 -0.12018116
3.6243088 -0.16301036 -0.12058112
3.6481941 -0.18651697 -0.12141436
3.6739221 -0.21043673 -0.12231426
3.679544 -0.23341721 -0.12254757
3.6770453 -0.25592086 -0.12251423
3.6933446 -0.27983397 -0.12311417
3.7045074 -0.30354944 -0.12354745
3.7125311 -0.32714975 -0.12388075
3.7223947 -0.35104725 -0.12428071
3.7201705 -0.37388083 -0.12428071
3.7744541 -0.40273485 -0.12618048
3.763967 -0.42499119 -0.12591386
3.7722054 -0.44937706 -0.12628049
3.8110285 -0.47772846 -0.12768033
3.8704534 -0.50930774 -0.12978008
3.8692358 -0.53331947 -0.12984675
3.9222779 -0.56516606 -0.13174655
3.9226899 -0.58981591 -0.13187985
3.9377582 -0.61680955 -0.13251312
3.9486964 -0.64336807 -0.13301307
3.9515727 -0.66875094 -0.13324638
3.9572392 -0.69471133 -0.13357967
3.9725683 -0.72255319 -0.13424626
3.9975269 -0.75245649 -0.13524614
4.0320778 -0.78460056 -0.13657933
4.0458055 -0.81306463 -0.13721259
4.0701003 -0.84395701 -0.13821249
4.0912347 -0.87455165 -0.13911238
4.1082416 -0.90457815 -0.13987896
4.1513524 -0.94080633 -0.14154544
4.1785965 -0.97396952 -0.14267865
4.2240562 -1.0119234 -0.14444512
4.2459135 -1.0447437 -0.14541169
4.2471752 -1.0727334 -0.14567831
4.2705069 -1.1065403 -0.14671153
4.2974458 -1.1416996 -0.14787807
4.3742609 -1.1908756 -0.15077774
4.3659091 -1.2174248 -0.15074442
4.3545122 -1.2430937 -0.1506111
4.3727064 -1.2773521 -0.151511
4.4011774 -1.315026 -0.15277752
4.3901577 -1.3411309 -0.15267754
4.5230489 -1.4121056 -0.15761033
4.500968 -1.4355819 -0.15714371
4.4958763 -1.4644098 -0.15727702
4.5143104 -1.5011102 -0.15824358
4.5428739 -1.541623 -0.15957677
4.611722 -1.5965967 -0.16234313
4.6348248 -1.6365058 -0.16350967
4.6660738 -1.679804 -0.16497616
4.7917347 -1.7583081 -0.16980895
5.6543155 -2.1141574 -0.20090549
5.7934823 -2.2067852 -0.20633821
5.8636961 -2.2748168 -0.20933789
5.8682194 -2.3180947 -0.21000448
14.251647 -5.7300963 -0.51183748
14.193094 -5.8079729 -0.51100421
14.113825 -5.8768959 -0.50943774
14.060933 -5.9563694 -0.50883782
13.941511 -6.0069442 -0.50583816
13.873266 -6.0787377 -0.50470495
13.81197 -6.1531744 -0.50383836
13.736626 -6.2209044 -0.50247186
13.686394 -6.2996416 -0.5020386
13.623038 -6.3720694 -0.50113869
13.571046 -6.449533 -0.50067204
13.506915 -6.5209513 -0.49977216
13.434343 -6.5878649 -0.49857229
13.370407 -6.6585894 -0.49770573
13.282027 -6.7166014 -0.49593925
13.21567 -6.7851915 -0.49500602
13.146312 -6.8518353 -0.49397281
12.922029 -6.8361015 -0.48710689
12.350616 -6.6311474 -0.46707579
12.801184 -6.9745564 -0.48574039
12.748527 -7.0476537 -0.48537377
12.616999 -7.0763688 -0.48200747
12.519482 -7.1230121 -0.47994104
12.444376 -7.1817131 -0.47874117
12.313818 -7.2074523 -0.4754082
12.232405 -7.2609386 -0.47397503
12.161933 -7.3203969 -0.47297513
12.098018 -7.38343 -0.47224188
12.030388 -7.443851 -0.47137532
11.944693 -7.4925685 -0.46980882
11.840299 -7.5287185 -0.46750909
11.746835 -7.570909 -0.46564263
11.672545 -7.6248083 -0.46454275
10.739638 -7.1098647 -0.42911336
10.775491 -7.2290778 -0.43231302
11.240096 -7.6411595 -0.45284405
11.076118 -7.6294823 -0.44811124
11.018441 -7.6898651 -0.44767797
10.980843 -7.7642517 -0.44807792
10.883431 -7.7959828 -0.4460448
10.790091 -7.8297467 -0.44417834
10.647622 -7.8265543 -0.4402788
10.573745 -7.8726411 -0.43921223
10.504492 -7.9217272 -0.43834567
10.462836 -7.9914918 -0.43864563
10.383563 -8.0323038 -0.43737912
10.27822 -8.0521059 -0.4350127
10.194168 -8.0876904 -0.43354622
10.083576 -8.1012669 -0.4309465
10.017396 -8.1497402 -0.43024656
9.9386597 -8.187542 -0.42901337
9.8636742 -8.2278852 -0.42794684
9.7740602 -8.2553644 -0.42624703
9.7452507 -8.3340178 -0.42721358
9.5821028 -8.2968378 -0.42228079
9.5798655 -8.3982983 -0.42444721
9.0774021 -8.0568876 -0.40434948
9.447834 -8.4898424 -0.4231807
9.3829947 -8.5362206 -0.4226141
9.334116 -8.5970182 -0.42278075
9.3097 -8.6807098 -0.42408061
8.6777163 -8.1915941 -0.39755023
8.7573566 -8.3689699 -0.40354955
9.0527992 -8.7581797 -0.41964775
9.0017462 -8.8163586 -0.41978109
8.5471764 -8.4745655 -0.40098318
8.6614971 -8.6939373 -0.40884897
8.7545137 -8.895793 -0.41581485
8.7060356 -8.9557915 -0.41611481
8.6384592 -8.996067 -0.41551489
8.54389 -9.0075712 -0.41361511
8.4741096 -9.0445108 -0.41291517
8.4069128 -9.0838671 -0.41234857
8.3483191 -9.1323299 -0.41221526
8.2800694 -9.1700306 -0.41161531
8.21766 -9.2139511 -0.41131535
8.1332216 -9.2327032 -0.40991551
8.0442696 -9.2454901 -0.40828237
7.9717546 -9.2764826 -0.40748245
7.8875208 -9.2932205 -0.4060826
7.8393393 -9.3521643 -0.40654922
7.7728844 -9.3893127 -0.4060826
7.6923518 -9.4089746 -0.40488273
7.1428461 -8.8471375 -0.37878564
7.1027584 -8.9087725 -0.37955225
7.4442835 -9.4555283 -0.40091652
7.3622007 -9.4702559 -0.39961666
7.2960415 -9.5049438 -0.39918336
6.7449403 -8.8995953 -0.37198642
6.8405132 -9.1416597 -0.38035214
7.0076017 -9.4857044 -0.39288408
6.9439659 -9.5212564 -0.39258412
6.8766541 -9.5515184 -0.39208415
6.7889671 -9.5528011 -0.3904177
6.7250581 -9.5869141 -0.3901177
6.578486 -9.5014591 -0.38498497
6.5460029 -9.5796022 -0.38651812
6.4753637 -9.6021872 -0.38581821
6.4179859 -9.6442347 -0.3859182
6.3586888 -9.6834326 -0.3859182
6.2573032 -9.6576824 -0.3833518
6.1898518 -9.6832638 -0.38285187
6.1255212 -9.7134542 -0.38255191
6.0172324 -9.6727839 -0.37948558
5.9792004 -9.7444487 -0.38085207
5.9565582 -9.842515 -0.38325182
5.5815268 -9.3519535 -0.36278743
5.5240393 -9.3860245 -0.36278743
5.7482929 -9.9055395 -0.38151869
5.6799598 -9.9276114 -0.38101873
5.5919309 -9.9143982 -0.37918562
5.5494485 -9.9817162 -0.38045213
5.4885774 -10.016456 -0.38048545
5.4241648 -10.044668 -0.38028547
5.3553867 -10.064527 -0.37978554
5.2833204 -10.077724 -0.37905228
5.2154226 -10.098409 -0.37861902
5.1483765 -10.12042 -0.37825239
5.0861821 -10.15182 -0.37825239
4.7336807 -9.594882 -0.35638815
4.8529086 -9.9905262 -0.36998662
4.7699556 -9.9750338 -0.36832014
4.7107892 -10.008635 -0.36848679
4.7471762 -10.24865 -0.37625259
4.6717658 -10.250302 -0.37525272
4.5952878 -10.24868 -0.37415284
4.5194092 -10.247421 -0.37308627
4.4667883 -10.298799 -0.37395287
4.3568516 -10.216614 -0.36998662
4.0390205 -9.6348286 -0.34798908
4.0921602 -9.9320278 -0.35782132
4.1387997 -10.22282 -0.36738691
4.0782123 -10.253595 -0.36758691
4.0075827 -10.258877 -0.36688697
3.9384739 -10.26741 -0.36632037
3.8193893 -10.142669 -0.36102095
3.5883265 -9.7093763 -0.34478945
3.5573075 -9.8101339 -0.34758914
3.6906726 -10.376039 -0.36685365
3.5601077 -10.206924 -0.36008772
3.5229619 -10.303285 -0.36272079
3.4685683 -10.351241 -0.36365402
3.3912709 -10.330548 -0.3621875
3.3217008 -10.332132 -0.36152092
3.2684453 -10.384732 -0.36265412
3.2087836 -10.417964 -0.36312073
3.1430697 -10.431715 -0.36292076
3.074765 -10.436424 -0.3624208
2.8510599 -9.9009428 -0.34318963
2.9545844 -10.502233 -0.3634207
2.8837326 -10.497035 -0.3626208
2.8135738 -10.493294 -0.36188754
2.7433171 -10.488121 -0.36112094
2.6754529 -10.491199 -0.36065432
2.6177802 -10.534575 -0.36158755
2.5596755 -10.577639 -0.36252078
2.4899118 -10.572717 -0.36182088
2.4180729 -10.557594 -0.36078766
2.3556366 -10.582964 -0.36115429
2.2915013 -10.601126 -0.36128759
2.0807047 -9.9205017 -0.33762357
2.1618345 -10.631386 -0.36138758
2.0899918 -10.611111 -0.36025438
2.0197899 -10.597227 -0.3593545
1.9498374 -10.582883 -0.35845459
1.8846904 -10.593663 -0.35842127
1.8203297 -10.608969 -0.35855457
1.7540587 -10.613035 -0.35832128
1.6865507 -10.608793 -0.35782132
1.6185572 -10.60017 -0.35718805
1.5549339 -10.619792 -0.35752136
1.4930735 -10.652885 -0.35832128
1.4252919 -10.644016 -0.35772133
1.358435 -10.640665 -0.35732138
1.289865 -10.622011 -0.35642147
1.2244364 -10.62774 -0.35635483
1.1624534 -10.66486 -0.3573547
1.0972999 -10.674775 -0.35745469
1.0283184 -10.645493 -0.35625482
0.96081835 -10.627714 -0.35545492
0.89399505 -10.614487 -0.35482165
0.82402354 -10.557995 -0.35275522
0.75764769 -10.540921 -0.35202196
0.69203722 -10.531409 -0.35155535
0.62776154 -10.541444 -0.35175532
0.56242841 -10.53312 -0.35135537
0.49703217 -10.5204 -0.35082209
0.43218318 -10.516262 -0.3505888
0.36768344 -10.519713 -0.35062212
0.30324411 -10.525768 -0.35075545
0.23910777 -10.547415 -0.35142204
0.17458454 -10.560676 -0.35182199
0.10988666 -10.571542 -0.3521553
0.045161299 -10.604998 -0.35325515
-0.019974127 -10.640056 -0.35442171
-0.085045323 -10.612749 -0.35352179
-0.15026088 -10.619022 -0.35375512
-0.21583958 -10.638885 -0.35445502
-0.28100914 -10.633365 -0.35432172
-0.34533972 -10.60347 -0.35338849
-0.40993166 -10.589168 -0.35298854
-0.47400331 -10.566483 -0.35232192
-0.53903252 -10.567369 -0.35245526
-0.60403347 -10.566855 -0.35255525
-0.66936386 -10.57093 -0.35282189
-0.73497468 -10.577592 -0.35318851
-0.80076772 -10.584842 -0.35358846
-0.86708462 -10.596663 -0.35415506
-0.93313885 -10.60309 -0.35455501
-0.99668199 -10.581245 -0.35402176
-1.0579969 -10.53913 -0.35282189
-1.1249729 -10.554303 -0.35355514
-1.192399 -10.571038 -0.35435504
-1.2586558 -10.575432 -0.35475498
-1.3222803 -10.557592 -0.35442171
-1.3862542 -10.543335 -0.35422173
-1.452284 -10.544532 -0.35455501
-1.5116886 -10.49882 -0.35332182
-1.5771189 -10.496265 -0.35355514
-1.6447376 -10.507127 -0.35425505
-1.711104 -10.508675 -0.354655
-1.7742189 -10.490094 -0.35438836
-1.8323359 -10.443571 -0.35318851
-1.9013853 -10.459664 -0.35412174
-1.9732872 -10.489055 -0.35552159
-2.0303614 -10.439468 -0.35425505
-2.0861144 -10.385659 -0.35285521
-2.1475699 -10.361898 -0.35248858
-2.2228 -10.40326 -0.35435504
-2.2885244 -10.39821 -0.354655
-2.3533874 -10.388846 -0.35482165
-2.4043911 -10.3197 -0.35295519
-2.4674335 -10.303782 -0.35292187
-2.5329964 -10.298153 -0.35325515
-2.5954034 -10.27951 -0.35315517
-2.6546702 -10.248878 -0.35265523
-2.7123766 -10.213077 -0.35198864
-2.7710557 -10.181776 -0.35148868
-2.8345509 -10.168432 -0.35162202
-2.9021001 -10.169109 -0.35225528
-2.9686437 -10.165502 -0.35275522
-3.0415435 -10.182528 -0.35398841
-3.1001711 -10.151248 -0.35355514
-3.1713312 -10.160656 -0.35455501
-3.2369552 -10.151481 -0.35492164
-3.2985637 -10.129528 -0.35485497
-3.3593943 -10.105304 -0.35472167
-3.4255095 -10.096805 -0.35515496
-3.4854369 -10.069929 -0.35495499
-3.551816 -10.061547 -0.3554216
-3.6263454 -10.0753 -0.35668811
-3.6991115 -10.082886 -0.35775465
-3.7644086 -10.069361 -0.35808796
-3.8250551 -10.043271 -0.35798797
-3.8902214 -10.02893 -0.35832128
-3.9557226 -10.015097 -0.35868788
-4.0215731 -10.001764 -0.35908785
-4.0893011 -9.9926252 -0.35965446
-4.1536112 -9.9747267 -0.3599211
-4.0377669 -9.5312386 -0.34478945
-4.180007 -9.7008762 -0.35185531
-4.3397179 -9.9039059 -0.36018771
-4.3975587 -9.8707008 -0.35995442
-4.4596906 -9.8471737 -0.36008772
-4.5292206 -9.8395987 -0.36082098
-4.6068697 -9.8487406 -0.3621875
-4.6560607 -9.7968168 -0.36132094
-4.7152162 -9.766264 -0.36125427
-4.7697721 -9.7263794 -0.36085433
-4.8418365 -9.7219801 -0.36178756
-4.9135747 -9.7161694 -0.36268744
-4.9817719 -9.7027311 -0.36332071
-5.0495272 -9.6879349 -0.36392063
-5.1018662 -9.6435165 -0.3634207
-5.1425052 -9.5776882 -0.36212084
-5.1916132 -9.5284014 -0.36145425
-5.233058 -9.4657516 -0.36028773
-5.305706 -9.4596157 -0.36128759
-5.3473406 -9.3982153 -0.36018771
-5.4014101 -9.3591681 -0.35995442
-5.4168339 -9.2542562 -0.35718805
-5.5525827 -9.3540611 -0.36235416
-5.6114192 -9.3223839 -0.36245415
-5.6695561 -9.289484 -0.36252078
-5.7253966 -9.252821 -0.36245415
-5.7926841 -9.2344503 -0.36312073
-5.8567438 -9.2105417 -0.36358735
-5.9126067 -9.1735916 -0.363554
-5.9747958 -9.1463442 -0.36392063
-6.038528 -9.1211786 -0.36438724
-6.1005049 -9.0930853 -0.36475387
-6.1589932 -9.0596151 -0.36492053
-6.2150335 -9.0224771 -0.36495385
-6.2868638 -9.0079403 -0.36592042
-6.3535566 -8.9855175 -0.36658701
-6.4097352 -8.9479885 -0.36665368
-6.4756699 -8.9238605 -0.36728692
-6.5456934 -8.9048967 -0.36815351
-6.6354222 -8.9118652 -0.37011996
-6.6990056 -8.8829527 -0.37061989
-6.7618766 -8.8528013 -0.37108651
-6.8289104 -8.8277464 -0.37178642
-6.9051352 -8.814003 -0.37298629
-6.9907646 -8.8114014 -0.37468609
-7.0590954 -8.7862616 -0.3754527
-7.129272 -8.7629404 -0.37631926
-7.194344 -8.7329168 -0.37691918
-7.2439523 -8.6840038 -0.37671921
-7.2745295 -8.6126671 -0.37555268
-7.3408794 -8.5838213 -0.37625259
-7.4084568 -8.5559959 -0.37701917
-7.4799209 -8.5321722 -0.37798575
-7.5400934 -8.4950867 -0.37838569
-7.6020961 -8.4598131 -0.37888563
-7.6982484 -8.4618025 -0.3810854
-7.7920017 -8.4599886 -0.38315183
-7.8764791 -8.4471073 -0.38475165
-7.9439397 -8.4153366 -0.38551822
-8.0078545 -8.3794413 -0.38611817
-8.063983 -8.3351765 -0.38635147
-8.1394501 -8.3105326 -0.38751802
-8.2036581 -8.2739191 -0.38815126
-8.2648916 -8.2340078 -0.38865122
-8.3401899 -8.2076778 -0.38981774
-8.3946934 -8.1605291 -0.39001772
-8.474884 -8.1379423 -0.39141756
-8.5478611 -8.1077986 -0.39248413
-8.5981779 -8.0558805 -0.39251745
-8.6665163 -8.0206232 -0.39338401
-8.756875 -8.0050602 -0.39525047
-8.8206635 -7.9645753 -0.39591706
-8.9185925 -7.9542112 -0.39811683
-8.9717302 -7.9033022 -0.3983168
-9.0419207 -7.8671298 -0.39928335
-9.1120033 -7.8303928 -0.40024993
-9.1941662 -7.8034406 -0.40174976
-9.2556601 -7.7584367 -0.40234968
-9.2769165 -7.6798282 -0.40121648
-9.3029737 -7.6056805 -0.4003166
-9.3696833 -7.5647798 -0.40118316
-9.4549961 -7.538301 -0.40284964
-9.5466166 -7.516005 -0.40478274
-9.6083345 -7.4695559 -0.40544933
-9.6666698 -7.420197 -0.40598261
-9.8131723 -7.4374175 -0.41021547
-9.8754263 -7.3896403 -0.4109154
-9.9374628 -7.3413792 -0.41161531
-9.9572906 -7.2620077 -0.4105821
-10.026805 -7.2188783 -0.41161531
-10.086389 -7.1682205 -0.41224858
-10.146545 -7.1176763 -0.41291517
-10.224538 -7.0791812 -0.41431502
-10.299139 -7.0377407 -0.41558155
-10.360357 -6.9867082 -0.41631481
-10.444633 -6.9506946 -0.41798127
-10.547233 -6.9259782 -0.42038101
-10.656631 -6.9046111 -0.42304739
-10.702165 -6.8412466 -0.4231807
-10.749858 -6.7791824 -0.42341399
-10.820952 -6.7315741 -0.42458054
-10.902942 -6.6901431 -0.42618036
-10.995943 -6.6546865 -0.42821348
-11.0503 -6.5952878 -0.42874673
-11.081084 -6.5217838 -0.42838013
-11.139046 -6.4642038 -0.42908004
-11.219271 -6.4190636 -0.43064654
-11.24887 -6.3447018 -0.43027991
-11.313794 -6.2901311 -0.43127981
-11.382853 -6.2374039 -0.43244633
-11.464879 -6.1911893 -0.43411282
-11.560883 -6.1517148 -0.43631256
-11.619656 -6.0918016 -0.43711248
-11.69411 -6.0396543 -0.43851233
-11.738966 -5.9718657 -0.43881229
-11.800406 -5.912261 -0.43974552
-11.892031 -5.8671632 -0.44181195
-11.998825 -5.8285871 -0.44444498
-12.059608 -5.7669282 -0.44537821
-11.943755 -5.6217356 -0.43981218
-11.945378 -5.5332198 -0.43861231
-12.076412 -5.5041766 -0.44217858
-12.257692 -5.4962249 -0.44757798
-12.337822 -5.4414811 -0.44927779
-12.398484 -5.3776073 -0.45027769
-12.471698 -5.3186827 -0.45174417
-12.515158 -5.246695 -0.45214415
-12.565597 -5.1774211 -0.45281073
-12.576748 -5.0919695 -0.45207748
-12.640259 -5.0276341 -0.453244
-12.751859 -4.9816241 -0.45614368
-12.838173 -4.9247661 -0.45814347
-12.899949 -4.8578773 -0.45927668
-12.951076 -4.786603 -0.46004325
-13.00463 -4.7159066 -0.46090981
-13.059687 -4.6454029 -0.46184304
-13.13041 -4.5799971 -0.46334288
-13.18569 -4.5087233 -0.46430945
-13.212159 -4.4274144 -0.46427611
-13.264714 -4.3546815 -0.46517602
-13.312117 -4.2799392 -0.46590927
-13.340034 -4.1987777 -0.46597591
-13.326385 -4.1047812 -0.46460941
-13.496775 -4.0667696 -0.46967551
-13.594335 -4.0053487 -0.47220856
-13.621535 -3.9226899 -0.47230855
-13.635728 -3.836329 -0.47197527
-13.781404 -3.786221 -0.47620812
-5.7264948 -1.5351435 -0.19730589
-5.6758585 -1.4842935 -0.19523945
-5.6606483 -1.4432633 -0.19440621
-5.6276903 -1.3981365 -0.19297305
-5.5885653 -1.3520579 -0.1913399
-5.5753541 -1.3127002 -0.19060664
-5.5443354 -1.2695382 -0.18927346
-5.5315342 -1.2309334 -0.18857354
-5.5194454 -1.1927451 -0.18790694
-5.4894905 -1.1510576 -0.18664041
-5.4700065 -1.1119742 -0.18574052
-5.4698625 -1.0770376 -0.18550721
-5.4616413 -1.0406471 -0.18500726
-5.448266 -1.0034925 -0.18434067
-5.4405451 -0.967592 -0.18387406
-5.4325891 -0.93182415 -0.18340744
-5.4165111 -0.8948862 -0.18267418
-5.4041338 -0.85880864 -0.18207426
-5.4260969 -0.82819897 -0.18264087
-5.4103103 -0.79184759 -0.18194094
-5.3893328 -0.75502723 -0.18107437
-5.3998075 -0.72274095 -0.18127435
-5.394227 -0.68832844 -0.18094105
-5.3873744 -0.62036443 -0.18044111
-5.4119439 -0.58957195 -0.18114103
-5.4065123 -0.55543345 -0.18084106
-5.4287195 -0.52407622 -0.18147433
-5.4318333 -0.49075633 -0.18147433
-5.4486852 -0.45859322 -0.18194094
-5.4663424 -0.42631948 -0.18244088
-5.4618773 -0.3922686 -0.18220757
-5.4611897 -0.358551 -0.18210758
-5.4523125 -0.32438079 -0.18174095
-5.4761562 -0.29209369 -0.18247421
-5.4778457 -0.25848711 -0.18247421
-5.4663472 -0.22433652 -0.18204093
-5.4955873 -0.19177064 -0.18297416
-5.5196385 -0.15871014 -0.18374074
-5.4855371 -0.12404434 -0.1825742
-5.4282355 -0.08942166 -0.18064108
-5.4656591 -0.056499582 -0.18187428
-5.4629045 -0.022948911 -0.18177429
-5.4649415 0.010574901 -0.18184096
-5.467772 0.044130798 -0.18194094
-5.4673977 0.077679582 -0.18194094
-5.4778099 0.11144777 -0.18230757
-5.4830179 0.14521493 -0.18250754
-5.4860196 0.17898525 -0.18264087
-5.484818 0.21264346 -0.18264087
-5.4834099 0.24629368 -0.18264087
-5.4847898 0.28008717 -0.18274085
-5.4969373 0.31453359 -0.18320747
-5.5018864 0.34869793 -0.18344077
-5.5126047 0.38335016 -0.18387406
-5.5300803 0.41867432 -0.18454064
-5.5363722 0.45333138 -0.18484062
-5.5444384 0.48825651 -0.18520725
-5.5542741 0.523485 -0.18564053
-5.5658741 0.55905211 -0.18614048
-5.5782394 0.59488702 -0.18667375
-5.6261292 0.63492548 -0.18840688
-5.638999 0.67144173 -0.18897349
-5.65064 0.70801562 -0.18950677
-5.6828532 0.74749237 -0.19073996
-5.6979618 0.78507376 -0.19140655
-5.7237043 0.82443464 -0.19243976
-5.7353401 0.86206275 -0.19300637
-5.7832637 0.90558118 -0.19480617
-21.501818 3.5004048 -0.72608024
-21.475994 3.6316051 -0.7259469
-21.72402 3.810791 -0.73511255
-21.702194 3.9443727 -0.73517925
-21.973234 4.1330619 -0.74521142
-22.078924 4.2933693 -0.7496776
-22.040407 4.4264011 -0.74927765
-22.193884 4.5990677 -0.75544363
-22.087055 4.7184587 -0.75277728
-22.166033 4.8777323 -0.75647688
-22.108395 5.0074677 -0.75554365
-22.274851 5.1890535 -0.76230955
-22.347565 5.3507628 -0.76590914
-22.474451 5.5271621 -0.7714085
-22.667839 5.7224417 -0.77924097
-22.919659 5.9358335 -0.78913987
-22.916615 6.085331 -0.79030639
-23.150799 6.2998271 -0.79970539
-23.291744 6.4919333 -0.80593801
-23.715677 6.7671733 -0.82203621
-24.044994 7.0209646 -0.83493477
-24.396971 7.2864828 -0.84869993
-24.394817 7.4491768 -0.85019976
-24.777029 7.7323966 -0.86516476
-24.792917 7.9046183 -0.86739784
