# .PCD v0.7 - Point Cloud Data file format
VERSION 0.7
FIELDS x y z
SIZE 4 4 4
TYPE F F F
COUNT 1 1 1
WIDTH 1443
HEIGHT 1
VIEWPOINT 0 0 0 1 0 0 0
POINTS 1443
DATA ascii
-0.81012964 2.765624 -0.74108386
-0.78914464 2.7565811 -0.73733324
-0.769867 2.7529798 -0.73508281
-0.75245005 2.7557838 -0.73458272
-0.72854054 2.7341537 -0.72758156
-0.7127254 2.7423205 -0.72858173
-0.70135957 2.7682283 -0.73433268
-0.6852898 2.7762396 -0.73533285
-0.6639393 2.762506 -0.73058206
-0.6487419 2.7740698 -0.73258239
-0.63256794 2.7817745 -0.73358256
-0.61799663 2.7969482 -0.73658311
-0.60143316 2.8035274 -0.73733324
-0.58303475 2.8014779 -0.73583299
-0.57196766 2.8353729 -0.74383432
-0.55381602 2.8350282 -0.74283415
-0.52920985 2.8003187 -0.73283243
-0.51236576 2.805418 -0.73333251
-0.49733058 2.8209045 -0.73658311
-0.4780629 2.8124487 -0.73358256
-0.46095362 2.8162847 -0.7338326
-0.44411674 2.8219292 -0.73458272
-0.42751774 2.8293879 -0.73583299
-0.41042686 2.8338742 -0.73633307
-0.39196596 2.8286667 -0.73433268
-0.37485662 2.8329384 -0.73483276
-0.35686031 2.8303821 -0.73358256
-0.33729345 2.8142533 -0.72883177
-0.32210031 2.8345482 -0.73358256
-0.30345824 2.8249192 -0.73058206
-0.28660777 2.8315444 -0.73183227
-0.26876929 2.8284304 -0.73058206
-0.25261179 2.843528 -0.73408264
-0.2359592 2.8546739 -0.73658311
-0.2171059 2.8386908 -0.73208231
-0.20050144 2.8515594 -0.73508281
-0.18244106 2.8440399 -0.73283243
-0.16431169 2.8335066 -0.72983193
-0.1463185 2.8228583 -0.72683144
-0.13112633 2.8701293 -0.73883349
-0.11258987 2.8476605 -0.73283243
-0.094822071 2.8395886 -0.73058206
-0.077343717 2.8381813 -0.73008198
-0.059968807 2.8405385 -0.73058206
-0.042773854 2.856343 -0.73458272
-0.025308259 2.8633289 -0.73633307
-0.007758541 2.870208 -0.73808336
0.0098777534 2.8779473 -0.74008369
0.027663039 2.8913872 -0.74358428
0.0456586 2.9076211 -0.74783498
0.063686959 2.9159985 -0.75008535
0.081416756 2.9097455 -0.7485851
0.098055147 2.8733871 -0.73933357
0.11471542 2.8485448 -0.73308247
0.13183415 2.8400497 -0.73108214
0.15168743 2.8855991 -0.74308419
0.16814624 2.8633492 -0.73758328
0.18664941 2.8767567 -0.7413339
0.20491298 2.8842497 -0.74358428
0.22111997 2.8636305 -0.73858345
0.24021149 2.880553 -0.74333423
0.25796786 2.8799891 -0.74358428
0.2728717 2.8494368 -0.73608303
0.29280034 2.8717904 -0.74233407
0.30522045 2.8218076 -0.72983193
0.32252899 2.8198817 -0.72983193
0.33901539 2.8111205 -0.72808164
0.35492003 2.7984211 -0.72533119
0.37450665 2.8144269 -0.73008198
0.39416954 2.8293383 -0.73458272
0.41389021 2.8431554 -0.73883349
0.4310374 2.8386476 -0.7383334
0.4457286 2.8187344 -0.7338326
0.46568263 2.8321888 -0.73808336
0.48240092 2.8254604 -0.7370832
0.49686241 2.8062387 -0.73283243
0.51442069 2.805042 -0.73333251
0.53504777 2.8199074 -0.73808336
0.5508514 2.80897 -0.73608303
0.56788462 2.8045881 -0.73583299
0.58508253 2.8010507 -0.73583299
0.60124058 2.7926753 -0.73458272
0.62066793 2.7993319 -0.73733324
0.64213616 2.8143513 -0.74233407
0.6609394 2.816957 -0.74408436
0.6675545 2.7686071 -0.73233235
0.68243712 2.7559998 -0.73008198
0.69861996 2.748945 -0.72933185
0.72474718 2.7802119 -0.73883349
0.73779619 2.7607453 -0.73483276
0.75012273 2.7393558 -0.73033202
0.77109677 2.7496188 -0.73433268
0.79462737 2.7681034 -0.74058378
0.81077921 2.7603884 -0.73983365
0.82408279 2.7433059 -0.73658311
0.8497051 2.7668924 -0.7443344
0.85942364 2.7385297 -0.73808336
0.87532467 2.7304387 -0.73733324
0.8914597 2.7231758 -0.73683316
0.91305882 2.7323489 -0.74083382
0.91887647 2.694618 -0.73208231
0.94397682 2.7136221 -0.73883349
0.95640373 2.6959152 -0.73558295
0.97358578 2.6918173 -0.73608303
0.99309641 2.6939697 -0.7383334
1.007566 2.6823866 -0.73683316
1.0215851 2.6698232 -0.73508281
1.0390017 2.6662114 -0.73583299
1.0485607 2.6426847 -0.73108214
1.0651187 2.637099 -0.73133218
1.0890056 2.6493218 -0.73658311
1.0996401 2.6291897 -0.73283243
1.1233293 2.6402137 -0.73783332
1.1379708 2.6297166 -0.73683316
1.1423917 2.5960953 -0.72933185
1.1567186 2.5855012 -0.72833169
1.1749649 2.5836439 -0.72983193
1.1928259 2.5807807 -0.73108214
1.2069932 2.5699072 -0.73008198
1.2206552 2.5580831 -0.72883177
1.2375947 2.5531592 -0.72958189
1.2528099 2.5446486 -0.72933185
1.2744591 2.5490394 -0.73283243
1.290952 2.5428984 -0.73333251
1.3029834 2.5280433 -0.73133218
1.3081514 2.5002668 -0.72558123
1.3270994 2.4990349 -0.72758156
1.3492957 2.5036314 -0.73133218
1.3697405 2.5046508 -0.73408264
1.3738128 2.4758773 -0.72808164
1.3979994 2.4834342 -0.73283243
1.4016924 2.4546275 -0.72683144
1.4176975 2.4476566 -0.72733152
1.4375917 2.4472613 -0.72983193
1.4505994 2.4350667 -0.72883177
1.4575064 2.412858 -0.7248311
1.4657123 2.3931341 -0.72158056
1.4834322 2.3890319 -0.72308081
1.507344 2.3946359 -0.72758156
1.5256531 2.3910565 -0.72933185
1.5334625 2.3710797 -0.72608131
1.5522273 2.3681049 -0.72808164
1.5720841 2.3666024 -0.73058206
1.5687389 2.3304019 -0.72233069
1.5862811 2.3255324 -0.72383094
1.6054734 2.3229251 -0.72608131
1.6174755 2.3098574 -0.72508115
1.6439394 2.3172653 -0.73058206
1.6671653 2.3197165 -0.73458272
1.6694036 2.2930026 -0.72933185
1.6932082 2.2959657 -0.73358256
1.7124776 2.2925155 -0.73583299
1.7136633 2.2649751 -0.73033202
1.7281176 2.2551863 -0.73058206
1.7276797 2.2261791 -0.72458106
1.7323346 2.2041156 -0.72083044
1.7482374 2.1964755 -0.72183061
1.7580372 2.1811833 -0.72033036
1.7713877 2.1703551 -0.72033036
1.7994707 2.1773608 -0.72633135
1.8214939 2.176676 -0.72983193
1.8210489 2.1492035 -0.72433102
1.8360926 2.1401944 -0.72508115
1.8568072 2.1376615 -0.72808164
1.8596607 2.1145928 -0.72408098
1.8642325 2.0937397 -0.72083044
1.88547 2.0916126 -0.72408098
1.887828 2.0685592 -0.72008032
1.9096816 2.066895 -0.7235809
1.9236504 2.0565529 -0.72408098
1.9415576 2.0503366 -0.72608131
1.9440535 2.0278983 -0.72233069
1.9672464 2.027051 -0.72633135
1.9667572 2.0018167 -0.72158056
1.9749073 1.9855913 -0.72008032
1.9829323 1.9693414 -0.71858007
1.9894506 1.9517117 -0.71657974
2.0104258 1.9482293 -0.71983027
2.0300341 1.9432234 -0.72258073
2.0201144 1.9101039 -0.71482944
2.0346262 1.9003171 -0.71582961
2.0377104 1.8799167 -0.71282911
2.0577931 1.8752059 -0.71582961
2.0606263 1.8547693 -0.71282911
2.0734153 1.8433776 -0.7133292
2.0970526 1.8414843 -0.7175799
2.0892982 1.8120837 -0.71107882
2.1011128 1.7998599 -0.71132886
2.1128561 1.7875594 -0.71157891
2.1081846 1.7615205 -0.70632797
2.136873 1.7633462 -0.71232903
2.1431501 1.7465302 -0.71082878
2.180222 1.7545998 -0.71958023
2.1697264 1.7243172 -0.71257907
2.1848352 1.714559 -0.71407932
2.2006707 1.7052734 -0.71582961
2.1895652 1.6752595 -0.70882845
2.2005756 1.6623769 -0.70907849
2.2006464 1.6413153 -0.70582789
2.2247076 1.6381186 -0.7103287
2.2143579 1.6096306 -0.70382756
2.2328444 1.6022247 -0.70657802
2.259223 1.6002504 -0.71182895
2.3007355 1.6085567 -0.72183061
2.2970166 1.5850579 -0.7175799
2.3163011 1.5774763 -0.7205804
2.3074565 1.5508077 -0.71482944
2.3169286 1.5366203 -0.71482944
2.3109226 1.5122977 -0.71007866
2.3331709 1.5064961 -0.71407932
2.3456368 1.4942331 -0.71507949
2.3416462 1.4715664 -0.71107882
2.3506315 1.4571708 -0.71107882
2.3793509 1.4548467 -0.71707982
2.3816006 1.4362183 -0.71507949
2.3928645 1.4230634 -0.71582961
2.3856843 1.3990444 -0.71107882
2.3833287 1.3780768 -0.70782822
2.4001498 1.3682239 -0.7103287
2.4009042 1.3492004 -0.70807827
2.4218407 1.3414835 -0.71182895
2.4453216 1.3349527 -0.71632969
2.4125433 1.2978953 -0.70432764
2.4538209 1.3007612 -0.71407932
2.4394445 1.2740214 -0.70757818
2.4437726 1.2572567 -0.70657802
2.4574859 1.2453033 -0.70832831
2.470278 1.2327963 -0.70982862
2.4804025 1.2188975 -0.71057874
2.468662 1.1943736 -0.70507777
2.4864328 1.184202 -0.70807827
2.5015416 1.1726236 -0.7103287
2.5007777 1.1536005 -0.70807827
2.4928222 1.131428 -0.70382756
2.5253539 1.1275647 -0.71107882
2.5162694 1.1050367 -0.70657802
2.5327792 1.0938013 -0.70932853
2.5545924 1.0846763 -0.71357924
2.5522652 1.0652498 -0.71107882
2.5444219 1.0436869 -0.7070781
2.5525739 1.0287793 -0.70757818
2.5552378 1.0116711 -0.70657802
2.5505691 0.99176008 -0.70357752
2.5502751 0.97367257 -0.70182723
2.5462291 0.95426601 -0.69907677
2.5702093 0.94531333 -0.7040776
2.5741398 0.92886734 -0.70357752
2.5752275 0.91143888 -0.70232731
2.6027229 0.9032442 -0.70832831
2.5944676 0.88257664 -0.70457768
2.5750353 0.85836768 -0.69782656
2.5664485 0.83804005 -0.69407594
2.6277945 0.84027851 -0.70932853
2.6218133 0.82066548 -0.70632797
2.6166165 0.80144143 -0.70357752
2.6363239 0.78982043 -0.70757818
2.6364748 0.77226746 -0.70632797
2.6085863 0.74674189 -0.69757652
2.6289701 0.73515832 -0.70182723
2.6100819 0.71263236 -0.69557619
2.6331158 0.70159394 -0.70057702
2.6429935 0.68688679 -0.70207727
2.6274495 0.66565853 -0.6968264
2.6211448 0.64696962 -0.69407594
2.6250651 0.63087445 -0.69407594
2.6288867 0.61475545 -0.69407594
2.6439383 0.60119218 -0.69707644
2.6579766 0.5872581 -0.6998269
2.6198771 0.56199276 -0.68882507
2.633703 0.54807931 -0.69157553
2.6484051 0.53420895 -0.69457603
2.6554341 0.5186919 -0.69557619
2.6442964 0.4996886 -0.69182557
2.6368358 0.48153827 -0.68907511
2.6340199 0.46433994 -0.68757486
2.6425467 0.44914398 -0.68907511
2.6700952 0.43699291 -0.69557619
2.669857 0.42014906 -0.69482607
2.6637688 0.40245542 -0.69257569
2.6767282 0.38763216 -0.69532615
2.672343 0.370269 -0.69357586
2.6563277 0.35144761 -0.68882507
2.6469071 0.33368608 -0.68582457
2.6085289 0.31259045 -0.67532277
2.5651827 0.29143083 -0.66357082
1.9671772 0.21112485 -0.50779462
1.9703622 0.19924594 -0.5082947
1.9705838 0.18706046 -0.50804466
1.9668723 0.17453621 -0.50679445
1.9727309 0.16286428 -0.50804466
1.9717622 0.15060867 -0.50754458
1.9938977 0.14000608 -0.51304549
1.9831244 0.12702276 -0.51004499
1.9828998 0.11479587 -0.50979495
1.9942031 0.10318056 -0.51254541
1.9947985 0.090942428 -0.51254541
2.6338496 0.10408877 -0.67757314
2.6383095 0.088055931 -0.67857331
2.6581576 0.072397739 -0.6835742
2.6566157 0.056044918 -0.68307412
2.6278658 0.039301816 -0.67557281
2.6270893 0.023168022 -0.67532277
2.3743131 0.0046789073 -0.65330875
2.3010478 -0.009576072 -0.63304979
2.0474756 -0.021054251 -0.56294304
1.9779226 -0.032468267 -0.54375029
1.9747953 -0.04453836 -0.54295063
1.986046 -0.056987979 -0.54614937
1.9288285 -0.067185387 -0.53042203
1.9168239 -0.078544006 -0.52722323
1.9644428 -0.09257929 -0.54055148
1.961913 -0.10452831 -0.54001838
1.9775906 -0.11753882 -0.54455
2.0864706 -0.13687798 -0.57493848
2.3836052 -0.17110501 -0.65757382
2.4017284 -0.18722765 -0.6629051
2.4303074 -0.20446913 -0.67116863
2.4251673 -0.21903017 -0.67010236
2.460233 -0.23742887 -0.68023187
2.4472249 -0.25133717 -0.67703307
2.456176 -0.26749739 -0.67996532
2.453531 -0.28245282 -0.67969871
2.4498382 -0.29726967 -0.6791656
2.4565725 -0.3133947 -0.68156469
2.4546032 -0.32846203 -0.68156469
2.4496782 -0.3431156 -0.68076497
2.4503877 -0.35855907 -0.68156469
2.4490943 -0.37373307 -0.68183124
2.4410439 -0.38784534 -0.68023187
2.4348145 -0.40218729 -0.6791656
2.4218516 -0.4153263 -0.67623341
2.4221044 -0.43068519 -0.67703307
2.4165726 -0.44501486 -0.67623341
2.4185302 -0.46073666 -0.67756623
2.4270055 -0.47780314 -0.68076497
2.4315841 -0.49422261 -0.68289751
2.4351087 -0.51051831 -0.68476349
2.4347565 -0.52606118 -0.68556321
2.4079633 -0.53575492 -0.67889905
2.4036911 -0.55030465 -0.6786325
2.4180939 -0.56924123 -0.68369722
2.4014409 -0.58089375 -0.67996532
2.4053142 -0.59747744 -0.68209785
2.3763869 -0.60579377 -0.67490053
2.3987336 -0.62719321 -0.6823644
2.3771524 -0.63715678 -0.67729962
2.3583281 -0.64764529 -0.67303461
2.3747213 -0.66784632 -0.67889905
2.3594646 -0.67920411 -0.67570025
2.3460076 -0.69094461 -0.67303461
2.3426466 -0.70560461 -0.67330116
2.3309042 -0.71769565 -0.67116863
2.3328919 -0.73400998 -0.67303461
2.3035703 -0.74034524 -0.66583735
2.3191302 -0.76107967 -0.67170179
2.2714648 -0.76090163 -0.65917319
2.2457781 -0.76765221 -0.6530422
1.657689 -0.57793939 -0.48217365
1.6522954 -0.58745384 -0.48164052
1.6377869 -0.59363812 -0.47844175
1.6232649 -0.59966654 -0.47524294
1.6339866 -0.61505026 -0.47950798
1.6418803 -0.6295523 -0.48297334
1.6361911 -0.63891339 -0.48244023
1.8113544 -0.72018516 -0.53575331
2.2473323 -0.90960896 -0.66717017
2.2559669 -0.92925608 -0.67143518
2.2982213 -0.96320385 -0.68582976
2.2647846 -0.96556646 -0.67756623
2.2720807 -0.9851976 -0.68156469
2.2589381 -0.99600875 -0.67943215
2.2571812 -1.0118223 -0.68076497
2.2746098 -1.036446 -0.68796229
2.2550893 -1.0443065 -0.68396378
2.2617197 -1.0642809 -0.68796229
2.2325397 -1.0673274 -0.68103158
2.2129445 -1.0746888 -0.67703307
2.1838357 -1.0771593 -0.67010236
1.6756721 -0.83926272 -0.51496124
1.5708421 -0.79883373 -0.4840396
1.5325136 -0.79120803 -0.47364354
1.542995 -0.80865204 -0.47844175
1.5082244 -0.80225778 -0.46911195
1.5117539 -0.8160767 -0.47177759
1.4999564 -0.82163191 -0.46964508
1.5007832 -0.83409846 -0.47151104
1.4973161 -0.8442384 -0.47204417
1.4971271 -0.85628176 -0.47364354
1.4993473 -0.86980581 -0.47604266
1.4873371 -0.87507826 -0.47391012
2.1556149 -1.2862771 -0.69089448
2.1369627 -1.292992 -0.68742913
2.1298101 -1.3065839 -0.68769568
2.1029301 -1.3079178 -0.68156469
2.0973113 -1.3223388 -0.6823644
2.1013389 -1.3429697 -0.68636286
2.0865881 -1.3516454 -0.68423033
2.0750329 -1.3623067 -0.68316406
2.0842869 -1.3867607 -0.6890285
2.0789351 -1.4016793 -0.69009477
2.0543802 -1.4035332 -0.68476349
2.0639551 -1.4287313 -0.69089448
2.0756645 -1.45576 -0.69782519
2.0659075 -1.4679102 -0.69755864
2.0333962 -1.4636642 -0.68956167
2.0228195 -1.4749775 -0.6890285
2.0075297 -1.4827799 -0.68689603
1.976015 -1.4783237 -0.6791656
1.9615302 -1.4863452 -0.67729962
1.9539022 -1.4995267 -0.67783278
1.9286852 -1.4990647 -0.67223489
1.9414117 -1.5281609 -0.67996532
1.8973329 -1.5124052 -0.66770327
1.9075147 -1.5397606 -0.67463398
1.9084774 -1.5599767 -0.67836589
1.9203997 -1.5894817 -0.68609631
1.9069176 -1.5981393 -0.68476349
1.8684177 -1.5854859 -0.67436743
1.8506135 -1.5900105 -0.67143518
1.8553647 -1.6139888 -0.67676651
1.8331319 -1.614512 -0.67223489
1.8088051 -1.6128987 -0.66690361
1.8017359 -1.6265508 -0.66796982
1.7853193 -1.6317227 -0.66557074
1.7710295 -1.6387185 -0.66397136
1.7721944 -1.6600983 -0.66823643
1.7619749 -1.670941 -0.66823643
1.7642024 -1.693737 -0.67303461
1.7689804 -1.7193104 -0.67889905
1.7185549 -1.6909212 -0.66343826
1.7477486 -1.7408891 -0.67889905
1.7159973 -1.7303629 -0.67063552
1.6911856 -1.7263992 -0.66503763
1.7140682 -1.771379 -0.67836589
1.6831903 -1.7609588 -0.67036897
1.6855856 -1.785271 -0.67570025
1.6719705 -1.7927604 -0.67463398
1.6413505 -1.7817172 -0.666637
1.6414131 -1.8038747 -0.67116863
1.6328907 -1.8167799 -0.67223489
1.6095566 -1.813069 -0.66717017
1.5723521 -1.7931958 -0.65624094
1.5669976 -1.8093677 -0.65864003
1.5445907 -1.8057635 -0.65384185
1.5384568 -1.8210975 -0.65597439
1.5297234 -1.8334635 -0.65704066
1.5147676 -1.8383518 -0.65544128
1.5065005 -1.8513499 -0.6567741
1.489076 -1.8530451 -0.65410846
1.4704896 -1.8530864 -0.65090966
1.4454209 -1.8446237 -0.64477867
1.4387931 -1.8595567 -0.64691114
1.4226757 -1.8622222 -0.64477867
1.4199272 -1.8824595 -0.64877713
1.4020185 -1.8826327 -0.64584494
1.3887281 -1.8888701 -0.64504522
1.3850367 -1.9082768 -0.64877713
1.3637605 -1.9034191 -0.64424551
1.3470477 -1.9046685 -0.64184642
1.3458159 -1.927915 -0.64691114
1.3279469 -1.9274052 -0.64397895
1.3112189 -1.9283434 -0.64157987
1.3020469 -1.9403546 -0.64291269
1.28054 -1.9338411 -0.63811451
1.2660146 -1.9376274 -0.63678169
1.2561903 -1.9485996 -0.63784796
1.2395558 -1.9489509 -0.63544887
1.2229646 -1.9491715 -0.63304979
1.2135174 -1.9607369 -0.63438261
1.208493 -1.9796638 -0.63811451
1.1853884 -1.9688748 -0.63225007
1.1718096 -1.9736247 -0.63145036
1.1630856 -1.9866003 -0.63331634
1.1489471 -1.9903604 -0.63225007
1.1381427 -1.9998858 -0.63304979
1.129622 -2.0135567 -0.63518226
1.1163132 -2.0187631 -0.63464916
1.1025219 -2.0230355 -0.63384944
1.0941913 -2.037405 -0.63624853
1.0933875 -2.066231 -0.64317924
1.0784615 -2.0686276 -0.64184642
1.0525421 -2.0494835 -0.63384944
1.0347276 -2.0455821 -0.6306507
1.0170008 -2.0415394 -0.6274519
1.0061524 -2.0512025 -0.62851816
0.99480468 -2.0599415 -0.62931782
0.98214638 -2.0660069 -0.62931782
0.96945107 -2.0719943 -0.62931782
0.95873427 -2.0822814 -0.6306507
0.95548213 -2.1091964 -0.63704824
0.92997158 -2.0868464 -0.62851816
0.91444182 -2.0863338 -0.62665218
0.8959024 -2.0786283 -0.62265372
0.88651478 -2.0920734 -0.62505281
0.87477285 -2.100143 -0.62585247
0.85675985 -2.0929828 -0.62212056
0.85109222 -2.1160851 -0.6274519
0.83986241 -2.1257496 -0.62878472
0.829243 -2.1371529 -0.6306507
0.81199783 -2.1313922 -0.6274519
0.80194193 -2.1444597 -0.62985098
0.7831257 -2.1339576 -0.62531936
0.77067 -2.1405363 -0.62585247
0.75559652 -2.1397717 -0.62425309
0.7405616 -2.1389027 -0.62265372
0.72928137 -2.1488829 -0.62425309
0.70787358 -2.1286228 -0.61705583
0.69241196 -2.1255944 -0.6149233
0.69165343 -2.1683705 -0.62611908
0.66656268 -2.1348515 -0.61518985
0.64951003 -2.1259959 -0.61145794
0.63948703 -2.1400998 -0.61439019
0.62526304 -2.1402826 -0.61332393
0.62058192 -2.1737373 -0.62185401
0.601798 -2.1580071 -0.61625612
0.58677381 -2.1551492 -0.61439019
0.57180744 -2.1521881 -0.61252421
0.56342411 -2.1743169 -0.61785555
0.55007213 -2.1777329 -0.61785555
0.5332467 -2.1670282 -0.61385703
0.51410472 -2.145889 -0.60692632
0.50398958 -2.1621447 -0.61065823
0.48901013 -2.1576765 -0.60852575
0.47224018 -2.1446342 -0.60399413
0.46068299 -2.1550319 -0.60612667
0.44666898 -2.154043 -0.6050604
0.43363339 -2.1576881 -0.60532695
0.42424953 -2.1801763 -0.61092484
0.41300234 -2.1941047 -0.61412358
0.39625698 -2.1785803 -0.60905886
0.38887733 -2.2151461 -0.6186552
0.36997473 -2.1861298 -0.60985857
0.35500517 -2.1788459 -0.60719287
0.34356678 -2.193362 -0.61065823
0.32795426 -2.1811321 -0.60665977
0.31223017 -2.1668856 -0.60212815
0.29866558 -2.166851 -0.60159504
0.28511319 -2.1667316 -0.60106188
0.27049568 -2.1579204 -0.59812969
0.2583887 -2.1691101 -0.60079533
0.24453436 -2.1658661 -0.59946251
0.23348716 -2.1884103 -0.60532695
0.21841869 -2.1734989 -0.60079533
0.20607223 -2.1853533 -0.60372758
0.19240585 -2.1836963 -0.60292786
0.17806035 -2.1733084 -0.59972906
0.16646627 -2.1974258 -0.60612667
0.15284641 -2.1964829 -0.6055935
0.13979237 -2.2041125 -0.60745949
0.12604563 -2.2010798 -0.60639322
0.11175245 -2.1864109 -0.60212815
0.098334782 -2.1870553 -0.60212815
0.084354483 -2.1731713 -0.59812969
0.070830464 -2.1678679 -0.59653026
0.057349265 -2.1615174 -0.59466434
0.044007253 -2.157974 -0.59359807
0.030996792 -2.1745868 -0.59812969
0.017606987 -2.1689534 -0.59653026
0.0042999969 -2.1699843 -0.59679687
-0.0089859711 -2.1632233 -0.59493089
-0.022198848 -2.1573448 -0.59333152
-0.035467558 -2.1590953 -0.59386462
-0.048561785 -2.152092 -0.59199864
-0.06223809 -2.1681316 -0.59653026
-0.075439252 -2.1648192 -0.5957306
-0.088720918 -2.1643157 -0.5957306
-0.10140765 -2.1512148 -0.59226525
-0.11475958 -2.1534395 -0.5930649
-0.12877314 -2.1661644 -0.59679687
-0.14124018 -2.1528308 -0.59333152
-0.15430881 -2.1500008 -0.59279835
-0.16764809 -2.1509354 -0.59333152
-0.18068101 -2.1479454 -0.59279835
-0.19403076 -2.1487162 -0.59333152
-0.20646985 -2.1398103 -0.59119898
-0.219497 -2.1375444 -0.59093243
-0.2333398 -2.1428645 -0.59279835
-0.2452701 -2.1308599 -0.58986616
-0.25857261 -2.1312284 -0.59039927
-0.27201095 -2.1324701 -0.59119898
-0.28265956 -2.1126103 -0.5861342
-0.29682115 -2.1194267 -0.58853334
-0.30982015 -2.1175654 -0.58853334
-0.32178891 -2.1089551 -0.58666736
-0.33381507 -2.1012299 -0.58506799
-0.34780198 -2.1057985 -0.58693391
-0.35924926 -2.0950754 -0.58453482
-0.37344834 -2.1004229 -0.58666736
-0.38597995 -2.0961962 -0.5861342
-0.39937612 -2.0966287 -0.58693391
-0.40906656 -2.0780628 -0.58240229
-0.42142546 -2.0736248 -0.58186918
-0.43354744 -2.0681701 -0.58106947
-0.44521108 -2.0607607 -0.57973665
-0.45847553 -2.0608125 -0.58053637
-0.47003582 -2.0532629 -0.57920355
-0.48417228 -2.0569072 -0.58106947
-0.49633071 -2.0520241 -0.58053637
-0.51030707 -2.0545523 -0.58213574
-0.52076024 -2.0429771 -0.57973665
-0.53621292 -2.0509326 -0.58293545
-0.54828781 -2.045742 -0.58240229
-0.55802125 -2.0321162 -0.5794701
-0.56865227 -2.0221593 -0.57760412
-0.57971573 -2.0140014 -0.5762713
-0.58879358 -1.999312 -0.57307249
-0.60549927 -2.010427 -0.57733756
-0.61300021 -1.991015 -0.57280594
-0.62665218 -1.9918129 -0.57413876
-0.63620687 -1.9796724 -0.57173967
-0.64804125 -1.9748157 -0.57147312
-0.66106504 -1.9735438 -0.57227284
-0.67721605 -1.9813061 -0.57573819
-0.68967783 -1.9780235 -0.57600474
-0.71116918 -2.0000887 -0.58373511
-0.72309959 -1.9947814 -0.58346856
-0.74067187 -2.0047717 -0.58773363
-0.74684477 -1.9839536 -0.58293545
-0.76452732 -1.9937317 -0.58720046
-0.77534336 -1.9854122 -0.5861342
-0.78359264 -1.9707662 -0.583202
-0.79060632 -1.9534138 -0.5794701
-0.80331171 -1.9503082 -0.5800032
-0.81414551 -1.9426759 -0.57920355
-0.82453787 -1.9340975 -0.57813728
-0.83869088 -1.9343072 -0.57973665
-0.84743226 -1.92207 -0.57760412
-0.86236465 -1.9238695 -0.57973665
-0.87175465 -1.9132799 -0.57813728
-0.88347787 -1.9078948 -0.57813728
-0.89434695 -1.900694 -0.57760412
-0.90100282 -1.8847365 -0.57440531
-0.91339266 -1.8809065 -0.57493848
-0.92278427 -1.8709449 -0.57360566
-0.94029123 -1.8773115 -0.57733756
-0.95048141 -1.8689295 -0.57653785
-0.9539699 -1.847648 -0.57173967
-0.96618396 -1.843467 -0.57227284
-0.97566605 -1.8341006 -0.57120657
-0.98781741 -1.8297756 -0.57173967
-0.9980998 -1.8219895 -0.57120657
-1.0195642 -1.8343632 -0.57707101
-1.0279593 -1.8230358 -0.57547158
-1.0381687 -1.8150209 -0.57493848
-1.0608965 -1.8286233 -0.58133602
-1.0676968 -1.8146037 -0.57893693
-1.0832566 -1.8154669 -0.58133602
-1.0893854 -1.8005403 -0.57867038
-1.0822656 -1.7642486 -0.56907403
-1.099689 -1.7682135 -0.57253939
-1.1146308 -1.7679547 -0.57467192
-1.1244196 -1.7594579 -0.57413876
-1.1357185 -1.7533344 -0.57440531
-1.1501586 -1.7519723 -0.5762713
-1.158217 -1.7408701 -0.57493848
-1.1758826 -1.7441188 -0.57840383
-1.1811242 -1.7289133 -0.57573819
-1.195551 -1.7271804 -0.57760412
-1.2005912 -1.7119217 -0.57493848
-1.2138644 -1.7084509 -0.5762713
-1.229956 -1.7087923 -0.57893693
-1.2364422 -1.6957624 -0.57707101
-1.2485421 -1.6904695 -0.57787067
-1.2623558 -1.6874069 -0.5794701
-1.2651174 -1.6696439 -0.57600474
-1.2759253 -1.6626143 -0.5762713
-1.2890607 -1.6585586 -0.57760412
-1.2992132 -1.6506178 -0.57760412
-1.3099174 -1.6433686 -0.57787067
-1.326031 -1.6427991 -0.58053637
-1.335476 -1.6338857 -0.58026975
-1.3522371 -1.6338271 -0.583202
-1.3622366 -1.6254994 -0.583202
-1.3696901 -1.6141709 -0.58213574
-1.3814533 -1.6079291 -0.58293545
-1.3906606 -1.5986954 -0.58266884
-1.3972583 -1.5865163 -0.58133602
-1.4191558 -1.5915796 -0.58640081
-1.4288949 -1.5828418 -0.58640081
-1.4301261 -1.5647967 -0.58293545
-1.4488659 -1.5658951 -0.58666736
-1.4544928 -1.5527556 -0.58506799
-1.4679726 -1.5479975 -0.58666736
-1.4787785 -1.5403514 -0.58720046
-1.4875302 -1.5305576 -0.58693391
-1.4982457 -1.5227755 -0.58746707
-1.5062006 -1.5121881 -0.58693391
-1.529824 -1.5171683 -0.5925318
-1.5404814 -1.5091017 -0.5930649
-1.5400141 -1.4902391 -0.589333
-1.5491291 -1.4807616 -0.589333
-1.5609893 -1.4738749 -0.59039927
-1.5805774 -1.4741284 -0.59439778
-1.572578 -1.4487317 -0.58800018
-1.5807246 -1.4384067 -0.58773363
-1.5938222 -1.4325457 -0.589333
-1.6119533 -1.4310564 -0.59279835
-1.6163551 -1.4173266 -0.59119898
-1.6308503 -1.4124292 -0.59333152
-1.6416837 -1.4042752 -0.59413117
-1.6598415 -1.4022603 -0.59759653
-1.6698946 -1.3932841 -0.59812969
-1.6761805 -1.381173 -0.59732997
-1.6846236 -1.3708622 -0.59732997
-1.6884952 -1.3568779 -0.5957306
-1.708115 -1.3554773 -0.59972906
-1.7217109 -1.3491316 -0.60159504
-1.7345307 -1.3420802 -0.60319442
-1.740435 -1.3296571 -0.6023947
-1.7601038 -1.3276576 -0.60639322
-1.7628056 -1.3128037 -0.60452724
-1.7731574 -1.3036752 -0.60532695
-1.7834634 -1.2944688 -0.60612667
-1.7874548 -1.2806951 -0.60479379
-1.8015752 -1.2741548 -0.60692632
-1.8212149 -1.2713506 -0.61092484
-1.8218378 -1.2552311 -0.60852575
-1.8550121 -1.2613683 -0.61705583
-1.8459085 -1.2386864 -0.61145794
-1.8767806 -1.2427658 -0.61918837
-1.8658117 -1.2191036 -0.61305732
-1.8927001 -1.2201633 -0.61945492
-1.8912047 -1.2028383 -0.61652267
-1.9173286 -1.2029909 -0.62265372
-1.9189367 -1.1876539 -0.62078774
-1.9237198 -1.1743509 -0.61998802
-1.9374954 -1.1665012 -0.62212056
-1.9471029 -1.1560669 -0.62292027
-1.9707959 -1.1538352 -0.62825155
-1.9795082 -1.1426843 -0.62878472
-1.9906709 -1.1329 -0.63011754
-2.0068316 -1.1258503 -0.63304979
-2.0111716 -1.1121165 -0.63225007
-2.0255747 -1.1039053 -0.63464916
-2.0365558 -1.0937353 -0.63598198
-2.0423765 -1.080768 -0.63571543
-2.0481148 -1.0677705 -0.63544887
-2.0597725 -1.0578246 -0.63704824
-2.0765457 -1.0503854 -0.64024705
-2.077775 -1.0350462 -0.63864762
-2.0910099 -1.0256726 -0.64078015
-2.1007357 -1.0144992 -0.64184642
-2.1086621 -1.0024177 -0.64237958
-2.1689012 -1.014778 -0.65890664
-2.1409416 -0.98573434 -0.64851058
-2.1645093 -0.98053133 -0.65384185
-2.1810498 -0.97193825 -0.65704066
-2.1710823 -0.95157486 -0.65224248
-2.1963534 -0.94662571 -0.65810692
-2.2172074 -0.93952227 -0.66263855
-2.1926785 -0.91330349 -0.6535753
-2.1946731 -0.89837223 -0.65250903
-2.1867304 -0.87949592 -0.64851058
-2.2064288 -0.87172657 -0.65277559
-2.2018514 -0.85433787 -0.64984339
-2.2088535 -0.84149754 -0.6503765
-2.22842 -0.83332819 -0.65464157
-2.2343962 -0.81997108 -0.65490812
-2.2484541 -0.80950952 -0.65757382
-2.2651939 -0.79986852 -0.66103917
-2.2600403 -0.78248703 -0.65810692
-2.2730136 -0.77139163 -0.66050601
-2.2658141 -0.75347781 -0.65704066
-2.286891 -0.74493223 -0.66183883
-2.2748897 -0.7256161 -0.65704066
-2.2894199 -0.7148025 -0.65997291
-2.2873101 -0.698771 -0.65810692
-2.2934017 -0.68527478 -0.65864003
-2.3077402 -0.67416161 -0.66157228
-2.3090529 -0.65919548 -0.66077256
-2.3028414 -0.64216834 -0.65784037
-2.3178983 -0.63106328 -0.66103917
-2.3282475 -0.61856067 -0.6629051
-2.3236017 -0.60208827 -0.66050601
-2.3356628 -0.58994287 -0.6629051
-2.3439183 -0.57675135 -0.66423792
-2.3502252 -0.56303179 -0.66503763
-2.3573902 -0.54947519 -0.6661039
-2.3531973 -0.53329682 -0.66397136
-2.3573666 -0.51905501 -0.66423792
-2.3614497 -0.50478208 -0.66450447
-2.3607273 -0.48950067 -0.66343826
-2.3759708 -0.47747347 -0.66690361
-2.3835862 -0.46380571 -0.66823643
-2.375968 -0.44721171 -0.66530418
-2.4090123 -0.43814009 -0.67383426
-2.3983648 -0.4210189 -0.67010236
-2.3866482 -0.40388423 -0.6661039
-2.3966918 -0.39047143 -0.66823643
-2.3990426 -0.37575826 -0.66823643
-2.3841469 -0.35845351 -0.66343826
-2.4034729 -0.34629002 -0.66823643
-2.4045978 -0.3314046 -0.66796982
-2.4084971 -0.31689528 -0.66850299
-2.4161344 -0.30282956 -0.67010236
-2.4169898 -0.28788486 -0.66983581
-2.4139221 -0.27250901 -0.66850299
-2.4327998 -0.25953072 -0.67330116
-2.4276335 -0.24392471 -0.67143518
-2.4310036 -0.22920516 -0.67196834
-2.4256434 -0.21369316 -0.67010236
-2.4442 -0.20022014 -0.67490053
-2.440577 -0.1848556 -0.67356771
-2.4282043 -0.16894202 -0.66983581
-2.4580519 -0.15586622 -0.67783278
-2.4570377 -0.140671 -0.67729962
-2.4607422 -0.12573949 -0.67809933
-2.4768729 -0.11132901 -0.6823644
-2.4688418 -0.095793754 -0.67996532
-2.4896123 -0.081301801 -0.68556321
-2.4842834 -0.065871656 -0.68396378
-2.489459 -0.050724778 -0.6852966
-2.4617755 -0.035053965 -0.67756623
-2.4764011 -0.02006365 -0.68156469
-2.4706945 -0.0048576384 -0.67996532
-2.4591124 0.010252832 -0.67676651
-2.4724958 0.025482031 -0.68049842
-2.4645834 0.040524874 -0.67836589
-2.4623611 0.055602778 -0.67783278
-2.4725714 0.071016051 -0.68076497
-2.4884639 0.086758845 -0.6852966
-2.4657354 0.10111537 -0.6791656
-2.4612176 0.11606091 -0.67809933
-2.455647 0.13090339 -0.67676651
-2.4673049 0.14671364 -0.68023187
-2.4653966 0.16178675 -0.67996532
-2.4451308 0.17552869 -0.67463398
-2.4363205 0.18992829 -0.67250144
-2.4447136 0.20568281 -0.67516714
-2.4414856 0.22050583 -0.67463398
-2.4468021 0.23613119 -0.67649996
-2.45873 0.25252008 -0.68023187
-2.4705482 0.26906425 -0.68396378
-2.4334238 0.28013581 -0.67410088
-2.4632332 0.29889658 -0.68289751
-2.4613528 0.31400508 -0.68289751
-2.4507821 0.32795027 -0.68049842
-2.4754493 0.34672818 -0.68796229
-2.4589705 0.35981593 -0.68396378
-2.4748192 0.37766165 -0.6890285
-2.4572256 0.3904182 -0.68476349
-2.4576364 0.40595967 -0.68556321
-2.4607987 0.42200989 -0.68716258
-2.4515207 0.43591926 -0.6852966
-2.4611218 0.45322385 -0.68876195
-2.4601882 0.46867746 -0.68929511
-2.4582119 0.48395032 -0.68956167
-2.4400845 0.49595129 -0.6852966
-2.4285057 0.50913322 -0.68289751
-2.4187417 0.5225991 -0.68103158
-2.4145486 0.5372209 -0.68076497
-2.4083884 0.55138063 -0.67996532
-2.4143412 0.56835741 -0.68263096
-2.4117453 0.58338755 -0.68289751
-2.4081204 0.59817475 -0.68289751
-2.399735 0.61174852 -0.68156469
-2.3940713 0.62597364 -0.68103158
-2.4060111 0.64489532 -0.68556321
-2.4038677 0.66015691 -0.68609631
-2.4192555 0.68037611 -0.6916942
-2.4122567 0.6944074 -0.69089448
-2.4116485 0.71028525 -0.69196075
-2.4358528 0.73368973 -0.70022428
-2.4027507 0.73982644 -0.69196075
-2.3852949 0.75050431 -0.68822885
-2.3852329 0.76660109 -0.68956167
-2.3722427 0.77851641 -0.68716258
-2.368335 0.79336387 -0.68742913
-2.3625104 0.80756891 -0.68716258
-2.3775318 0.82903343 -0.69302702
-2.3678596 0.84199095 -0.6916942
-2.3662732 0.85781842 -0.69276047
-2.360965 0.87232143 -0.69276047
-2.3474503 0.88373446 -0.69036138
-2.347383 0.9001928 -0.69196075
-2.3364289 0.91247475 -0.69036138
-2.3298905 0.9264375 -0.69009477
-2.3322024 0.9439714 -0.69249386
-2.3281486 0.95899808 -0.69302702
-2.312443 0.96916616 -0.69009477
-2.3144319 0.9867397 -0.69249386
-2.3145232 1.0036068 -0.69435984
-2.3012669 1.0146781 -0.6922273
-2.2888415 1.0260189 -0.69036138
-2.3017972 1.0488378 -0.69622582
-2.2891965 1.0601058 -0.69435984
-2.2913692 1.0782368 -0.69702548
-2.2977526 1.0985132 -0.701024
-2.2727635 1.1037474 -0.69542611
-2.2711341 1.1202308 -0.69702548
-2.2469835 1.1255101 -0.6916942
-2.2597933 1.1493278 -0.69782519
-2.2484169 1.1609606 -0.69649237
-2.2369828 1.172497 -0.69515955
-2.2288957 1.1857481 -0.69489294
-2.2080092 1.1920743 -0.69062793
-2.2124865 1.2120844 -0.69435984
-2.2092195 1.2279788 -0.69569266
-2.2066801 1.2443523 -0.69729209
-2.2140615 1.2664846 -0.70209026
-2.2120841 1.2834324 -0.70395619
-2.1917078 1.2896482 -0.69995773
-2.1763051 1.2986262 -0.69755864
-2.1641731 1.3094602 -0.69622582
-2.1585622 1.3242269 -0.69702548
-2.1348469 1.3277735 -0.69196075
-2.1331816 1.3449606 -0.69409329
-2.1135199 1.3507565 -0.69036138
-2.1092365 1.3663199 -0.6916942
-2.1040359 1.3813524 -0.69276047
-2.0979273 1.3958384 -0.69356012
-2.1116977 1.4237739 -0.701024
-2.0901897 1.4280035 -0.69675893
-2.1083302 1.4594562 -0.70582217
-2.0985463 1.4718118 -0.70555562
-2.0564799 1.46121 -0.69435984
-2.0545151 1.4788693 -0.69675893
-2.0454021 1.4914477 -0.69675893
-2.0408638 1.5074064 -0.6983583
-2.0400643 1.5262524 -0.70129055
-2.0444872 1.5492204 -0.70608872
-2.0204167 1.5505853 -0.701024
-2.0017335 1.5558544 -0.69782519
-1.9959356 1.5710887 -0.69915801
-1.9802293 1.578499 -0.69702548
-1.9787554 1.5972799 -0.69995773
-1.9622018 1.6039008 -0.69755864
-1.9604901 1.6226714 -0.70049083
-1.9490196 1.6334318 -0.69995773
-1.9463084 1.6515968 -0.70262337
-1.9361377 1.6635082 -0.70262337
-1.917896 1.6683974 -0.69969118
-1.9235336 1.6941504 -0.70555562
-1.9073479 1.7007887 -0.70342308
-1.917621 1.7311921 -0.71115345
-1.8984261 1.7351222 -0.7079547
-1.8898659 1.748702 -0.70875436
-1.8769906 1.7582881 -0.7079547
-1.864768 1.7684454 -0.70742154
-1.8448445 1.7711756 -0.70395619
-1.8477635 1.7958986 -0.70928752
-1.8346486 1.8051742 -0.70848781
-1.8242204 1.8170778 -0.70875436
-1.8130367 1.8282368 -0.70875436
-1.8051567 1.8427699 -0.71008718
-1.7985067 1.8586602 -0.71195316
-1.7864025 1.868964 -0.71168661
-1.7755628 1.8805908 -0.71195316
-1.7620183 1.8893354 -0.71115345
-1.7392924 1.8880591 -0.70662189
-1.7296205 1.9008344 -0.70742154
-1.7114826 1.9042424 -0.7047559
-1.7055243 1.9211957 -0.70715499
-1.6854444 1.9222026 -0.70368963
-1.6647857 1.9223071 -0.69995773
-1.6529593 1.9324859 -0.69995773
-1.6659468 1.9720451 -0.71062034
-1.6383809 1.9637266 -0.70395619
-1.6483623 2.0005231 -0.71355253
-1.6384892 2.0135903 -0.7146188
-1.6200669 2.0160923 -0.71195316
-1.6184483 2.0395861 -0.71675134
-1.6094693 2.0540304 -0.71835077
-1.5932976 2.0592933 -0.71675134
-1.5958426 2.0889456 -0.72368205
-1.5621037 2.0709951 -0.7140857
-1.560303 2.0952294 -0.71915042
-1.5508425 2.1094234 -0.72074986
-1.5395682 2.1212397 -0.72154951
-1.5298911 2.1353478 -0.72314894
-1.5173165 2.1454818 -0.72341549
-1.5052267 2.156332 -0.7239486
-1.492514 2.166321 -0.72421521
-1.4688984 2.1602938 -0.71915042
-1.4556155 2.1692662 -0.71915042
-1.4385535 2.1725311 -0.7172845
-1.4315211 2.191 -0.72048324
-1.40813 2.1843498 -0.71541852
-1.3988377 2.1994555 -0.71755105
-1.3899251 2.2153454 -0.71995014
-1.3818843 2.2328479 -0.72288233
-1.3671536 2.2396395 -0.72234923
-1.3563678 2.2529407 -0.7239486
-1.3459623 2.2670224 -0.72581458
-1.3213158 2.2569385 -0.71995014
-1.3161141 2.2800295 -0.72474831
-1.2992396 2.283036 -0.72314894
-1.2800206 2.281718 -0.72021669
-1.2636646 2.2853117 -0.71888387
-1.2579185 2.3082566 -0.72368205
-1.2387165 2.3065908 -0.72074986
-1.2285964 2.3218155 -0.72314894
-1.2192271 2.338712 -0.72608113
-1.2079355 2.3521509 -0.72794712
-1.1978296 2.3681192 -0.73061275
-1.1682386 2.3452282 -0.72128296
-1.1601919 2.3653326 -0.72528142
-1.149009 2.3793507 -0.72741395
-1.1319057 2.3811331 -0.72581458
-1.1156406 2.3845413 -0.72474831
-1.1021973 2.3939686 -0.72554803
-1.0946444 2.4164901 -0.7303462
-1.080973 2.4258025 -0.73114592
-1.0602663 2.4191475 -0.7271474
-1.0511234 2.438885 -0.73114592
-1.0350111 2.4426262 -0.7303462
-1.0166695 2.440923 -0.72794712
-1.0038633 2.4524674 -0.72954649
-0.98304367 2.4442728 -0.72528142
-0.97440022 2.4663944 -0.73007965
-0.9616881 2.478617 -0.73194557
-0.9433744 2.4763646 -0.72954649
-0.93153673 2.4911344 -0.73221213
-0.91424227 2.4913743 -0.73061275
-0.90318125 2.5087264 -0.73407811
-0.88199633 2.4978616 -0.72927994
-0.86633801 2.5023155 -0.72901338
-0.851587 2.5094097 -0.72954649
-0.84681451 2.5465991 -0.73887628
-0.82878566 2.5444155 -0.73674375
-0.81374341 2.5512893 -0.73727691
-0.7914694 2.5350733 -0.73114592
-0.77533656 2.5380383 -0.73061275
-0.76030052 2.5445948 -0.73114592
-0.7541284 2.5815935 -0.74047565
-0.73245537 2.5657821 -0.73461121
-0.72006243 2.5822973 -0.73807657
-0.69914258 2.5680673 -0.73274529
-0.68337202 2.5723085 -0.73274529
-0.67410034 2.6016452 -0.73994255
-0.65199029 2.5814354 -0.73301184
-0.6354481 2.5825796 -0.73221213
-0.61869198 2.5826809 -0.73114592
-0.60086519 2.5779803 -0.72874677
-0.58993274 2.6032388 -0.73487782
-0.57415563 2.6077507 -0.73514438
-0.55894941 2.6149948 -0.73621064
-0.54543608 2.6306441 -0.739676
-0.52416033 2.6084278 -0.73247874
-0.50888139 2.6153793 -0.73354501
-0.49638766 2.6373966 -0.73887628
-0.47450772 2.6090994 -0.73007965
-0.4591558 2.6157591 -0.73114592
-0.44598991 2.6356332 -0.73594409
-0.42748642 2.6240506 -0.73194557
-0.41107944 2.6247196 -0.73141247
-0.3965418 2.637677 -0.73434466
-0.38034987 2.6400604 -0.73434466
-0.3634862 2.6375706 -0.73301184
-0.34867737 2.6502626 -0.73594409
-0.33276835 2.6552215 -0.73674375
-0.31612831 2.6543419 -0.73594409
-0.29897153 2.6485698 -0.73381156
-0.28506362 2.6723974 -0.73994255
-0.26692823 2.6568341 -0.73514438
-0.25089228 2.6613009 -0.73594409
-0.23464258 2.6637502 -0.73621064
-0.2191581 2.6757064 -0.73914284
-0.20128243 2.6577795 -0.73381156
-0.18644013 2.6801174 -0.739676
-0.16779985 2.6465828 -0.73007965
-0.15128264 2.6427512 -0.72874677
-0.13786158 2.6984961 -0.74394101
-0.12004939 2.6713686 -0.73621064
-0.10510912 2.7096157 -0.74660671
-0.08744666 2.6784205 -0.73781002
-0.070756137 2.6692717 -0.73514438
-0.054395985 2.6706192 -0.73541093
-0.038062807 2.6747577 -0.7364772
-0.021703992 2.6816876 -0.73834318
-0.0052579963 2.6865892 -0.739676
0.011127667 2.6634395 -0.73327839
0.027741103 2.6893427 -0.74047565
0.043923005 2.6698482 -0.73514438
0.060435258 2.6753099 -0.73674375
0.076599509 2.666218 -0.73434466
0.093058735 2.6685874 -0.73514438
0.10982712 2.6775961 -0.73781002
0.12488926 2.6479895 -0.72981304
0.14185445 2.6606476 -0.73354501
0.15668696 2.6347125 -0.7266143
0.17360894 2.6452422 -0.72981304
0.18893801 2.6316297 -0.72634768
0.20680723 2.6525214 -0.73247874
0.22299799 2.6502423 -0.73221213
0.23864776 2.6421049 -0.7303462
0.25541106 2.6463468 -0.73194557
0.27282685 2.656235 -0.73514438
0.28943342 2.6573853 -0.73594409
0.30573338 2.6555593 -0.73594409
0.32306769 2.6622446 -0.73834318
0.33854231 2.6535199 -0.7364772
0.35315442 2.6389737 -0.73301184
0.37322038 2.6644373 -0.74074227
0.39151719 2.6754482 -0.74447417
0.40734401 2.6691844 -0.74340791
0.42265475 2.6599717 -0.74154192
0.43676752 2.6440153 -0.73781002
0.4521676 2.6365359 -0.7364772
0.46681702 2.6251717 -0.73407811
0.47942278 2.6033008 -0.72874677
0.49340212 2.5898957 -0.72581458
0.51058805 2.5934391 -0.72768056
0.52553117 2.5855348 -0.72634768
0.54831117 2.6152766 -0.73567748
0.56638443 2.6212835 -0.73834318
0.58057278 2.6092918 -0.73594409
0.59528095 2.6000435 -0.73434466
0.60989755 2.590713 -0.73274529
0.62827623 2.5972266 -0.73567748
0.64884979 2.61203 -0.74100882
0.65676624 2.576246 -0.73194557
0.6832937 2.6131952 -0.74367446
0.69432247 2.5903349 -0.73834318
0.70713931 2.5748734 -0.73514438
0.72031474 2.561208 -0.73247874
0.73041528 2.5372903 -0.72688085
0.74787682 2.5392325 -0.72874677
0.76344323 2.5345957 -0.72874677
0.77642727 2.5215738 -0.72634768
0.80432785 2.5562942 -0.73781002
0.80524737 2.5054328 -0.72448176
0.82210839 2.5050235 -0.72581458
0.838076 2.5017598 -0.72634768
0.8518514 2.4920104 -0.72501487
0.87252253 2.5022075 -0.72954649
0.89496571 2.5167842 -0.73541093
0.90776294 2.5039968 -0.73327839
0.91809803 2.4848192 -0.72927994
0.94012082 2.4971786 -0.73461121
0.95680636 2.4949627 -0.73567748
0.96157557 2.4621127 -0.72768056
0.9823643 2.4704952 -0.73194557
1.0011215 2.4733546 -0.73461121
1.0137086 2.4609275 -0.73274529
1.0176101 2.4279952 -0.72474831
1.0381603 2.435004 -0.72874677
1.0496299 2.42063 -0.72634768
1.0671855 2.4203172 -0.72821367
1.0792557 2.4075673 -0.72634768
1.0936081 2.4000227 -0.72608113
1.1147957 2.4072599 -0.7303462
1.1184627 2.3768294 -0.72314894
1.1388469 2.3820949 -0.72688085
1.172393 2.4140747 -0.73887628
1.169699 2.3713975 -0.72794712
1.1764561 2.348665 -0.72314894
1.1974005 2.3542879 -0.7271474
1.2100544 2.3434711 -0.72608113
1.2248585 2.3368556 -0.72634768
1.2360048 2.3233402 -0.72448176
1.2520691 2.3191047 -0.72554803
1.2634963 2.3063071 -0.7239486
1.2823071 2.3069348 -0.7266143
1.2917031 2.2906284 -0.7239486
1.3196146 2.3069198 -0.73167902
1.3255208 2.2846081 -0.7271474
1.355158 2.3030119 -0.73567748
1.3406134 2.2466519 -0.72021669
1.3733367 2.2697175 -0.7303462
1.3842131 2.256319 -0.72874677
1.4041409 2.2576036 -0.73194557
1.4045994 2.2277493 -0.72501487
1.430182 2.2377665 -0.73114592
1.4454582 2.2313757 -0.73194557
1.4612386 2.225687 -0.73301184
1.4716637 2.2118647 -0.73141247
1.48413 2.201195 -0.73087931
1.4948894 2.1880684 -0.72954649
1.5115789 2.1836092 -0.73114592
1.5111111 2.1545675 -0.72448176
1.5198359 2.1389699 -0.72234923
1.5402529 2.1397724 -0.72581458
1.5414265 2.1139283 -0.72021669
1.5566592 2.1075315 -0.72128296
1.5678291 2.0956254 -0.72048324
1.5760007 2.0798209 -0.71835077
1.5975357 2.0815797 -0.72234923
1.5996299 2.0580416 -0.71755105
1.6271331 2.0671196 -0.72421521
1.6632193 2.0864873 -0.73461121
1.6541938 2.0492461 -0.72501487
1.6661265 2.0383115 -0.72474831
1.683519 2.0339892 -0.72688085
1.6872993 2.0132804 -0.72314894
1.7014918 2.0050938 -0.7239486
1.7068529 1.9865751 -0.72101641
1.7303978 1.9891527 -0.72581458
1.7374737 1.972712 -0.72368205
1.7501868 1.9627331 -0.7239486
1.7589673 1.9483806 -0.72261578
1.7546315 1.919767 -0.71595168
1.7663779 1.9089646 -0.71595168
1.7879428 1.9086404 -0.71995014
1.7830379 1.880152 -0.71328598
1.7892001 1.8636146 -0.71115345
1.8147098 1.8671138 -0.71675134
1.8220756 1.8518223 -0.71515197
1.8293223 1.8365105 -0.71355253
1.8385034 1.8232157 -0.71275288
1.8517215 1.8139237 -0.71355253
1.8586602 1.7985067 -0.71195316
1.8731449 1.7903978 -0.71328598
1.8714794 1.7669619 -0.70848781
1.8977945 1.7699057 -0.71435225
1.9008201 1.7510453 -0.71142006
1.8979827 1.7270261 -0.70635527
1.9035255 1.7108384 -0.70448935
1.9269625 1.7106426 -0.70928752
1.9432206 1.7038696 -0.71142006
1.9441664 1.6837125 -0.7079547
1.9544609 1.6717516 -0.7079547
1.9646817 1.6597278 -0.7079547
1.965207 1.6396157 -0.70448935
1.9767182 1.6287521 -0.70502245
1.9934037 1.6220667 -0.70742154
2.0018163 1.6085976 -0.70688844
2.02826 1.609463 -0.71275288
2.0380974 1.5969874 -0.71275288
2.0379474 1.5767857 -0.70928752
2.0406902 1.5589862 -0.70688844
2.0579131 1.5522385 -0.70955408
2.0596678 1.5338264 -0.70688844
2.0690405 1.5211595 -0.70688844
2.0923765 1.5186243 -0.71168661
2.0859845 1.4945322 -0.70635527
2.10692 1.4900512 -0.71035379
2.113652 1.4754406 -0.70955408
2.1226654 1.4624436 -0.70955408
2.1355844 1.4521009 -0.7108869
2.1404521 1.4362851 -0.70955408
2.1307402 1.4108878 -0.70342308
2.1433918 1.4004227 -0.7047559
2.1535645 1.3882891 -0.70528901
2.1539092 1.3698773 -0.70262337
2.1704388 1.3617569 -0.70528901
2.1771142 1.3473995 -0.7047559
2.1902771 1.3370283 -0.70635527
2.2000911 1.3245577 -0.70688844
2.2023754 1.3075897 -0.70502245
2.2220025 1.3008676 -0.70875436
2.2199254 1.2814281 -0.70555562
2.2243953 1.2658763 -0.70448935
2.2380052 1.2555041 -0.70635527
2.2431362 1.2403495 -0.70555562
2.2659388 1.2348627 -0.71035379
2.2734733 1.2209358 -0.71035379
2.2843297 1.2087659 -0.71142006
2.2711909 1.1840357 -0.70502245
2.2809854 1.1713982 -0.70582217
2.2709281 1.1486815 -0.70049083
2.2926004 1.1420299 -0.70502245
2.3090835 1.132609 -0.7079547
2.3151217 1.1180005 -0.70768809
2.3158445 1.1008782 -0.70582217
2.3085871 1.0801141 -0.7015571
2.3204243 1.0683465 -0.70315653
2.3357158 1.0580646 -0.70582217
2.3544896 1.049204 -0.70955408
2.3564692 1.0328033 -0.70822126
2.3609917 1.017562 -0.70768809
2.3627534 1.0011765 -0.70635527
2.3715212 0.98777145 -0.70715499
2.3641572 0.96772623 -0.70315653
2.3637908 0.95068502 -0.70129055
2.3973691 0.94713861 -0.70955408
2.4094255 0.93485057 -0.71142006
2.3953006 0.91250259 -0.70555562
2.4017575 0.89812559 -0.70582217
2.4162717 0.88669115 -0.70848781
2.4098773 0.86760557 -0.70502245
2.41152 0.85151923 -0.70395619
2.4094131 0.83418465 -0.70182365
2.4436934 0.82929331 -0.71035379
2.436846 0.81033111 -0.70688844
2.4124455 0.78581452 -0.6983583
2.4429333 0.77919513 -0.70582217
2.4301875 0.75873524 -0.70075744
2.4513896 0.74887639 -0.70555562
2.4476268 0.73133838 -0.70315653
2.4363403 0.71171361 -0.69862491
2.4452953 0.69807345 -0.69995773
2.4588168 0.68564415 -0.70262337
2.4490278 0.66674793 -0.69862491
2.448415 0.65047163 -0.69729209
2.447695 0.63422787 -0.69595921
2.4459336 0.61778164 -0.69435984
2.4721403 0.60828644 -0.70075744
2.4514558 0.58727092 -0.69382674
2.4418714 0.56915647 -0.69009477
2.4753981 0.56097603 -0.69862491
2.4599676 0.54163384 -0.69329357
2.4868085 0.5315637 -0.69995773
2.5004046 0.51844627 -0.70288992
2.4714105 0.49664167 -0.69382674
2.4857645 0.48367581 -0.69702548
2.4725828 0.46538544 -0.69249386
2.4877195 0.45244583 -0.69595921
2.4762092 0.43467489 -0.69196075
2.4693265 0.4178659 -0.68929511
2.4813569 0.40425524 -0.69196075
2.4875994 0.38961846 -0.69302702
2.4623027 0.37019503 -0.6852966
2.4912393 0.35892513 -0.69276047
2.4504285 0.33771574 -0.68076497
2.4438541 0.32154325 -0.67836589
2.4084837 0.30187151 -0.66796982
2.4227324 0.28856817 -0.67143518
2.3813589 0.26883668 -0.65943974
2.3887138 0.25483266 -0.66103917
1.944298 0.19541515 -0.53708619
1.9013202 0.17932479 -0.52482414
1.8975842 0.16723275 -0.52349132
1.8764806 0.1537789 -0.51736033
1.8869996 0.14298898 -0.52002597
1.9109174 0.13301076 -0.52642351
1.8818789 0.11939563 -0.51815999
1.9624425 0.11240994 -0.54028493
2.0102611 0.1027713 -0.55334663
2.2534919 0.10131352 -0.62052119
2.3157094 0.089869179 -0.63758135
2.3518596 0.076818563 -0.64744431
2.3879354 0.063327663 -0.65730721
2.3824973 0.048557207 -0.65570784
2.4000974 0.034182627 -0.66050601
2.3713484 0.019224226 -0.65250903
2.3206933 -0.0072817276 -0.69128335
2.3215628 -0.021529719 -0.69157022
2.0321126 -0.031395569 -0.60493881
1.9916558 -0.043008007 -0.59289074
2.0009305 -0.055490289 -0.59575933
1.962255 -0.066481628 -0.58428496
1.9598957 -0.078444548 -0.58371121
1.9306685 -0.089152545 -0.57510549
1.924345 -0.10069875 -0.57338428
2.0671446 -0.12084655 -0.61641318
2.170568 -0.14022949 -0.64768076
2.192601 -0.15516151 -0.65456539
2.2575145 -0.17366351 -0.67435867
2.2506781 -0.18703768 -0.67263752
2.2962441 -0.20500535 -0.68669361
2.3149698 -0.22099729 -0.69271767
2.3049924 -0.23432788 -0.6901359
2.3282757 -0.25113094 -0.69759423
2.3209798 -0.26476237 -0.69587308
2.3231163 -0.27945524 -0.69702053
2.332763 -0.29514423 -0.70046282
2.3261597 -0.30882314 -0.69902855
2.317579 -0.32216886 -0.69702053
2.3269353 -0.33803275 -0.70046282
2.3238699 -0.35216093 -0.700176
2.3216655 -0.3664133 -0.700176
2.333554 -0.38297519 -0.70447886
2.3169942 -0.39487612 -0.700176
2.3088672 -0.40808663 -0.6984548
2.2968962 -0.42052323 -0.6955862
2.2858012 -0.43300644 -0.69300449
2.2661784 -0.44371501 -0.68784106
2.2615349 -0.45723251 -0.6872673
2.251184 -0.46953771 -0.68497247
2.2510705 -0.48394513 -0.68583304
2.2555418 -0.49940297 -0.68812788
2.2496328 -0.51259559 -0.6872673
2.2492435 -0.52704436 -0.68812788
2.2468987 -0.54105955 -0.68841475
2.2398164 -0.55391717 -0.6872673
2.2391613 -0.56835628 -0.68812788
2.2300689 -0.58063811 -0.68640673
2.2236874 -0.59357017 -0.68554616
2.2236998 -0.60821325 -0.68669361
2.2116232 -0.61952281 -0.68411189
2.2114639 -0.63413662 -0.68525928
2.2075315 -0.64769399 -0.68525928
2.1915865 -0.65765089 -0.68153012
2.18751 -0.67108577 -0.68153012
2.1696382 -0.68020064 -0.67722726
2.1617742 -0.6923328 -0.67607981
2.1565747 -0.70528662 -0.67579299
2.1340315 -0.71244377 -0.67005581
1.6698312 -0.56902766 -0.52461827
1.6346343 -0.56826478 -0.51457822
1.6238924 -0.57572579 -0.51228333
1.6230325 -0.5866549 -0.51314396
1.6212003 -0.59726423 -0.51371765
1.6363418 -0.61426377 -0.51974171
1.7623032 -0.67385983 -0.56133622
1.7536713 -0.68292379 -0.55990195
1.8171368 -0.72048402 -0.58170325
2.0854394 -0.84160519 -0.66976893
2.061625 -0.84674758 -0.66374487
2.0899825 -0.87340862 -0.67464554
2.0942831 -0.8903361 -0.67780095
2.0808661 -0.89975005 -0.67521924
2.0805683 -0.9148131 -0.67694038
2.067044 -0.92404562 -0.67435867
2.0700576 -0.9406721 -0.67722726
2.0555489 -0.94934183 -0.67435867
2.0392771 -0.95705557 -0.67091638
2.0463386 -0.97573125 -0.67521924
2.0291035 -0.98284334 -0.67149007
2.0230348 -0.99527514 -0.67149007
2.0271747 -1.0128045 -0.67493236
1.9124074 -0.9702121 -0.63850129
1.5350448 -0.79078639 -0.51343077
1.5293148 -0.79974675 -0.51314396
1.5176082 -0.80552483 -0.51084906
1.5109497 -0.81391352 -0.51027536
1.5050865 -0.82271004 -0.50998849
1.5000101 -0.83192962 -0.50998849
1.5074033 -0.84815967 -0.51429135
1.565415 -0.89346009 -0.53609264
1.9372061 -1.121296 -0.66661346
1.937726 -1.1375241 -0.66919523
1.9307098 -1.1493924 -0.66919523
1.9433074 -1.1730937 -0.67607981
1.9458795 -1.190994 -0.67952216
1.9344643 -1.2003869 -0.67808783
1.9351727 -1.2173325 -0.68095642
1.9292825 -1.2302133 -0.68153012
1.918479 -1.2399487 -0.68038273
1.9132391 -1.2532712 -0.6812433
1.9039167 -1.2639278 -0.68066955
1.8929456 -1.2734482 -0.67952216
1.8827211 -1.2834209 -0.67866153
1.8708688 -1.2922279 -0.67722726
1.8636897 -1.304232 -0.67751414
1.8540887 -1.3145353 -0.67694038
1.8436533 -1.3242111 -0.67607981
1.8354933 -1.3354986 -0.67607981
1.8272644 -1.3467358 -0.67607981
1.8120562 -1.3527665 -0.67349809
1.8083074 -1.3673251 -0.67521924
1.8006444 -1.3789771 -0.67550611
1.7891206 -1.3876522 -0.67435867
1.7798189 -1.3980123 -0.67407179
1.7652082 -1.4041375 -0.67177695
1.758052 -1.4161437 -0.67235065
1.7448744 -1.4232724 -0.6706295
1.7309371 -1.429683 -0.66862148
1.7228673 -1.4408913 -0.66890836
1.7198436 -1.4563864 -0.6712032
1.6992362 -1.4569383 -0.66661346
1.6967769 -1.4729873 -0.66919523
