# .PCD v0.7 - Point Cloud Data file format
VERSION 0.7
FIELDS x y z
SIZE 4 4 4
TYPE F F F
COUNT 1 1 1
WIDTH 1548
HEIGHT 1
VIEWPOINT 0 0 0 1 0 0 0
POINTS 1548
DATA ascii
-10.158636 27.191921 4.3104982
-9.0637455 24.723055 3.9100695
-9.0698986 25.217524 3.9794281
-8.7632923 24.84268 3.9116859
-8.6420603 24.98666 3.9259396
-8.4841356 25.0261 3.9238825
-8.459836 25.467247 3.9848652
-8.3236141 25.580757 3.9945636
-9.8959599 31.05895 4.840827
-9.1751099 32.177357 4.9689641
-9.0189056 32.381699 4.991888
-8.798502 32.357204 4.9796915
-8.1738329 30.805367 4.7329683
-8.4243097 32.553711 4.9936514
-7.6517124 30.334608 4.6458292
-7.5846486 30.86607 4.7200375
-7.3985682 30.926456 4.7222414
-7.6776595 33.92749 5.1658721
-6.8533368 31.172363 4.739728
-7.2179971 33.818909 5.1354542
-7.2151074 34.851505 5.2854867
-6.3937521 32.913879 4.9792504
-6.0455308 32.174786 4.8616934
-5.9890127 32.987915 4.9789567
-5.7516599 32.825283 4.9489794
-5.4277253 32.135288 4.8397985
-5.9334235 37.959538 5.7058997
-5.0633698 36.823696 5.5201597
-4.916121 37.454281 5.6100907
-4.6881771 37.499447 5.612442
-4.4527445 37.483307 5.6058292
-0.84012187 60.28558 8.9550285
-0.099730127 59.973835 8.9078588
1.0816342 64.592087 9.595274
1.4829874 64.804756 9.6280432
0.96124727 16.074669 2.3904979
1.0583001 16.044781 2.3869712
1.1447819 15.872239 2.3622844
1.9586369 15.311939 2.2914562
2.0499229 15.280026 2.2885172
2.1347036 15.203489 2.2789657
2.2233584 15.158787 2.2742636
2.3042197 15.06566 2.2623608
2.3914857 15.019002 2.2575116
2.4768133 14.963058 2.2513399
2.559032 14.892012 2.242964
2.6418605 14.828313 2.2357635
2.7241831 14.765132 2.2287102
2.807128 14.708302 2.2226853
2.8996198 14.702447 2.2244487
3.0093105 14.780336 2.2389965
3.2153535 14.85734 2.2564831
3.598443 14.465667 2.212693
3.7443759 14.300807 2.1943247
3.8988714 14.178434 2.1827159
3.9809701 14.137107 2.1800709
4.0377831 14.008813 2.1640539
4.1351328 14.022673 2.1700785
4.1979671 13.920327 2.1581759
4.2710643 13.854606 2.1520042
4.3764977 13.893236 2.1621435
4.549438 13.846942 2.163466
4.6998057 13.733918 2.1546493
4.7854753 13.186678 2.0822048
4.8669834 13.158922 2.0824986
4.9410071 13.111224 2.0797067
5.0110841 13.05388 2.0754452
5.0838847 13.004461 2.0725062
5.1493192 12.93718 2.0667753
5.2208037 12.886088 2.0636895
5.2895942 12.829121 2.0597219
5.3597956 12.776356 2.0564892
5.428772 12.721393 2.0529625
5.498064 12.66788 2.0497296
5.5720954 12.625762 2.0484071
5.6401486 12.570578 2.0450273
5.7077346 12.515034 2.0416477
5.783586 12.477982 2.0413537
5.857091 12.435994 2.0403252
5.9174914 12.366808 2.034888
6.0096912 12.364072 2.040472
6.1344776 12.426306 2.0569301
6.2008576 12.368978 2.0536971
6.2676616 12.313066 2.0507581
6.3576255 12.302498 2.0554605
6.4017496 12.203691 2.0454681
6.4792986 12.169419 2.0463498
6.6901798 12.026484 2.0426762
6.7711387 11.99813 2.0448804
6.826941 11.925452 2.0395904
6.8840928 11.855965 2.034888
7.002883 11.891919 2.0484071
7.0032029 11.727282 2.0273938
7.0724673 11.679859 2.026659
7.1683221 11.675863 2.0335655
7.2272849 11.611505 2.0300388
7.3042021 11.576142 2.0316553
7.3489819 11.490273 2.0244548
7.4145041 11.437495 2.0231323
7.476397 11.379385 2.0209281
7.5329227 11.313535 2.0174015
7.6060719 11.27284 2.01843
7.6767726 11.228409 2.0188708
7.7376394 11.16971 2.0168138
7.8145528 11.134167 2.0190179
7.8764191 11.077141 2.0174015
7.8690863 10.924261 1.9982984
7.923142 10.858193 1.9950656
7.9807987 10.797441 1.9928614
8.050457 10.753019 1.9937431
8.1180773 10.705785 1.9941839
8.1793966 10.65028 1.9931552
8.2366972 10.589742 1.991245
8.3058043 10.544442 1.9922736
8.3808327 10.506426 1.9947717
8.4557076 10.467886 1.9972697
8.5191507 10.415039 1.9971229
8.5841579 10.364095 1.9974167
8.6475897 10.311229 1.9974167
8.7158165 10.264006 1.9985923
8.7805653 10.212584 1.9990331
8.8476095 10.163737 2.0000618
8.9235401 10.124843 2.0031476
8.9835215 10.067684 2.0027068
9.0371695 10.003565 2.0009434
9.1017189 9.9515743 2.0016782
9.167985 9.9013472 2.0028536
9.2360067 9.8528452 2.0044701
9.319438 9.820385 2.0094664
9.3829451 9.7665834 2.010201
9.4413166 9.707408 2.0099072
9.505559 9.6542292 2.0109358
9.5841694 9.6153393 2.0150502
9.638772 9.5521727 2.0141685
9.7198191 9.5149946 2.0188708
9.7908173 9.4675522 2.0215158
9.8258371 9.3854351 2.0168138
9.9177723 9.3575535 2.0238671
9.9684906 9.290452 2.0225446
10.001294 9.2070036 2.0176954
10.116874 9.1993685 2.029598
10.138545 9.1060524 2.0226915
10.268218 9.1093178 2.0373862
10.322431 9.0448389 2.0370922
10.145136 8.7800102 1.9913919
10.112353 8.6436806 1.9744931
10.038227 8.474267 1.9498061
10.080159 8.4042797 1.9478959
10.546153 8.6837015 2.0276878
9.9561472 8.0958414 1.9045467
10.810794 8.6812191 2.0579586
10.859208 8.6110344 2.0570769
10.921185 8.5515604 2.0588403
10.981276 8.4904394 2.0603096
10.997001 8.3952875 2.0535502
11.158097 8.4104156 2.0739758
11.176166 8.3169899 2.0678041
8.4355097 6.1971984 1.5531981
11.357454 8.2372923 2.0824986
11.432715 8.1853008 2.087054
11.50211 8.1286993 2.0905807
11.572051 8.0721188 2.0942543
11.677577 8.0396681 2.1043937
11.76514 7.9939942 2.1113
11.829577 7.9321218 2.1140921
11.907722 7.8790388 2.1193821
11.971579 7.8161011 2.122174
12.042594 7.7574968 2.1262887
12.101653 7.6908875 2.128346
7.1262736 4.4674282 1.2476969
12.27504 7.5912309 2.1423059
12.343342 7.5291634 2.1461263
12.41643 7.4696021 2.1508286
12.517323 7.4260836 2.1603801
12.572898 7.3551331 2.1621435
12.652922 7.2981133 2.1681683
12.76281 7.2575016 2.1793363
12.794159 7.1717987 2.1771321
6.5222034 3.6032343 1.1051589
13.000214 7.0790663 2.1972637
13.074781 7.0160041 2.2025537
6.0020289 2.8955586 0.98818976
5.8928108 2.7984099 0.96732336
5.9080782 2.7613618 0.96702945
15.035156 5.827898 2.3937309
5.2513065 1.9612411 0.83095723
5.3022466 1.9432836 0.83712894
15.253697 5.4859533 2.4063683
15.314122 5.4017982 2.4106297
15.385306 5.3209882 2.4166543
15.48605 5.2496705 2.4273815
15.552701 5.1660895 2.4328187
15.690394 5.1051502 2.4494236
15.790223 5.0307021 2.4601505
15.889726 4.9552197 2.4708776
16.0116 4.8856349 2.4851315
16.100042 4.8048377 2.4942422
16.131121 4.7065134 2.4945359
16.31189 4.650847 2.5180473
4.5514255 1.1178042 0.69444412
4.63131 1.1073483 0.70561206
4.6466875 1.0809286 0.70693457
4.7014699 1.0633136 0.71428186
4.9691763 1.0281345 0.75204706
5.1208634 1.0268143 0.77408904
18.360245 3.3330226 2.770354
18.369633 3.2184255 2.7687378
18.442678 3.1147125 2.7768197
18.55224 3.0162573 2.7904859
18.734581 2.9280322 2.8151727
18.804039 2.8208029 2.8229609
19.006039 2.7319763 2.8507338
19.106716 2.6268954 2.8633711
19.250952 2.526475 2.882621
19.477114 2.4346919 2.9142146
19.640005 2.3327584 2.9364035
19.767969 2.2250435 2.9534492
19.87764 2.1139624 2.96785
20.011295 2.0040836 2.9859242
4.0252323 0.27817518 0.59760654
4.0002093 0.25178924 0.59363902
4.0145173 0.22797094 0.59554929
4.0158405 0.20333403 0.59554929
7.8610778 0.10894809 1.1661416
7.8498912 0.017280435 1.0276846
36.448658 -2.159466 4.7859287
3.4780228 -0.44276258 0.45812368
3.3991208 -0.58198613 0.45058328
3.3954861 -0.60283178 0.45058328
3.3926985 -0.62383407 0.45071328
3.3401051 -0.63537234 0.44421291
3.3456602 -0.6790747 0.44603303
3.3588989 -0.70324886 0.44837314
3.3622739 -0.72551894 0.44941321
2.7353187 -0.66084528 0.36737874
2.7273629 -0.67666119 0.36685872
2.675118 -0.68114698 0.36035839
2.6421087 -0.69002992 0.35645816
2.6148386 -0.70007265 0.353338
2.6028445 -0.71400493 0.35229793
2.5860054 -0.72647524 0.35060784
2.5738761 -0.74013633 0.3495678
2.5664327 -0.75507557 0.34917778
2.5664985 -0.77223748 0.3498278
2.5607641 -0.78767914 0.3496978
2.5435867 -0.79951084 0.34800771
2.5452411 -0.81722522 0.34891775
2.5524268 -0.83684379 0.35060784
2.5547657 -0.85500741 0.35164791
2.6132746 -0.89246154 0.36048838
2.5993228 -0.90554321 0.35931832
2.6320229 -0.93508726 0.36464861
2.6775081 -0.96979421 0.37179899
2.6817384 -0.98998272 0.37322909
3.0217609 -1.1366478 0.4217217
3.0017676 -1.1501999 0.41990161
3.0362182 -1.1848193 0.42575192
3.0731196 -1.2210027 0.43199226
3.0444288 -1.2312844 0.42900211
3.1055815 -1.2782496 0.43875262
3.229372 -1.3524417 0.45747364
3.2310464 -1.3765066 0.45890373
3.1925173 -1.3832957 0.45461348
3.1776185 -1.4000597 0.45370343
3.0359547 -1.3599387 0.4345924
2.8146877 -1.3446935 0.40742093
2.7858679 -1.3519808 0.40443078
2.7784092 -1.3694876 0.40456077
2.7832532 -1.3931679 0.40651089
2.7746525 -1.4102193 0.40651089
2.7668283 -1.4276724 0.40664089
2.7606511 -1.4460028 0.40703091
2.7587302 -1.4666386 0.40807095
2.7522969 -1.4849508 0.40846097
2.7466123 -1.5037154 0.40898103
2.7356005 -1.5195769 0.408721
2.72277 -1.5343863 0.40820098
2.7133038 -1.551064 0.40820098
2.6985893 -1.5646989 0.40742093
2.6949203 -1.5847462 0.40833098
2.7396455 -1.633757 0.41665143
5.5216012 -3.4323177 0.85087502
5.5021148 -3.4671903 0.85113502
5.4807372 -3.5008855 0.85113502
5.4608173 -3.5355268 0.85139501
5.4323893 -3.5646152 0.85035497
5.4137177 -3.6000769 0.85087502
8.0075607 -5.7611275 1.2918589
7.8707809 -5.8855739 1.2870487
7.8447943 -5.9415402 1.2887387
7.7877359 -5.9738722 1.2853585
4.9786286 -4.2226725 0.8543852
4.9601469 -4.2596011 0.85568529
4.9211974 -4.2788954 0.85347515
4.8948503 -4.309011 0.85347515
4.8616567 -4.3330264 0.85230505
4.8887143 -4.4112663 0.8617956
4.8674116 -4.4465299 0.86283565
4.8480434 -4.4837179 0.86426574
4.8356395 -4.5276122 0.86699587
4.8149638 -4.5640192 0.86829597
4.7897301 -4.5962234 0.86881596
4.7621493 -4.6262169 0.86894596
4.682776 -4.6052914 0.85958546
2.2219265 -2.211998 0.40950105
2.2090104 -2.2262938 0.40963104
2.1960025 -2.2405143 0.40976104
2.1829033 -2.2546589 0.40989107
2.1724541 -2.2715936 0.41054109
2.1611984 -2.2877638 0.41106114
2.1511786 -2.3053315 0.41184115
2.1464 -2.3286951 0.41366127
2.1374106 -2.3476868 0.41470131
2.1315837 -2.3703425 0.4163914
2.1360931 -2.404876 0.42016163
4.3764172 -4.9887304 0.86855596
2.0739577 -2.3934395 0.41366127
4.3206701 -5.0488405 0.869726
4.2819295 -5.0661688 0.86816597
4.213913 -5.0481977 0.86062551
4.1651993 -5.0525365 0.85698533
4.1422567 -5.0879951 0.85867542
4.1035042 -5.1040425 0.85711533
4.0326543 -5.0794249 0.84879488
5.9042945 -9.0321283 1.4132855
5.8417768 -9.057354 1.4115955
3.6560006 -5.9858809 0.91808867
3.6140871 -5.9997077 0.91678858
1.7055172 -2.9950411 0.45032325
1.6696371 -2.9743228 0.44564301
1.6508757 -2.9836438 0.44551301
1.6391823 -3.0059044 0.4473331
1.6254005 -3.0246401 0.44863316
1.6123782 -3.0450716 0.45019326
1.5991662 -3.0654571 0.45175335
1.5853114 -3.0849128 0.45318341
1.569487 -3.1007745 0.45409346
1.5517582 -3.1130087 0.45448348
1.5435488 -3.1447239 0.45773366
1.6156728 -3.3434014 0.48529515
1.6997939 -3.6305771 0.52403724
1.6658692 -3.6157231 0.52039707
1.6661648 -3.6755459 0.52754748
1.6403506 -3.6784554 0.52650738
1.6064731 -3.7247117 0.53027761
1.6203568 -3.8212197 0.54262829
1.5442427 -3.7047911 0.52468729
1.533883 -3.7444749 0.52897751
1.5349394 -3.8136048 0.53742796
1.5384851 -3.8911848 0.54704851
1.288278 -4.122529 0.56472945
1.2652774 -4.1379418 0.56576955
1.2390115 -4.1427774 0.5653795
1.211621 -4.14364 0.56446946
1.1590818 -4.1524668 0.56368941
1.1057444 -4.1577535 0.56251937
1.0710025 -4.1289487 0.5577091
0.9707762 -4.047688 0.54418838
0.92632282 -3.9695628 0.53287774
0.90721291 -3.9983788 0.53599793
0.88372934 -4.0087113 0.53664792
0.30974752 -4.8655219 0.63766342
0.27926171 -4.8564425 0.63623333
0.24996595 -4.8679667 0.63753343
-0.19890074 -5.7454524 0.75219965
-0.30257171 -5.7022038 0.74712938
-0.33749545 -5.6992497 0.74699938
-0.3738181 -5.7178493 0.74972951
-1.588297 -13.824052 1.8229377
-1.6771437 -13.847513 1.827358
-1.7561914 -13.790734 1.8212477
-1.8319795 -13.713852 1.8125372
-1.914169 -13.688606 1.8107171
-0.96012402 -6.5724893 0.86933601
-2.0654254 -13.555284 1.7962863
-2.1474724 -13.535501 1.7953763
-2.2320981 -13.531853 1.7966764
-2.3187685 -13.539401 1.7995365
-2.4000673 -13.515157 1.7982365
-2.4727256 -13.444592 1.7908261
-2.5418289 -13.359035 1.7814655
-2.6183937 -13.315948 1.7778254
-2.6998522 -13.298658 1.7776953
-1.553411 -7.4183292 0.99219269
-1.598063 -7.4047809 0.99167264
-2.894268 -13.02216 1.7475337
-2.9430773 -12.514654 1.6840903
-3.1718984 -12.781689 1.7251725
-3.2441473 -12.737966 1.7219223
-3.311218 -12.675611 1.716202
-2.2103276 -8.2541389 1.1188196
-3.4633696 -12.622548 1.7146419
-3.534049 -12.577196 1.7113917
-3.6100585 -12.551463 1.7108717
-3.6786067 -12.50054 1.7069715
-3.7492387 -12.457795 1.7042413
-2.8106325 -9.1357107 1.2516868
-2.8722854 -9.1362648 1.2541569
-3.9503212 -12.300767 1.6924107
-4.0217066 -12.264049 1.6907206
-4.0682397 -12.153581 1.67889
-4.1350436 -12.10587 1.6757698
-4.1988058 -12.050309 1.6716095
-4.2633705 -11.998159 1.6679693
-4.3277907 -11.946604 1.6644592
-4.3883047 -11.885409 1.6596489
-4.3675809 -11.609553 1.624807
-4.5171499 -11.787148 1.6535386
-4.5908313 -11.762904 1.6540586
-4.5743098 -11.511529 1.6225969
-4.6653066 -11.533798 1.6297473
-4.7797718 -11.611312 1.6448281
-4.8693147 -11.625663 1.6510684
-4.932395 -11.576411 1.6483383
-4.9942656 -11.525003 1.6453482
-5.0536923 -11.468738 1.6417079
-5.1207252 -11.430274 1.6406679
-5.1870651 -11.390518 1.6394979
-5.2460303 -11.335081 1.6361176
-5.3099966 -11.291015 1.6344275
-5.3757572 -11.251063 1.6333874
-5.474565 -11.279413 1.6423579
-5.5103517 -11.178021 1.6324774
-5.6454148 -11.276993 1.6519785
-6.7959652 -13.369618 1.9649055
-7.1584301 -13.871305 2.0451198
-7.4053674 -14.136279 2.0908823
-7.4831223 -14.073941 2.0884123
-8.6843214 -16.094028 2.3962688
-8.7586231 -15.996085 2.3896384
-6.0146341 -10.826572 1.6223369
-6.0736489 -10.776507 1.6203868
-6.12391 -10.711493 1.6162266
-6.1636543 -10.629113 1.6094662
-6.2242336 -10.583402 1.6082962
-6.2844839 -10.537348 1.6071261
-6.3479958 -10.496891 1.606866
-6.417985 -10.467041 1.6082962
-6.4946518 -10.447673 1.6114163
-6.5649791 -10.417692 1.6129764
-6.6367841 -10.389748 1.6149265
-7.6520839 -11.818645 1.8445189
-7.7277217 -11.776445 1.845299
-7.7844615 -11.70569 1.8416588
-7.8500443 -11.648661 1.8402287
-7.9174566 -11.594543 1.8393186
-7.9912715 -11.549821 1.8399687
-8.0654039 -11.505441 1.8407488
-7.136868 -10.049156 1.6145364
-7.18855 -9.9914942 1.6123264
-7.2123451 -9.895916 1.6040059
-7.2546735 -9.8267479 1.5999757
-7.3130507 -9.7796669 1.5995857
-7.3854923 -9.7512083 1.6023158
-7.4451857 -9.7057085 1.6023158
-7.5039897 -9.6590605 1.6021858
-7.5575981 -9.6058226 1.6010157
-7.6151595 -9.5577173 1.6007557
-7.6761518 -9.5138988 1.6012758
-7.7287378 -9.4597092 1.6001056
-34.71846 -41.96492 7.1398363
-34.974663 -41.750343 7.1397066
-35.231461 -41.536469 7.1399665
-40.293793 -46.91806 8.1076088
-47.641201 -54.789539 9.518446
-48.141586 -54.683723 9.5512075
-48.715038 -54.655247 9.5982695
-49.155098 -54.472351 9.6189413
-49.76862 -54.476433 9.6734142
-50.305935 -54.390583 9.7128057
-50.827801 -54.282818 9.7490778
-51.432766 -54.257759 9.8010807
-51.97617 -54.161491 9.8411226
-52.422207 -53.959606 9.8627043
-67.828636 -34.327499 9.9661903
-64.359764 -30.128845 9.3161545
-73.370728 -33.255638 10.560843
-72.861618 -32.487453 10.458656
-72.131577 -31.632801 10.325789
-71.846321 -30.983484 10.257536
-71.438072 -30.288935 10.172511
-70.367531 -28.821489 9.9689198
-69.484016 -27.468805 9.7952309
-69.324982 -26.915268 9.7493382
-68.697609 -26.18778 9.6383123
-68.307251 -25.560055 9.561348
-68.017906 -24.977079 9.4992046
-67.453476 -24.301163 9.3993587
-67.19558 -23.743456 9.3429356
-66.489319 -23.035978 9.2248898
-66.254807 -22.500359 9.1730165
-65.698257 -21.862671 9.0772018
-65.952782 -21.498783 9.0939722
-63.520252 -19.419916 8.7077217
-56.683342 -16.195023 7.7281184
-55.667698 -14.802156 7.5511789
-55.577038 -14.413512 7.5267372
-84.445099 -9.026639 11.133913
-84.617279 -8.5202436 11.149514
-82.787277 7.9717655 10.90367
-42.476635 5.9402099 5.6221342
-118.7234 22.591131 15.844719
-47.367722 9.3147106 6.3282022
-47.501099 9.644043 6.3538136
-47.566219 9.9615412 6.3705845
-47.755222 10.307395 6.4042563
-46.77739 10.397133 6.2815299
-46.716579 10.684843 6.2820497
-46.878887 11.025087 6.3128614
-47.138035 11.391714 6.3570638
-47.017208 11.668315 6.3503036
-46.353817 11.806081 6.270349
-47.612995 12.438386 6.4509292
-48.280914 12.929854 6.5520744
-49.632057 13.618624 6.746695
-50.231968 14.115226 6.83991
-50.05389 14.39714 6.8275595
-49.881851 14.679639 6.8162489
-55.418102 17.050613 7.6009717
-54.952065 17.277027 7.5514388
-52.370178 18.609682 7.2858343
-52.127632 19.247164 7.2844043
-53.306843 20.42935 7.483705
-69.242752 48.540924 11.086201
-14.334867 19.488813 3.1705909
-14.27735 19.662251 3.1845016
-13.989499 19.516588 3.1469297
-15.025733 21.23624 3.4094138
-13.744405 19.680288 3.1458895
-13.420253 19.469543 3.0989571
-13.350536 19.886312 3.1389992
-12.611135 19.036291 2.9924812
-13.912743 21.283587 3.3324497
-12.326603 19.112123 2.9803905
-12.42627 19.528702 3.0334334
-12.08903 19.258593 2.9798706
-12.534888 20.243685 3.1204083
-11.983053 19.620424 3.0128925
-12.80939 21.265705 3.2535355
-11.716566 19.724226 3.0065219
-11.60885 19.818846 3.0100322
-12.446531 21.551115 3.261596
-12.311119 21.621912 3.2608159
-11.958379 21.305365 3.2019227
-11.881185 21.47551 3.2164834
-11.721186 21.496647 3.208813
-11.521015 21.441517 3.1899619
-10.816747 20.430473 3.0295334
-11.367537 21.793148 3.2212937
-11.319246 22.029169 3.2458651
-10.613915 20.972021 3.0803661
-11.05735 22.185049 3.2485952
-10.526558 21.448719 3.1311989
-10.284756 21.28525 3.098047
-10.042805 21.114258 3.064115
-9.9853649 21.329937 3.0864763
-9.7510004 21.166567 3.0541046
-9.672924 21.340691 3.0706155
-9.5664291 21.45488 3.078546
-11.365523 25.916237 3.7089503
-11.064051 26.094835 3.7148006
-11.05096 26.515503 3.7649832
-10.569641 26.263714 3.7105103
-10.35252 26.186995 3.6906192
-10.053127 25.893246 3.6404364
-9.5264778 25.458414 3.5625622
-9.4678373 25.782581 3.5997443
-8.9928341 25.449957 3.5376008
-8.7933369 25.380053 3.5203099
-8.6307459 25.413813 3.5175798
-8.4411488 25.365627 3.503669
-8.4587765 26.49971 3.6457667
-8.4190283 26.944813 3.6998496
-8.1581669 26.68401 3.6570773
-9.416297 31.489021 4.3078928
-9.2615128 32.415424 4.4187889
-9.0064697 32.271084 4.3914871
-8.49471 31.174908 4.2350888
-8.3244123 31.305975 4.2458792
-7.7846951 30.016634 4.0643892
-7.6139789 30.117666 4.0716701
-7.6751552 31.163147 4.2066174
-7.4879584 31.227011 4.2089572
-7.2768388 31.189327 4.1977768
-6.9460483 31.514471 4.2297583
-6.7622991 31.60207 4.2358689
-6.2647748 32.159134 4.2943721
-7.2088189 38.254597 5.1026258
-5.8771214 32.274563 4.2998323
-5.6851563 32.345173 4.3045125
-5.4870806 32.382381 4.3049026
-5.2630596 32.260822 4.2843614
-5.066855 32.304264 4.2859216
-5.6175647 37.309612 4.9455771
-5.3930626 37.374783 4.9497375
-5.1441107 37.265728 4.9310164
-4.5259037 37.929066 5.0069408
-4.2587695 37.652676 4.9668984
-0.49743211 59.818989 7.8421345
-0.12982149 59.564114 7.8084626
0.2371514 59.940567 7.8578653
0.60671705 60.114456 7.8810067
1.0508446 64.747292 8.4891796
1.448262 64.746567 8.4900894
0.9525212 16.079042 2.1103833
1.0495445 16.048161 2.1071332
1.1378716 15.899995 2.0885422
1.9467231 15.286742 2.0189884
2.0375955 15.252887 2.0161283
2.1249673 15.19591 2.010278
2.2140105 15.154134 2.0065076
2.3014264 15.103996 2.0016975
2.3852026 15.033773 1.9942871
2.4688499 14.967005 1.9873967
2.5509307 14.894891 1.9798563
2.6346476 14.836005 1.974136
2.7128952 14.750323 1.9649055
2.7981608 14.706127 1.9612653
2.8841341 14.667277 1.9584051
2.9768386 14.662909 1.9602252
3.0675654 14.64825 1.9607452
3.1542497 14.614613 1.9587952
3.2365494 14.562076 1.9543749
3.3200917 14.516812 1.9509947
3.3993418 14.454664 1.9454044
3.4770229 14.388237 1.9392941
3.558794 14.340649 1.9357839
3.6300781 14.253206 1.9269434
3.7084436 14.196129 1.9222631
3.7882977 14.146289 1.918623
3.8605962 14.070189 1.9114726
3.9406872 14.024282 1.9084824
4.0184422 13.971251 1.9045823
4.1018529 13.938722 1.9035422
4.1758718 13.875314 1.8983419
4.244894 13.797308 1.8911915
4.3327436 13.781406 1.8926215
4.3862987 13.658271 1.8793608
4.478673 13.65748 1.8830011
4.5501146 13.593074 1.8779308
4.6315107 13.559269 1.8771508
4.7159271 13.534341 1.8776708
4.7952313 13.494873 1.8762406
4.7904735 13.22375 1.8425689
4.8632803 13.171783 1.8394487
4.9370265 13.123136 1.8368485
5.0107136 13.075004 1.8343784
5.076426 13.007067 1.8291781
5.1422262 12.94066 1.8242378
5.217442 12.898752 1.8228078
5.2878079 12.845408 1.8198177
5.3569498 12.789859 1.8165674
5.4244437 12.731207 1.8129272
5.4989104 12.689495 1.8117572
5.5698709 12.640092 1.8095471
5.640027 12.589391 1.8072069
5.7077169 12.533793 1.8042167
5.7732706 12.47424 1.8007066
5.8416848 12.421534 1.7982365
5.9177918 12.385456 1.7982365
5.9893465 12.339992 1.7969364
6.1087928 12.391941 1.8099371
6.1944785 12.373732 1.8127972
6.2617488 12.318696 1.8103271
6.3335791 12.272994 1.8092871
6.3995638 12.216334 1.8066869
6.4609017 12.15145 1.8029166
6.532515 12.106342 1.8021367
6.5809603 12.01907 1.7951163
6.6449537 11.961128 1.7925161
6.7138391 11.912356 1.7913461
6.7631831 11.82962 1.7851057
6.8450918 11.804196 1.7875758
6.9003019 11.732916 1.7831556
6.9833374 11.709089 1.7860157
7.0653138 11.682988 1.7886159
7.1420488 11.647869 1.789916
7.2081494 11.595406 1.7886159
7.2934351 11.573607 1.7921261
7.3349552 11.482682 1.7849758
7.4015017 11.431633 1.7840657
7.4628015 11.37274 1.7819855
7.524756 11.315177 1.7801654
7.6051254 11.285236 1.7827656
7.6759038 11.240817 1.7831556
7.7458601 11.195137 1.7834157
7.8200979 11.155518 1.7847157
7.8889742 11.108132 1.7848457
7.8961811 10.97501 1.7711949
7.9271655 10.876674 1.7631345
7.9978766 10.833413 1.7640445
8.0588541 10.776988 1.7628745
8.1188431 10.719433 1.7615744
8.1874809 10.673348 1.7622244
8.2516003 10.621345 1.7619644
8.3086462 10.560384 1.7602744
8.3763762 10.513082 1.7609245
8.4407253 10.461488 1.7609245
8.5028753 10.407195 1.7605344
8.5665722 10.354827 1.7605344
8.6363144 10.309669 1.7618345
8.7141619 10.273874 1.7648246
8.7847891 10.229239 1.7663847
8.8460884 10.173647 1.7661247
8.9155521 10.127363 1.7675548
8.9788446 10.073948 1.7678148
9.0418167 10.020138 1.7680748
9.1118231 9.9739857 1.7697649
9.1728506 9.9178886 1.7697649
9.2403097 9.8686562 1.771065
9.3143311 9.8261652 1.7736651
9.3778811 9.7724047 1.7743151
9.4459572 9.7232132 1.7758752
9.5110025 9.6707258 1.7769153
9.577157 9.6192112 1.7782153
9.6465578 9.5707417 1.7801654
9.7220964 9.5280266 1.7832856
9.7839384 9.4716415 1.7839357
9.7988749 9.3703156 1.7761352
9.9124069 9.3631201 1.7862757
9.9442978 9.2784481 1.7817255
10.004688 9.2206163 1.7823756
10.117534 9.2104492 1.7923862
10.151739 9.1283073 1.7884859
10.261676 9.1139097 1.7979764
10.321132 9.0540428 1.7986264
10.380988 8.9944391 1.7994065
10.423175 8.9196138 1.7971964
10.41864 8.8055696 1.7870559
10.59046 8.8399563 1.8072069
10.652152 8.7811146 1.808507
10.392875 8.4608192 1.7555941
10.78229 8.6683722 1.8124073
10.842264 8.6075983 1.8135773
10.887073 8.5347929 1.8122772
9.0668888 7.0185285 1.5018203
11.005168 8.4113865 1.8146173
11.130177 8.3992453 1.826708
11.181504 8.3307934 1.826708
8.4312878 6.2017169 1.3707732
11.363125 8.2512093 1.8397087
11.431269 8.1940393 1.8425689
11.488616 8.1288977 1.8437389
11.557788 8.0718775 1.8468591
11.646284 8.0278187 1.8530995
7.837316 5.3317237 1.2412862
11.841883 7.9500608 1.8685702
11.901186 7.8843699 1.8702604
11.963449 7.8204198 1.8724705
12.02454 7.7554641 1.8745506
12.086958 7.6911182 1.8768907
7.1876345 4.5119781 1.1111492
12.27906 7.6032844 1.8921015
12.362714 7.5505371 1.8978218
12.442784 7.4950018 1.9030222
12.485128 7.4164882 1.9025021
12.583445 7.370811 1.9105625
12.656768 7.3098254 1.9148527
12.729816 7.2482176 1.919143
12.837169 7.2053986 1.9286336
6.4999962 3.5962374 0.9724316
13.005582 7.0914664 1.9407241
13.100381 7.0392208 1.9483945
5.8791542 2.796524 0.85204506
5.8979988 2.7612381 0.85230505
15.225024 5.9112463 2.139895
15.155389 5.7774544 2.1250741
5.243999 1.9624592 0.73256856
5.2810717 1.9394737 0.7360788
15.209725 5.4797029 2.1181839
15.324396 5.4150133 2.1294944
15.398556 5.335165 2.1352148
15.477944 5.2565222 2.141715
15.57294 5.1824279 2.1504257
15.691174 5.115047 2.1623862
15.809162 5.0464096 2.1743469
15.885257 4.9635048 2.1805873
15.994112 4.8900018 2.1913779
16.112162 4.8181896 2.2034683
16.181393 4.7309222 2.2089288
4.6329465 1.1111121 0.62310266
4.639677 1.082664 0.62310266
4.7583985 1.0796193 0.63818347
4.8983021 1.0483229 0.65521437
5.0391068 1.013947 0.67237532
18.186581 3.427243 2.4250004
18.20434 3.3150549 2.4246104
18.340548 3.2237172 2.4400814
18.427437 3.1225505 2.4490519
18.562698 3.0284204 2.4645226
18.683783 2.9305959 2.4781733
18.781811 2.8280044 2.4888339
18.918535 2.7299831 2.5046947
19.10976 2.6379824 2.5278361
19.263208 2.5388141 2.546037
19.435829 2.4403315 2.5668383
19.519354 2.3292527 2.5759387
19.712593 2.2297208 2.5995998
19.868858 2.1240053 2.6184509
19.979183 2.0118861 2.6313217
20.262608 1.9149096 2.6670735
4.0692763 0.28416955 0.53326774
3.9898036 0.25403336 0.52260721
3.9843578 0.22914945 0.5216971
4.1183772 0.21150561 0.53911805
7.7851915 0.064910442 1.0192342
7.7179585 0.0041619609 0.86162215
7.7685227 -0.043473821 0.86728936
38.820759 -2.8397911 4.350965
3.3338003 -0.47218791 0.37512988
3.2623899 -0.54406464 0.36846256
3.393152 -0.5872646 0.38368627
3.3933976 -0.60877472 0.38413075
3.3895984 -0.62958479 0.38413075
3.3449273 -0.70662868 0.38090822
3.3453841 -0.72819537 0.38146383
3.3321249 -0.74675435 0.38046372
2.8176162 -0.68625724 0.32290253
2.7053649 -0.6765554 0.31045684
2.6607301 -0.68277764 0.30578971
2.6257339 -0.69100475 0.30223382
2.6147275 -0.70529294 0.30145597
2.6017289 -0.71894318 0.30045587
2.5943997 -0.73408258 0.3001225
2.5841186 -0.74833047 0.29945576
2.5632784 -0.75937742 0.29756668
2.550961 -0.77278799 0.29667771
2.5214868 -0.78078914 0.29378855
2.524229 -0.79864228 0.29467753
2.520227 -0.814421 0.29478863
2.5180137 -0.83080292 0.295122
2.5185201 -0.84813911 0.29578874
2.5189083 -0.86551273 0.29645547
2.5219917 -0.88390833 0.29745558
2.5286877 -0.90371126 0.29890016
2.5371029 -0.92430925 0.300567
2.5546775 -0.94850111 0.30334502
2.5887828 -0.97926813 0.30812329
2.6207504 -1.0097746 0.31267929
2.8726444 -1.1270486 0.34368235
2.993047 -1.1954981 0.35901716
3.0013075 -1.2202003 0.36090624
2.9799881 -1.2328968 0.35923943
5.9284563 -2.4947329 0.71783024
5.9157782 -2.5322351 0.71816361
2.940387 -1.2804015 0.35723922
2.9179344 -1.2919847 0.35546127
2.8963573 -1.3037485 0.35379446
2.8512475 -1.304551 0.34923843
2.8269668 -1.3144826 0.34723824
2.7694221 -1.3084649 0.34112653
2.72998 -1.3103883 0.33723727
2.7585168 -1.3449634 0.34179327
2.7101312 -1.3420275 0.33679277
2.7213809 -1.3684492 0.33923745
2.7651608 -1.4117725 0.34579366
2.7537992 -1.4273412 0.3454603
2.7537854 -1.4488367 0.34657151
2.7492275 -1.4680459 0.34712711
2.7489066 -1.4896202 0.34823835
2.7458112 -1.5098097 0.34901619
2.7382314 -1.5275973 0.34923843
2.7227519 -1.5409448 0.34846058
2.6985917 -1.549214 0.34657151
2.6847403 -1.5632439 0.3460159
2.6699629 -1.5766568 0.34534916
2.62954 -1.5746359 0.34134877
5.4829078 -3.4680004 0.72405308
5.4724021 -3.5085495 0.72549766
5.4582715 -3.5469344 0.72649777
5.4438758 -3.5852773 0.72749782
5.4622808 -3.645642 0.73294282
2.495311 -1.7330952 0.33834848
8.1674747 -5.7453547 1.1152027
8.115881 -5.7838264 1.1129801
2.5112517 -1.8608756 0.34812722
2.5085306 -1.8828096 0.34934956
7.9322701 -6.028254 1.1126468
7.877018 -6.0628715 1.110091
7.8553452 -6.1233087 1.1123134
7.8831525 -6.223114 1.1216477
7.7772827 -6.2173829 1.1119801
4.91922 -4.2388659 0.72471976
4.8773904 -4.2552514 0.72238624
4.8541684 -4.2877297 0.72283071
4.8248048 -4.314784 0.72238624
4.8940201 -4.4310093 0.73683208
4.8718691 -4.4656553 0.73760992
4.8400049 -4.4914088 0.73694319
4.8116307 -4.5203414 0.73683208
4.7888455 -4.554574 0.73760992
4.7722645 -4.5948992 0.73938787
4.7553682 -4.6351924 0.74116588
4.6808529 -4.6189165 0.73394293
2.2089145 -2.2071047 0.34779385
2.196728 -2.2220299 0.34801608
2.180969 -2.2333345 0.34768274
2.1692948 -2.2488198 0.34801608
2.1671128 -2.2743168 0.34990516
2.1524355 -2.2868476 0.34979406
2.1417477 -2.3036501 0.35034966
2.1309342 -2.3204074 0.35090527
2.1186597 -2.3356466 0.35123864
2.1082687 -2.3530428 0.35190538
4.3988624 -4.9694839 0.74072134
4.3741755 -5.0031137 0.74172145
4.3466425 -5.0336199 0.74227709
4.3079357 -5.0511227 0.74094361
4.2723789 -5.0721402 0.74016577
4.2157507 -5.0677018 0.73572087
4.1322079 -5.0297441 0.72649777
4.1075301 -5.0627213 0.72760898
4.0894399 -5.104115 0.7299425
4.0383101 -5.1041732 0.72638661
6.1363716 -7.8539753 1.1130913
5.988337 -7.8614917 1.1036459
5.915494 -7.8655248 1.09909
5.8712683 -7.9072585 1.0998678
7.6522908 -11.591404 1.55169
3.6906481 -5.9824324 0.78461456
3.6523211 -6.0024185 0.78428119
3.601613 -6.001709 0.78128088
1.7197179 -3.0326674 0.38846451
1.6588758 -2.9677 0.37879691
1.6439933 -2.9839151 0.37957475
1.6322949 -3.0061722 0.38113046
1.619916 -3.0275211 0.38257504
1.6068727 -3.0479522 0.38390851
1.5922647 -3.0656912 0.38490862
1.5756881 -3.0798266 0.38546422
1.5567609 -3.089437 0.38546422
1.5404269 -3.1042717 0.38613096
1.5261514 -3.1234863 0.3873533
1.642283 -3.4139776 0.42224562
1.7315012 -3.6566045 0.45102623
1.6624175 -3.5671802 0.43869168
1.7242106 -3.7597754 0.46113834
1.6814829 -3.7268057 0.45580447
1.6722964 -3.7679348 0.45958263
1.6284637 -3.7307658 0.45380428
1.5961306 -3.7187717 0.45113733
1.6196643 -3.8383629 0.464472
1.5790451 -3.9431722 0.473584
1.5337126 -3.8991501 0.46713892
1.444558 -3.7397752 0.4469147
1.3410798 -4.138062 0.48502958
1.3144611 -4.1424241 0.48458508
1.2762477 -4.2000794 0.48947445
1.2209953 -4.1087618 0.47791776
1.1870459 -4.1817513 0.48469621
1.1510041 -4.1516085 0.48036245
1.128626 -4.1701035 0.48169589
1.0538085 -4.0922146 0.47113931
0.95021713 -3.9929726 0.45758241
0.92076421 -3.9774282 0.45513773
0.89350331 -3.9703994 0.45369315
0.86381459 -3.9515357 0.4509151
0.29975387 -4.8405614 0.54092395
0.27043542 -4.8492551 0.54170179
0.24067587 -4.8508234 0.54170179
1.4391299 -75.630966 8.4568129
-0.10298621 -5.7532759 0.64204502
-0.13586156 -5.6511965 0.63071054
-0.31267199 -5.7088704 0.63793349
-0.34853953 -5.7207327 0.63948917
-0.38330272 -5.7135282 0.6389336
-1.5852079 -13.603659 1.5300212
-1.7001175 -13.850142 1.5589129
-1.7756641 -13.766512 1.5506898
-1.8533108 -13.70513 1.5450226
-1.9344463 -13.672835 1.5426891
-0.96701992 -6.5427637 0.73816556
-2.0886276 -13.56065 1.5327992
-2.1713231 -13.544635 1.5324658
-2.2548804 -13.533997 1.5327992
-2.36903 -13.700094 1.5532457
-2.4453347 -13.642259 1.5483563
-2.585197 -13.929909 1.5828041
-2.7099507 -14.118743 1.6061398
-2.8525791 -14.384551 1.6383651
-2.9547348 -14.434932 1.6461437
-1.5681373 -7.4270091 0.84739852
-1.6117784 -7.4085078 0.84639841
-2.9320116 -13.092149 1.4987959
-2.9748104 -12.911214 1.4801273
-3.0526021 -12.886915 1.4794606
-3.1264484 -12.846699 1.477016
-3.1972666 -12.795456 1.473349
-3.2673273 -12.742866 1.4695708
-3.3411589 -12.706238 1.4676818
-2.2246923 -8.2532072 0.95440906
-3.5441709 -12.835757 1.4875726
-3.7174795 -13.148485 1.5264653
-3.9546902 -13.666718 1.5894715
-4.067524 -13.740348 1.600917
-4.1825609 -13.81691 1.612807
-2.8245022 -9.1274824 1.0669757
-2.8873434 -9.1317739 1.0695314
-3.9818158 -12.330328 1.4474576
-4.0387297 -12.249034 1.4407902
-4.0887742 -12.149611 1.4320115
-4.1480789 -12.080116 1.4267888
-3.4669762 -9.8980761 1.1713192
-4.2803001 -11.984315 1.421566
-4.3415155 -11.924208 1.4175657
-4.4145994 -11.897344 1.4175657
-4.387723 -11.606022 1.3860071
-4.532413 -11.769934 1.4088981
-4.6045465 -11.741901 1.4088981
-4.6083455 -11.542675 1.3883406
-4.7067666 -11.582314 1.3965636
-4.7944541 -11.593625 1.401453
-4.8843842 -11.608874 1.4068979
-4.9469213 -11.558585 1.4044533
-5.0145779 -11.520724 1.4035643
-5.0743146 -11.465201 1.400564
-5.1335597 -11.409379 1.3975637
-5.1960301 -11.361397 1.3955635
-5.2614565 -11.320289 1.3944523
-5.3236036 -11.272514 1.3925632
-5.3922405 -11.238742 1.3924521
-5.4950552 -11.275127 1.4011196
-5.5359225 -11.184194 1.3940078
-6.6549625 -13.240302 1.6555891
-6.7920904 -13.308986 1.6693681
-7.1917896 -13.881231 1.7467091
-7.4368663 -14.141186 1.7851573
-8.6179771 -16.146013 2.0450718
-8.7059994 -16.072731 2.042516
-8.817379 -16.042524 2.0455163
-6.0407696 -10.832252 1.3854514
-6.0890169 -10.762978 1.3813399
-6.1549425 -10.725413 1.3813399
-6.1846457 -10.625602 1.3733391
-6.2482114 -10.584886 1.3730057
-6.3140621 -10.548054 1.373228
-6.3760867 -10.504865 1.3726723
-6.4346943 -10.456234 1.3714501
-6.5181932 -10.447753 1.3755616
-6.599174 -10.43444 1.3791175
-6.6512756 -10.375344 1.3766727
-7.8734622 -12.117757 1.6144739
-7.9307241 -12.043487 1.6110291
-8.0000601 -11.987984 1.6101402
-8.0795889 -11.947727 1.6113625
-8.1774626 -11.934 1.6162518
-8.2414665 -11.870537 1.6144739
-8.3078585 -11.810803 1.6132516
-7.1367865 -10.014631 1.3736725
-7.2120605 -9.9899912 1.3763394
-7.227468 -9.8829784 1.3676718
-7.2743678 -9.8200779 1.3651161
-7.324347 -9.7617435 1.363227
-7.3949289 -9.7308617 1.3652272
-7.4508605 -9.6805782 1.3645605
-7.5131741 -9.6385984 1.3651161
-7.5764842 -9.5977774 1.365894
-7.6383348 -9.5549898 1.3664495
-7.6924424 -9.5025339 1.3656716
-7.7209949 -9.4190302 1.360449
-34.811852 -41.943981 6.0934696
-35.064083 -41.724262 6.0926919
-35.321369 -41.510597 6.0930252
-47.21748 -54.80661 8.0874434
-47.652828 -54.630444 8.1044455
-48.254219 -54.639454 8.1495609
-48.753513 -54.526817 8.1772299
-49.277912 -54.437366 8.2090111
-49.885628 -54.433643 8.2544603
-50.341705 -54.259117 8.274684
-50.932911 -54.225193 8.3170214
-51.498882 -54.157963 8.3550253
-52.192059 -54.216839 8.4133644
-52.603512 -53.977421 8.4261436
-13.621978 -9.4810247 1.8543863
-13.659417 -9.3831949 1.8516083
-13.798991 -9.3549757 1.8627205
-14.287618 -9.4324379 1.9129477
-12.181706 -6.7139225 1.5539124
-67.431236 -33.994301 8.4423676
-76.719765 -38.088478 9.5760345
-17.417793 -7.733109 2.1295245
-17.43486 -7.6129646 2.1258576
-17.491289 -7.5101571 2.12708
-17.522392 -7.3965068 2.1253018
-70.938011 -29.434893 8.5862703
-70.503487 -28.748781 8.5121517
-70.341835 -28.180735 8.4715919
-69.427742 -27.321342 8.341135
-69.181564 -26.735409 8.2916861
-68.938263 -26.156347 8.2431259
-68.231331 -25.410292 8.139782
-68.051788 -24.869032 8.1000004
-67.515511 -24.204494 8.0183258
-66.991478 -23.553747 7.9387622
-66.673424 -22.983223 7.8842015
-66.30571 -22.402227 7.8243065
-66.129639 -21.891581 7.7875252
-65.890251 -21.364628 7.7437429
-66.28437 -21.043835 7.7747459
-63.572716 -19.754349 7.4422688
-63.642334 -19.348579 7.4363794
-54.793777 -15.926459 6.378942
-56.729797 -16.112379 6.592741
-69.691864 -18.872946 8.0718861
-55.838787 -14.75417 6.4565053
-55.804119 -14.379282 6.4421706
-71.328674 -17.913755 8.2219009
-71.535713 -17.499844 8.2332354
-73.011078 -16.4426 8.3668041
-71.728012 -14.313671 8.1770077
-36.860123 -5.4906268 4.1656137
-65.927574 4.4157033 7.3868189
-42.007187 5.1550298 4.7308912
-42.9683 5.5407844 4.8429022
-42.818264 5.7887526 4.8299012
-41.777576 6.1710258 4.7206683
-41.857777 6.4455519 4.7341137
-41.897079 6.9789724 4.7478929
-41.244358 7.1306181 4.6787753
-48.81348 9.057373 5.549861
-47.432346 9.4046488 5.4055133
-46.86454 9.5913038 5.3473964
-47.166534 9.95502 5.3887339
-46.667564 10.149209 5.3387289
-46.810978 10.481615 5.3623977
-46.711887 10.760837 5.3585086
-46.782303 11.079774 5.3742881
-46.570526 11.331843 5.357842
-46.206043 11.543916 5.3239498
-46.140118 11.828694 5.3246164
-47.48267 12.795843 5.4973001
-47.386978 13.082455 5.4954109
-49.668911 14.040962 5.7699933
-49.441486 14.30486 5.7536588
-49.566246 14.671137 5.7785497
-55.157738 17.064993 6.4545054
-69.4814 48.869984 9.4969158
-90.675041 79.093079 13.452526
-89.787262 80.279991 13.465972
-7.3487 7.2509189 1.1529841
-14.261218 19.45322 2.6956913
-14.309979 19.773026 2.7278056
-13.901257 19.458567 2.6725779
-13.785036 19.54837 2.6732447
-13.771567 19.785931 2.6941357
-13.600384 19.797976 2.6843569
-13.527169 19.952616 2.6940246
-15.079563 22.538767 3.0308354
-13.104437 19.849234 2.6581321
-12.37429 18.995817 2.5335643
-13.158637 20.47337 2.7199159
-13.74859 21.682566 2.869375
-12.988626 20.76474 2.737251
-12.865147 20.850813 2.7381399
-12.432647 20.429333 2.672689
-12.491322 21.10461 2.7408068
-12.547445 21.49929 2.7820332
-12.415293 21.575876 2.7820332
-12.278258 21.643867 2.781033
-12.113208 21.661552 2.773699
-11.096379 20.132296 2.5690122
-11.653339 21.770449 2.7596977
-10.812963 20.810377 2.6209061
-10.648845 20.805561 2.6120164
-11.067686 21.954927 2.7478075
-10.716219 21.586254 2.6933577
-10.511551 21.504284 2.6750226
-10.070397 20.926306 2.5953481
-10.353619 22.568724 2.7750325
-10.452497 23.158098 2.8395944
-9.5326395 21.470606 2.625351
-11.295857 25.868429 3.1548476
-9.9691715 23.217815 2.8239262
-11.036312 26.144264 3.1717381
-10.972051 26.443722 3.199852
-10.76681 26.405642 3.1871841
-10.666307 26.625269 3.2057414
-10.990038 27.92849 3.3545339
-9.9543724 25.759497 3.0865076
-9.8550034 25.975262 3.1050649
-9.5466404 25.635706 3.0573936
-9.2916012 25.426842 3.0256126
-9.5982485 26.77437 3.178961
-8.8289442 26.133034 3.0829515
-9.1250563 27.566042 3.2454121
-8.2213211 25.897078 3.0367248
-9.2529297 31.835022 3.7055683
-9.1603298 32.253517 3.7476835
-8.952424 32.273685 3.743572
-8.5050983 31.408087 3.637006
-7.3994975 29.464821 3.3955379
-7.7817917 33.592613 3.8542497
-6.5825715 31.964935 3.6477849
-6.2011275 32.101852 3.6544523
-7.1195936 38.110126 4.3336301
-5.8141351 32.21661 3.6591194
-5.6166897 32.253635 3.6593416
-5.6155047 39.353699 4.4435296
-4.167201 37.369102 4.2029505
-3.9427226 37.440418 4.2081733
-0.77572 60.186951 6.7289767
0.33040598 59.855137 6.6914172
0.69676137 59.774464 6.6827497
1.1517766 64.732346 7.2378044
0.86832285 15.876242 1.7764899
0.97700089 16.056116 1.7972697
1.0718488 15.995281 1.791158
1.8702911 15.237034 1.7151505
1.973534 15.301166 1.7237068
2.0619247 15.248388 1.7191509
2.1472373 15.177393 1.7125946
2.2355318 15.131489 1.7089276
2.3236465 15.087038 1.7054828
2.408155 15.022451 1.6998156
2.490489 14.948573 1.6931483
2.5740387 14.886005 1.6878145
2.6525328 14.79852 1.6797025
2.7376649 14.751676 1.6762577
2.8204491 14.694583 1.6717018
2.9165516 14.70722 1.6751466
3.0073364 14.69197 1.6754799
3.100301 14.686853 1.6770356
3.5042481 14.399439 1.6557002
3.5922945 14.376702 1.6555891
3.6584771 14.268711 1.6456993
3.7363572 14.209471 1.6414765
3.8832088 14.063879 1.630031
4.3995347 13.624093 1.5994724
4.4867816 13.608168 1.6008059
4.6389146 13.509786 1.5958054
4.7141671 13.459494 1.5932496
4.7662506 13.345146 1.5831375
4.7973924 13.176506 1.5665803
4.8757319 13.140299 1.5658025
4.9481854 13.088754 1.5632466
5.0209045 13.03867 1.5609131
5.0859404 12.969682 1.5563571
5.1598983 12.924386 1.5546902
5.234241 12.880513 1.5532457
5.2983656 12.812337 1.5489119
5.3687882 12.760348 1.5465784
5.4368181 12.70341 1.5436891
5.5031614 12.643385 1.5404667
5.5758104 12.598475 1.5391332
5.6481152 12.553149 1.5377997
5.7159414 12.498373 1.535355
5.7904282 12.45856 1.5347995
5.8612471 12.411113 1.5333549
5.9299822 12.359683 1.5314658
6.0309582 12.374881 1.5379108
6.1199999 12.364363 1.5412445
6.2042298 12.343451 1.5433558
6.3588934 12.273445 1.5442448
6.4470329 12.258825 1.5473562
6.5249376 12.224298 1.548023
6.5808897 12.149076 1.543578
6.764255 11.956685 1.5346882
6.8112788 11.869269 1.5287988
6.8979764 11.851303 1.5319103
6.9468231 11.76853 1.5266875
7.0041013 11.700954 1.5234649
7.0742183 11.655209 1.5231316
7.1362252 11.596348 1.5211314
7.2025108 11.544753 1.5201313
7.3404231 11.450478 1.5194646
7.4202895 11.420223 1.5214648
7.4891291 11.372818 1.5212425
7.5532546 11.318384 1.5201313
7.623117 11.272649 1.5202425
7.6949501 11.229762 1.5207981
7.7654099 11.184784 1.5211314
7.8327494 11.135301 1.5209092
7.8968892 11.081364 1.5201313
7.8658519 10.895714 1.5012406
7.9302125 10.844036 1.5007961
7.9971924 10.795973 1.5009072
8.0597057 10.741929 1.5002404
8.1188517 10.683569 1.4990181
8.1842518 10.633552 1.4990181
8.2511768 10.585485 1.4993515
8.3350611 10.558841 1.5027963
8.3965893 10.503617 1.5022407
8.4577532 10.448037 1.501685
8.520443 10.394407 1.5014628
8.5980244 10.358756 1.5039074
8.6684551 10.314174 1.5051298
8.7251377 10.253222 1.5040187
8.7813997 10.191962 1.5029074
8.8476915 10.142383 1.5035741
8.9130459 10.091628 1.5041298
8.9800987 10.042675 1.5050187
9.0555563 10.002857 1.5073522
9.1154194 9.9456406 1.50713
9.1735697 9.8866081 1.5066855
9.2408628 9.8373775 1.5077968
9.3154316 9.7956152 1.5101303
9.3732929 9.736125 1.509797
9.4370184 9.6826982 1.5104637
9.5116072 9.6401758 1.5129083
9.58603 9.5971022 1.5153531
9.6468554 9.5401993 1.5156864
9.7144537 9.4898567 1.517131
9.7860861 9.4431829 1.5192423
9.6560984 9.2039862 1.4902395
9.7008152 9.1336622 1.4884615
9.777051 9.0929193 1.491573
9.8743744 9.0710821 1.4979069
9.9879875 9.0630846 1.5066855
10.158854 9.1051092 1.5240206
10.277034 9.0979414 1.5333549
10.332664 9.0347118 1.5333549
10.387905 8.9711418 1.5333549
10.420829 8.8885288 1.5301323
10.43565 8.7911243 1.524354
10.571901 8.7955761 1.5363551
10.662526 8.760828 1.541689
9.8517942 7.9938693 1.4172323
10.812661 8.6641264 1.5479118
10.843799 8.5803499 1.5448004
10.933047 8.5424118 1.5500231
11.006501 8.4915581 1.5530235
11.074999 8.436511 1.555357
11.145617 8.3827353 1.5580239
11.198438 8.3153744 1.5582461
8.4592896 6.2010565 1.1714303
11.374509 8.231514 1.5685805
11.468468 8.1927643 1.5745811
11.519335 8.1228142 1.5746922
11.595059 8.0701475 1.5782481
11.651731 8.0039148 1.5792482
11.708026 7.9372892 1.5802484
11.830019 7.9144864 1.5901382
11.874212 7.8390117 1.5895826
11.952897 7.7860775 1.5936941
12.028871 7.7308588 1.5974722
12.095384 7.6691465 1.600028
7.1451244 4.4688468 0.94096327
12.242714 7.5535398 1.6071398
12.325336 7.500495 1.6119181
12.403505 7.4441619 1.6161407
12.487432 7.3906951 1.6211412
12.577179 7.3399839 1.6269196
12.662463 7.2859712 1.6321423
12.730269 7.2213788 1.6351426
6.5161662 3.6433167 0.83339715
6.5305653 3.598948 0.83239704
13.025209 7.0750189 1.6560335
13.084146 7.003407 1.6580337
13.385306 7.0593028 1.6907036
13.453061 6.9898701 1.693815
13.525775 6.9225883 1.6975932
13.55646 6.8336492 1.6961486
13.605257 6.7538748 1.6970376
13.668763 6.681179 1.6998156
5.8695822 2.7798607 0.72483093
5.8748193 2.7383339 0.72338635
15.195518 5.8717823 1.8201607
15.22104 5.7745557 1.8189385
5.2706099 1.9621795 0.62748802
5.2853503 1.9308262 0.62782139
15.238686 5.4625516 1.8087152
15.30848 5.3818021 1.813049
15.419197 5.3146524 1.8222721
15.514599 5.2412553 1.8297173
15.60213 5.1643887 1.8362736
15.714825 5.0949206 1.84583
15.799781 5.015542 1.8521639
15.876762 4.9329524 1.8576089
16.050306 4.8790932 1.8743883
16.091373 4.7839174 1.8757218
16.206312 4.7100582 1.8857228
4.6378083 1.1037829 0.53170079
4.6435256 1.0750808 0.53158969
4.6384006 1.0439482 0.53025621
18.264351 3.4117193 2.0761859
18.263424 3.2957034 2.0737412
18.3489 3.195004 2.0811865
18.419125 3.0909114 2.0869648
18.519173 2.9909902 2.0961878
18.687429 2.90063 2.1131897
18.889673 2.8134418 2.1340806
19.018738 2.71349 2.1467485
19.100018 2.6056101 2.1540825
19.398481 2.5251937 2.1859746
19.419529 2.4068527 2.1866412
19.564213 2.3029921 2.2013094
19.712301 2.1978867 2.2164221
19.844015 2.0893846 2.2297566
19.951403 1.9769956 2.2404244
3.9958544 0.27194846 0.44647023
4.0371237 0.24988775 0.4509151
4.0028596 0.22311458 0.4469147
4.0091162 0.19879623 0.44747031
3.9020119 0.145491 0.43524688
7.7044082 0.098706223 0.86017758
7.926703 0.014684886 0.74814576
37.474155 -1.5417668 3.5441978
34.019844 -3.7096159 3.2337346
3.3587823 -0.57627964 0.32098812
3.3659649 -0.59879661 0.3220233
3.3602688 -0.61907762 0.3218351
3.3104439 -0.63092136 0.31741199
3.3141592 -0.67387921 0.31854129
3.3567307 -0.70401371 0.32305849
3.319263 -0.71744376 0.31985882
3.3002219 -0.73455161 0.3184472
3.004564 -0.72702003 0.29106167
2.7266216 -0.67748326 0.26442903
2.6809323 -0.6836201 0.26038235
2.6622398 -0.6962775 0.25897074
2.6261852 -0.70408958 0.25586516
2.6189356 -0.71939898 0.25558284
2.602972 -0.73221898 0.25445354
2.5869503 -0.74487031 0.25332424
2.5813761 -0.7604481 0.25323012
2.569989 -0.77426201 0.25257137
2.5604327 -0.78855109 0.25210083
2.543201 -0.80036068 0.25087741
2.5287645 -0.81290293 0.24993634
2.5265665 -0.82933545 0.25021866
2.5223744 -0.84513897 0.25031278
2.5209091 -0.86188865 0.25068921
2.515573 -0.87734038 0.25068921
2.5232742 -0.89743072 0.25200671
2.5252075 -0.91561174 0.25275958
2.534483 -0.93661153 0.25426531
2.5696819 -0.96758437 0.25840607
2.5655556 -0.98404664 0.2585943
2.6559086 -1.037449 0.26838157
2.8715072 -1.1420408 0.29096755
3.0028629 -1.215686 0.30508381
5.8920784 -2.4277575 0.60124266
3.0207713 -1.2663021 0.30847171
3.0715525 -1.3098099 0.31449464
3.0461047 -1.3211045 0.31270659
3.0260994 -1.334547 0.31148317
3.0105867 -1.3498309 0.31073031
2.9478941 -1.3435024 0.30508381
2.7987747 -1.3172466 0.2912499
2.7996209 -1.3386902 0.29219097
2.7958314 -1.3580182 0.29266152
2.7905269 -1.398023 0.29388493
2.7685866 -1.4083474 0.29247329
2.7643156 -1.427593 0.29294384
2.7599125 -1.4468391 0.29341438
2.7571349 -1.4670203 0.29407313
2.7454538 -1.4824909 0.29379082
2.7336864 -1.4978734 0.2935085
2.7218339 -1.5131674 0.29322615
2.704694 -1.5254377 0.2923792
2.6909626 -1.5395324 0.29190865
2.6780214 -1.554016 0.29153222
2.6667197 -1.5694087 0.29134399
2.6544755 -1.5842111 0.29106167
5.4981036 -3.4203668 0.61093581
5.4921703 -3.4635975 0.61262977
5.4825583 -3.5047388 0.61394727
5.4651275 -3.5410202 0.61441785
5.4566121 -3.583231 0.61592358
5.4535851 -3.6293314 0.61808807
2.6306698 -1.7739571 0.29877856
2.5958986 -1.7737753 0.29604942
2.5739362 -1.8054974 0.29604942
2.538465 -1.8039542 0.29322615
2.575016 -1.8538176 0.29877856
7.9502397 -5.949316 0.93749166
7.9016843 -5.988966 0.93608004
7.8189502 -6.0787587 0.93504483
7.7760291 -6.1223092 0.93438607
2.4572635 -2.0088611 0.29887265
2.4272535 -2.0092983 0.29670817
2.3614731 -1.979383 0.2901206
4.9473486 -4.1991053 0.61225337
4.9199805 -4.2280846 0.61206514
4.8894386 -4.2542725 0.6115005
4.8707132 -4.2907748 0.61244154
4.8465223 -4.3225679 0.61272389
4.8679357 -4.3955941 0.61884093
4.8790817 -4.4603114 0.62373453
4.8516221 -4.4901648 0.62373453
4.8239794 -4.5198493 0.62373453
4.8033781 -4.5562153 0.62467563
4.7911291 -4.6007733 0.626746
4.7606673 -4.6280026 0.62646371
4.6647735 -4.5907841 0.61752343
2.1928132 -2.1845298 0.2914381
2.1807697 -2.1993575 0.29162633
2.174896 -2.2205212 0.29266152
2.1653833 -2.2381177 0.29322615
2.1571121 -2.2571204 0.29397902
2.1500556 -2.2775533 0.29492012
2.1401138 -2.2950721 0.29548475
2.13341 -2.3162158 0.29651996
2.1211677 -2.3314719 0.29680228
2.1061568 -2.3437026 0.29670817
4.4542308 -5.0185461 0.63314539
4.3846345 -5.0016127 0.62759298
4.3538628 -5.0284219 0.62759298
4.3261619 -5.058825 0.62806356
4.2937551 -5.0837536 0.62787533
4.2325101 -5.0740709 0.62345225
4.1468596 -5.0338612 0.61535889
4.1228056 -5.0677066 0.6163941
4.0935035 -5.0952368 0.61667645
4.0565939 -5.1132383 0.61582947
6.0652471 -7.7423587 0.92855138
5.9695067 -7.7172179 0.92111683
5.9214382 -7.7529092 0.92102271
5.8803492 -7.7978406 0.92205793
5.8401203 -7.8441563 0.92328131
5.8036718 -7.8958869 0.92516351
5.7556987 -7.9321547 0.92525756
3.705111 -6.0710487 0.67116517
3.6595759 -6.0800204 0.66965944
1.7335633 -3.0467639 0.33021072
1.6719824 -2.9809301 0.32192919
1.6536603 -2.9911332 0.32192919
1.6381336 -3.0064688 0.32249385
1.6238936 -3.024358 0.32334083
1.6108921 -3.0448256 0.32447013
1.5949398 -3.0599494 0.32503477
1.5824999 -3.0820775 0.3263523
1.5626603 -3.0899529 0.32616407
1.5450026 -3.1021564 0.32644638
1.5281305 -3.1160476 0.32691693
1.7340436 -3.5915761 0.37585327
1.7888877 -3.764004 0.39279276
1.8003442 -3.8488574 0.40050963
1.758796 -3.8209436 0.39646298
1.7056981 -3.8285978 0.39505136
1.6806462 -3.9004426 0.40032142
1.647751 -3.8895972 0.39815694
1.6322725 -3.9198542 0.40022731
1.5998956 -3.9095247 0.39815694
1.2778467 -4.0941491 0.40427396
1.2436887 -4.0723958 0.40135661
1.2334917 -4.1295543 0.40625024
1.2031075 -4.1198435 0.4045563
1.1805375 -4.1367216 0.40549737
1.1559347 -4.1467643 0.40577969
1.1302075 -4.1528182 0.4056856
1.1072599 -4.1692972 0.40662667
1.0824054 -4.1789041 0.40690902
0.93683708 -4.0209537 0.38912255
0.89807355 -3.9644842 0.38309962
0.87480068 -3.9747815 0.38357013
0.30943307 -4.8874359 0.46177414
