# .PCD v0.7 - Point Cloud Data file format
VERSION 0.7
FIELDS x y z
SIZE 4 4 4
TYPE F F F
COUNT 1 1 1
WIDTH 1446
HEIGHT 1
VIEWPOINT 0 0 0 1 0 0 0
POINTS 1446
DATA ascii
2.6564393 -9.0284548 -0.65559369
2.6087134 -9.0714283 -0.65754199
2.555702 -9.0968685 -0.65823781
2.5008924 -9.1162271 -0.65851611
2.444135 -9.1285095 -0.65830737
2.3878255 -9.1423693 -0.65823781
2.3309453 -9.1539488 -0.65802908
2.269928 -9.1487141 -0.65663743
2.2165618 -9.1741066 -0.65747237
2.1732473 -9.2428856 -0.66143858
2.1222765 -9.2813301 -0.6632477
2.0685344 -9.3087845 -0.66429144
2.0096939 -9.3135014 -0.66373479
1.9451475 -9.2905064 -0.66122985
1.895053 -9.336484 -0.66366524
1.8452373 -9.3861103 -0.66637892
1.7918996 -9.419795 -0.66797936
1.7342477 -9.4315948 -0.66804892
1.6789604 -9.4567909 -0.66909266
1.6254504 -9.4934626 -0.67097139
1.5717158 -9.530817 -0.67291969
1.5139879 -9.5452089 -0.6732676
1.4550904 -9.5523453 -0.67312843
1.3961625 -9.5591192 -0.67298925
1.3373444 -9.5665188 -0.67291969
1.2802055 -9.5864096 -0.67375469
1.2224948 -9.6029911 -0.6743809
1.1636689 -9.6113014 -0.67445052
1.1061537 -9.6311445 -0.67535508
1.0519965 -9.6833706 -0.67855585
0.99998623 -9.7620869 -0.68363535
0.94178975 -9.7859116 -0.68488783
0.88280118 -9.8034286 -0.68572283
0.82379997 -9.8225784 -0.68669701
0.76513827 -9.8483343 -0.68815821
0.70604903 -9.8717489 -0.6894803
0.64696175 -9.8987904 -0.69108069
0.58957565 -9.9593363 -0.69504684
0.52766162 -9.9478245 -0.69400316
0.46843785 -9.9897375 -0.69671685
0.40660438 -9.9794655 -0.69581228
0.34508741 -9.9737968 -0.69525564
0.28396815 -9.9787178 -0.69546437
0.22353816 -10.016176 -0.69796932
0.16236749 -10.035313 -0.69922179
0.10089981 -10.047093 -0.69998723
0.039254058 -10.048521 -0.70005679
-0.022405403 -10.04957 -0.70012641
-0.084233604 -10.069194 -0.70151806
-0.14657709 -10.107388 -0.70423174
-0.20877682 -10.115276 -0.70485801
-0.2712653 -10.12976 -0.7059713
-0.33371004 -10.136879 -0.70659757
-0.39601916 -10.13763 -0.7068063
-0.45843995 -10.139993 -0.70715421
-0.52315336 -10.185805 -0.71056372
-0.58856058 -10.233196 -0.71411246
-0.65247911 -10.247313 -0.71536493
-0.71541262 -10.244112 -0.71543449
-0.77802914 -10.236545 -0.71522576
-0.84090644 -10.232573 -0.71529531
-0.90358871 -10.226227 -0.71522576
-0.96641254 -10.221483 -0.71529531
-1.0290122 -10.214368 -0.71522576
-1.0919851 -10.210837 -0.71543449
-1.1549534 -10.206918 -0.71564323
-1.2175602 -10.19964 -0.71564323
-1.2792512 -10.185048 -0.7151562
-1.3410697 -10.172062 -0.71480829
-1.4075509 -10.193288 -0.71689576
-1.4743429 -10.21408 -0.71898323
-1.5395123 -10.221611 -0.72016609
-1.6020473 -10.210987 -0.72009653
-1.6707737 -10.238379 -0.72274065
-1.7388964 -10.259408 -0.7249673
-1.8030227 -10.255423 -0.72545439
-1.8685955 -10.258888 -0.72649813
-1.9335396 -10.258013 -0.72726351
-1.9966359 -10.246936 -0.72733307
-2.0677352 -10.275567 -0.73025554
-2.1362197 -10.289058 -0.73213428
-2.1995208 -10.276732 -0.73220384
-2.2618921 -10.26012 -0.73199511
-2.3281145 -10.260641 -0.73303884
-2.3889892 -10.23742 -0.73241258
-2.4554813 -10.23809 -0.73352593
-2.5225487 -10.240266 -0.7347784
-2.5875347 -10.2333 -0.73540467
-2.6507771 -10.219162 -0.73554379
-2.7159941 -10.212345 -0.73623961
-2.7848988 -10.218587 -0.73790962
-2.8510323 -10.213799 -0.73881418
-2.9215965 -10.223929 -0.74083209
-2.109529 -7.2136269 -0.52338719
-2.1057389 -7.039979 -0.51169735
-2.0579016 -6.7292805 -0.48998764
-2.0952854 -6.7041483 -0.48908308
-2.1324387 -6.6788111 -0.48817852
-2.171524 -6.6599102 -0.48776102
-2.2098277 -6.6388884 -0.48720434
-2.2441061 -6.6063123 -0.48581272
-2.136013 -6.1635303 -0.45415273
-2.0202498 -5.7157559 -0.42200568
-1.9545274 -5.4235697 -0.40127015
-1.9434111 -5.2906742 -0.39229402
-1.9069667 -5.0945907 -0.37858629
-1.8721004 -4.9094138 -0.36564398
-1.7599401 -4.5314336 -0.33822852
-1.7756089 -4.4899344 -0.33593231
-1.8131807 -4.5039425 -0.33781102
-1.7874709 -4.3625679 -0.32799992
-1.8023094 -4.3229733 -0.32584286
-1.8019326 -4.2484608 -0.32104167
-1.7916247 -4.1530495 -0.3146401
-1.8010483 -4.1054344 -0.31185681
-1.8030496 -4.0423722 -0.30789062
-1.8031101 -3.9767165 -0.30371568
-1.7790604 -3.8604746 -0.2956441
-1.7819905 -3.8052151 -0.29223457
-1.7915944 -3.7653816 -0.29000795
-1.8003428 -3.7246761 -0.28771171
-1.8231632 -3.7135594 -0.28771171
-1.84191 -3.694267 -0.28708547
-1.8577862 -3.6695445 -0.28604174
-1.8706932 -3.6394427 -0.28458053
-1.8869917 -3.6163976 -0.28367594
-1.9058787 -3.5985796 -0.28318888
-1.9279232 -3.5868177 -0.28318888
-1.9250631 -3.5293765 -0.27957058
-1.9515119 -3.526227 -0.2802664
-1.9848297 -3.5350647 -0.28193638
-2.0059896 -3.5219524 -0.28186682
-2.0205774 -3.4974835 -0.28089264
-2.0369577 -3.4764118 -0.28019682
-2.0618165 -3.4698517 -0.2806839
-2.0856419 -3.4614079 -0.28103182
-2.1042416 -3.4442885 -0.2806839
-2.1127319 -3.4109566 -0.27901393
-2.1272573 -3.38779 -0.27817893
-2.1624634 -3.397398 -0.28005767
-2.1702926 -3.3639452 -0.2783877
-2.189255 -3.3480599 -0.27817893
-2.2130628 -3.3395538 -0.27859643
-2.2468567 -3.3457899 -0.2802664
-2.2763212 -3.3451376 -0.28137973
-2.297936 -3.3327503 -0.28151891
-2.3303368 -3.335763 -0.28298011
-2.3334751 -3.2969711 -0.28089264
-2.420495 -3.3758337 -0.28889462
-2.4564025 -3.3819063 -0.29070377
-2.4765162 -3.3659668 -0.29063419
-2.4977188 -3.3515077 -0.29070377
-2.529052 -3.3504522 -0.29195625
-2.5604661 -3.349138 -0.29320872
-2.5907376 -3.3459861 -0.29432204
-2.6192203 -3.3402331 -0.29522663
-2.6471093 -3.3334746 -0.29606161
-2.686264 -3.3404944 -0.29814908
-2.7073402 -3.3247225 -0.29821867
-2.7676644 -3.3565431 -0.30260235
-2.7965176 -3.3494542 -0.30350691
-2.8337588 -3.352042 -0.30531606
-2.8633535 -3.3452024 -0.30629021
-2.9066882 -3.3539588 -0.3087256
-2.910109 -3.3165624 -0.30691645
-2.9376912 -3.3068485 -0.30768186
-2.9579263 -3.2887609 -0.30768186
-2.9901376 -3.2838283 -0.30893433
-3.0210471 -3.2771564 -0.31004766
-3.0608342 -3.2797105 -0.31206554
-3.1021352 -3.2833498 -0.3142226
-3.1511791 -3.2945356 -0.31714505
-3.2025578 -3.3073924 -0.32027626
-6.3536448 -6.4824662 -0.63228357
-6.434051 -6.4844337 -0.63631934
-6.4822011 -6.4532795 -0.63715434
-6.5195417 -6.4112854 -0.63694561
-6.5544648 -6.366991 -0.63652813
-6.5833321 -6.3169832 -0.63555396
-6.6248646 -6.2792149 -0.63583231
-6.6778316 -6.2520843 -0.6372239
-6.7219272 -6.2164111 -0.63778061
-6.7466869 -6.1629372 -0.63652813
-6.7858558 -6.1227612 -0.63666725
-6.827765 -6.0849915 -0.63708478
-6.8567371 -6.0357318 -0.63631934
-6.8770809 -5.9791451 -0.63478857
-6.9128823 -5.9361854 -0.63471895
-6.9415684 -5.8872037 -0.63402313
-6.9561491 -5.8265634 -0.63207483
-6.9779344 -5.7723246 -0.63082236
-7.0016336 -5.719933 -0.62977862
-7.053679 -5.6906452 -0.63130945
-7.0673981 -5.6304727 -0.62943071
-7.0681014 -5.5604773 -0.62643868
-7.1099644 -5.5231237 -0.6271345
-7.1611328 -5.4927521 -0.62866527
-7.1978817 -5.451118 -0.62894362
-7.2096233 -5.3907194 -0.62706488
-7.20645 -5.3197174 -0.62393367
-7.213964 -5.2571845 -0.62177664
-7.2452765 -5.2122388 -0.62170708
-7.277935 -5.168262 -0.62177664
-7.312777 -5.1257982 -0.62205499
-7.3465519 -5.0825343 -0.62226373
-3.4430792 -2.3504882 -0.28993836
-3.4839087 -2.3471582 -0.29216498
-7.2694068 -4.8337526 -0.60806894
-7.4473863 -4.8864799 -0.62045455
-7.5241213 -4.8710546 -0.6243512
-7.5463018 -4.8199625 -0.62372494
-7.5858622 -4.7799506 -0.62455994
-7.6252151 -4.739635 -0.62539494
-7.6975245 -4.7193542 -0.62894362
-7.7502384 -4.6864891 -0.63089192
-7.8062644 -4.6551981 -0.63311857
-7.8604774 -4.6223845 -0.63520604
-7.9059515 -4.584075 -0.63659769
-7.945188 -4.5419159 -0.63750225
-7.9815974 -4.4979782 -0.63819808
-8.0325909 -4.4619999 -0.64007682
-8.0738182 -4.4202948 -0.64119011
-8.1139574 -4.3777781 -0.64223385
-8.1670895 -4.3419595 -0.64432132
-5.1122661 -2.6775122 -0.40168762
-5.1046638 -2.6337407 -0.39980891
-4.5782723 -2.3266153 -0.35736367
-4.6299272 -2.3172367 -0.36028612
-4.6145315 -2.2742276 -0.35798991
-5.0672479 -2.4588842 -0.3920157
-5.1254449 -2.4483905 -0.39535564
-5.1367602 -2.4151971 -0.39507732
-5.147862 -2.3819571 -0.39479899
-5.1133561 -2.3279989 -0.39104152
-5.1056948 -2.2867911 -0.38937154
-5.1114144 -2.2517996 -0.38874531
-4.9146118 -2.129159 -0.37274137
-4.9128995 -2.0927064 -0.37162805
-4.7296629 -1.9804294 -0.35680702
-4.6448669 -1.9114968 -0.34950086
-4.6010213 -1.8605148 -0.34532592
-4.5511651 -1.8079333 -0.3407335
-4.5324349 -1.7683671 -0.33850685
-4.5050082 -1.7258859 -0.33565396
-4.49684 -1.6911855 -0.33426231
-4.5136828 -1.6659805 -0.3347494
-4.5594611 -1.6511661 -0.33739352
-4.5366073 -1.6114672 -0.33495814
-4.57938 -1.59509 -0.33739352
-3.1390729 -1.0716347 -0.23051502
-3.1380215 -1.0498201 -0.22995837
-3.1396644 -1.0289913 -0.22961046
-4.6883807 -1.5051047 -0.34261221
-4.6880112 -1.4733169 -0.34191638
-4.72366 -1.4527383 -0.34386468
-4.729619 -1.4228646 -0.34365594
-4.7392178 -1.394099 -0.34372553
-4.9442163 -1.4215262 -0.35798991
-5.0047059 -1.405736 -0.36174735
-5.0536418 -1.3860885 -0.36466983
-5.0871058 -1.3617638 -0.36647895
-5.1252861 -1.3383412 -0.36863601
-5.1430688 -1.3093302 -0.36933184
-5.3398051 -1.3246059 -0.38290039
-5.5572786 -1.3424361 -0.39793018
-5.7042751 -1.3409727 -0.40788046
-9.665453 -2.2101376 -0.69073278
-9.7051249 -2.1566343 -0.69261152
-9.7318268 -2.0999911 -0.69358563
-9.7474575 -2.0408516 -0.69379437
-9.7549086 -1.9800115 -0.69344646
-9.774704 -1.9216591 -0.69400316
-9.7980719 -1.8638843 -0.69483811
-9.857399 -1.8125726 -0.69824767
-9.8948536 -1.7567647 -0.70012641
-9.9152794 -1.6977021 -0.70082223
-9.9333839 -1.6381303 -0.70137888
-9.96591 -1.5807451 -0.70297927
-10.057274 -1.5320399 -0.7087546
-10.091163 -1.4739066 -0.71049416
-10.114837 -1.4140334 -0.7115379
-10.127277 -1.3524718 -0.71181619
-10.137365 -1.2905587 -0.71195537
-10.203523 -1.2354109 -0.71606076
-10.224785 -1.1743745 -0.71703488
-10.232791 -1.1117221 -0.71710449
-10.253313 -1.0503379 -0.71807861
-10.283395 -0.9897002 -0.71974862
-10.328023 -0.93007571 -0.7224623
-10.3564 -0.86860567 -0.72406274
-10.372475 -0.80589432 -0.72482812
-10.380209 -0.74244851 -0.72503686
-10.393528 -0.67932898 -0.72566313
-10.411443 -0.61636889 -0.72663724
-10.456868 -0.55469584 -0.72955972
-10.466054 -0.49080402 -0.72997719
-10.456907 -0.42608818 -0.72914225
-10.453343 -0.36171046 -0.72872472
-10.51021 -0.2991274 -0.73255175
-10.547751 -0.23543595 -0.73505676
-10.474189 -0.16949654 -0.72983807
-3.4604342 -0.034329157 -0.24053489
-3.415689 -0.01291744 -0.23740368
-3.39675 0.0080000348 -0.23608162
-3.3707008 0.028626643 -0.23427247
-3.3355501 0.048804279 -0.23183709
-3.3062644 0.06867478 -0.22981919
-3.2928169 0.088614009 -0.22891463
-3.2682824 0.10803046 -0.22724465
-3.2496152 0.12738246 -0.22599217
-3.2328277 0.14659944 -0.22487885
-3.2179193 0.16571747 -0.2239047
-3.2048907 0.18477251 -0.22306971
-3.1887629 0.20348394 -0.22202598
-3.1854644 0.22290713 -0.22188681
-3.1701107 0.241391 -0.22091265
-3.1566391 0.25985819 -0.22007766
-3.1261675 0.27667758 -0.21805978
-3.1204386 0.29547882 -0.21778145
-3.1136038 0.31412026 -0.21743354
-3.110626 0.33311304 -0.21736395
-3.0946457 0.35062379 -0.21638981
-3.0904553 0.36936924 -0.21625064
-3.0901101 0.38857347 -0.21638981
-3.252835 0.42929155 -0.22801006
-3.317338 0.45851731 -0.23274165
-3.1762326 0.4589197 -0.22300012
-3.1940725 0.48151883 -0.22446136
-3.127984 0.4912163 -0.22000809
-3.0943897 0.50542122 -0.21785103
-3.080411 0.52256548 -0.21708563
-3.0584788 0.53817582 -0.21576357
-3.0649335 0.55871916 -0.21645938
-3.0516443 0.57566756 -0.21576357
-3.0539298 0.59552568 -0.21618105
-3.0531521 0.61484319 -0.21638981
-3.0493219 0.63356543 -0.21638981
-3.0483036 0.65288997 -0.21659856
-3.0383949 0.67029345 -0.21618105
-3.034225 0.68892407 -0.21618105
-3.0357695 0.70888865 -0.21659856
-3.0430038 0.73029357 -0.21743354
-3.0219986 0.74489611 -0.21625064
-3.0164042 0.76318026 -0.21618105
-3.0020082 0.77916998 -0.21548523
-3.0087397 0.80065131 -0.21632022
-2.9951079 0.81673735 -0.21569398
-2.9919617 0.83563584 -0.21583314
-2.9973292 0.8569929 -0.21659856
-2.9699922 0.86892992 -0.21499816
-3.0037909 0.89885443 -0.21785103
-3.0220687 0.92455959 -0.21959059
-3.031574 0.94784516 -0.22070391
-3.1330893 1.0007052 -0.22856672
-3.1638803 1.0319679 -0.23128043
-3.1820989 1.0595509 -0.23308957
-3.1802607 1.0806599 -0.23343748
-2.9765644 1.0319014 -0.21889476
-2.9654739 1.0484841 -0.21854685
-2.986202 1.0764652 -0.22056474
-2.9767313 1.0937364 -0.220356
-2.9774389 1.1147774 -0.22091265
-2.9854572 1.138711 -0.22202598
-2.9756241 1.1559248 -0.22181723
-3.0037286 1.1880971 -0.22446136
-2.9991584 1.2076225 -0.2246701
-2.9898458 1.2252461 -0.22453094
-2.9739845 1.2401147 -0.2239047
-2.9608085 1.256003 -0.2234872
-2.9530461 1.2741464 -0.2234872
-2.9570491 1.2974504 -0.22439177
-2.953588 1.3176012 -0.22473969
-2.9399962 1.3332283 -0.2243222
-2.9317603 1.3512428 -0.2243222
-2.9450977 1.3793567 -0.22599217
-2.9482901 1.4029716 -0.22689673
-2.9495065 1.4258095 -0.22766215
-2.9407024 1.4438804 -0.22766215
-2.9237521 1.4578923 -0.22703591
-2.928103 1.4825615 -0.22807965
-2.9278238 1.505059 -0.22877546
-2.9300323 1.5289929 -0.22968003
-2.9294119 1.55161 -0.23037586
-2.9268665 1.5733325 -0.23093252
-2.9136541 1.5893517 -0.23065419
-2.9090846 1.6100971 -0.23107168
-2.9000204 1.6284049 -0.23114127
-2.8977764 1.6506107 -0.23176751
-2.8936408 1.6718521 -0.23225458
-2.8902144 1.6936091 -0.23281124
-2.8814836 1.7123302 -0.2329504
-2.8717773 1.7304933 -0.23301999
-2.8645105 1.7501613 -0.23329832
-2.8681364 1.7766323 -0.23448122
-2.8690102 1.8016224 -0.23545536
-2.8738928 1.8293673 -0.23677744
-2.8676441 1.8502108 -0.23719493
-2.8537323 1.8661339 -0.23698619
-2.8522079 1.8902203 -0.23782118
-2.8703732 1.9277022 -0.24032614
-2.8725131 1.9548166 -0.24150904
-2.8727849 1.9808972 -0.24255277
-2.8589404 1.9973449 -0.24241361
-2.8433738 2.0125444 -0.24213527
-2.8520527 2.0450637 -0.24394442
-2.8434868 2.0654557 -0.24429233
-2.8404031 2.0899568 -0.24512732
-2.8395255 2.1162858 -0.24617106
-2.837635 2.1420813 -0.24714521
-2.8387048 2.170356 -0.24839769
-2.8332229 2.1938393 -0.24909352
-2.8142128 2.2068741 -0.24860644
-2.8146822 2.2352648 -0.24985892
-2.8032465 2.2543683 -0.25006768
-2.7932293 2.2746754 -0.25041559
-2.790766 2.3012893 -0.2514593
-2.8026323 2.3401036 -0.25382513
-2.8065071 2.3727105 -0.2554951
-2.8032649 2.399615 -0.25653884
-2.792258 2.4200366 -0.25688675
-2.7878556 2.4463334 -0.2578609
-2.7884562 2.4773047 -0.25932211
-2.7902651 2.5097082 -0.26092252
-2.7836657 2.5348401 -0.26175749
-2.7746618 2.5579572 -0.26238376
-2.7727728 2.5878642 -0.26370582
-2.7749724 2.6219537 -0.26544538
-2.7725313 2.6520302 -0.26676744
-2.771975 2.684257 -0.26829824
-2.7583027 2.7040079 -0.26857656
-2.7374098 2.716666 -0.26815909
-2.7340627 2.7468429 -0.26948115
-2.7269502 2.773524 -0.2704553
-2.7376864 2.8188243 -0.2732386
-2.7348442 2.8506842 -0.27469984
-2.7227917 2.873203 -0.27525648
-2.7255661 2.911701 -0.27734396
-2.7320342 2.9547346 -0.2798489
-2.7414401 3.0016384 -0.28270179
-2.7269809 3.0228465 -0.28311929
-2.7176745 3.0499477 -0.28409344
-2.7167075 3.086782 -0.28597218
-2.7199719 3.1289878 -0.28833798
-2.7280195 3.1774032 -0.29126042
-2.7278309 3.2169049 -0.2933479
-2.7330251 3.2634053 -0.29606161
-2.7212164 3.2901056 -0.29696617
-2.7053959 3.3121481 -0.29745325
-2.6969242 3.3434367 -0.29877532
-2.7006032 3.3903494 -0.30148903
-2.6957879 3.4272399 -0.30329818
-2.6765442 3.4460797 -0.30350691
-2.6668856 3.4774764 -0.30482897
-2.6575444 3.5096788 -0.30622062
-2.7058589 3.6193898 -0.31436178
-2.6776748 3.6278992 -0.31366596
-2.6559517 3.6450667 -0.31373551
-2.6486843 3.6823485 -0.31554466
-2.6439469 3.7237442 -0.31770173
-6.0912781 8.6899776 -0.73937082
-6.0497627 8.7444162 -0.74083209
-5.9937439 8.7780771 -0.74055374
-5.9107795 8.7716722 -0.73693544
-5.8629227 8.8169127 -0.73770088
-5.8005028 8.84021 -0.73665714
-5.7477784 8.8781471 -0.73686588
-5.6915832 8.9107256 -0.73665714
-5.6399922 8.9505444 -0.73707461
-5.5897064 8.9926071 -0.73770088
-5.5406818 9.0369406 -0.73853582
-5.4861603 9.0724745 -0.738675
-5.4293675 9.1042528 -0.73853582
-5.3804832 9.1494341 -0.73951
-5.3252425 9.1840019 -0.73964918
-5.2727513 9.2234316 -0.74020582
-5.2214465 9.2651711 -0.74097121
-5.1577153 9.2848263 -0.73999709
-5.1016059 9.3180485 -0.74013627
-5.0504942 9.360589 -0.74104083
-4.9906216 9.3869972 -0.74069291
-4.9232087 9.3988867 -0.73923165
-4.866818 9.4315767 -0.73944044
-4.8097596 9.4630404 -0.73957956
-4.7368674 9.4629374 -0.73728335
-4.6601882 9.4542446 -0.73436093
-4.596427 9.470994 -0.73345631
-4.5356469 9.493618 -0.73303884
-4.4683943 9.5023127 -0.73157763
-4.4020433 9.5123501 -0.73025554
-4.3394594 9.5301037 -0.72955972
-4.2641792 9.5192242 -0.72670686
-4.1891966 9.507782 -0.72385395
-4.126812 9.5241547 -0.72315812
-4.0632114 9.5373659 -0.72225356
-3.9996047 9.5501566 -0.721349
-3.9375131 9.5662165 -0.72072273
-3.8794897 9.5920448 -0.72086191
-3.8161402 9.6045446 -0.72002691
-3.7448037 9.5961828 -0.71766114
-3.6790688 9.6012812 -0.71633905
-3.625005 9.6367464 -0.71731323
-3.5288334 9.5586748 -0.70986789
-3.4374952 9.4901075 -0.703188
-3.3484685 9.4245424 -0.6967864
-3.2964864 9.4618664 -0.69803894
-3.2438498 9.4979639 -0.69922179
-3.1826601 9.5091753 -0.69859558
-3.1152377 9.5010357 -0.69657767
-3.038579 9.4629841 -0.69240272
-2.9589148 9.4129314 -0.68739283
-2.8972883 9.4185143 -0.68648821
-2.8256423 9.3902626 -0.68314826
-2.7634652 9.3921118 -0.68203497
-2.7052329 9.4069738 -0.68189579
-2.6453028 9.4157133 -0.68133914
-2.5909109 9.4442739 -0.6822437
-2.5354939 9.4696293 -0.68293953
-2.4632208 9.4309587 -0.67904294
-2.3897946 9.3849926 -0.67465925
-2.3211107 9.3549414 -0.67145842
-2.2664783 9.3806438 -0.67229342
-2.201797 9.3642702 -0.67013639
-2.1358449 9.3406506 -0.66749227
-2.0743787 9.3350773 -0.66617018
-2.0096939 9.3135014 -0.66373479
-1.9461701 9.2953882 -0.66157776
-1.8809595 9.2670727 -0.6587249
-1.8182875 9.249074 -0.65663743
-1.7572126 9.2375174 -0.65503699
-1.6974313 9.2314472 -0.65385413
-1.6386628 9.2299013 -0.65301913
-1.5840194 9.2515812 -0.65385413
-1.5241377 9.2424259 -0.65253204
-1.46349 9.2269726 -0.65079248
-1.4059451 9.2298613 -0.65037501
-1.3514488 9.2531204 -0.65141875
-1.2954763 9.2671671 -0.65183622
-1.242421 9.3036156 -0.65385413
-1.1824127 9.2883043 -0.65225375
-1.1225193 9.271616 -0.65058374
-1.0623057 9.249589 -0.64856583
-1.0070406 9.2698174 -0.64954001
-0.95299125 9.3036089 -0.6514883
-0.89617437 9.3122587 -0.65169704
-0.83624297 9.2867823 -0.64954001
-0.77991205 9.2996922 -0.65009665
-0.72299021 9.3062916 -0.65023583
-0.66395098 9.2836866 -0.64835709
-0.60651904 9.2806168 -0.64787
-0.5492087 9.2781897 -0.64745253
-0.49226844 9.2813854 -0.64745253
-0.4341867 9.2603149 -0.64578253
-0.37601599 9.2299118 -0.64348632
-0.31875318 9.2140999 -0.64223385
-0.26169857 9.1979332 -0.64098138
-0.20474279 9.1764278 -0.63938099
-0.14859545 9.1874847 -0.64007682
-0.092259638 9.192214 -0.64035511
-0.03576839 9.170661 -0.63882434
0.020454878 9.1487608 -0.63729352
0.076416329 9.1275148 -0.63583231
0.13289553 9.15979 -0.63812852
0.18887071 9.1478319 -0.63736308
0.24433115 9.1215706 -0.63562351
0.30013165 9.1149149 -0.6352756
0.35589859 9.1089144 -0.63499731
0.41191807 9.1095486 -0.63520604
0.46887872 9.1277704 -0.63666725
0.52367526 9.1038074 -0.63520604
0.57965195 9.1024132 -0.63534522
0.63563126 9.1006765 -0.6354844
0.69206429 9.1045628 -0.63604105
0.74816078 9.1031275 -0.63624978
0.8025108 9.0814724 -0.63506687
0.85840631 9.0783644 -0.63520604
0.91439366 9.0759029 -0.63541478
0.96942908 9.0641708 -0.63499731
1.0261486 9.0679636 -0.63569313
1.0830692 9.0723934 -0.63645852
1.1402071 9.0774536 -0.63729352
1.1970568 9.0791883 -0.63791972
1.2508335 9.0578375 -0.63694561
1.3051057 9.0411053 -0.63631934
1.3608534 9.0349007 -0.63645852
1.4150283 9.0184956 -0.63590187
1.4696958 9.0057049 -0.63562351
1.5269258 9.0083208 -0.63645852
1.5847611 9.0135202 -0.63750225
1.6448622 9.0301256 -0.63938099
1.69636 8.9992752 -0.63791972
1.7509744 8.9857607 -0.63771099
1.80529 8.9709358 -0.63743269
1.8617197 8.966527 -0.63791972
1.9225465 8.9822483 -0.63986808
1.9767656 8.9663858 -0.63958973
2.0337312 8.9628439 -0.64021599
2.091181 8.9608831 -0.64098138
2.1468222 8.9507933 -0.64119011
2.2102907 8.9723225 -0.64369512
2.2638352 8.9527893 -0.64327759
2.3197277 8.9425926 -0.64355594
2.3781433 8.9416876 -0.64453006
2.4316525 8.9221144 -0.64418215
2.4825976 8.8935747 -0.64320803
2.5387652 8.8839293 -0.6436255
2.6035852 8.9036121 -0.64620006
2.6641693 8.9075403 -0.64766127
2.7190664 8.8919792 -0.64773089
2.7836902 8.9075022 -0.65009665
2.8486063 8.9225655 -0.65246248
2.9005184 8.8963833 -0.65183622
2.9559956 8.881258 -0.65204495
3.0142839 8.8742886 -0.65287995
3.0804348 8.8895597 -0.6553849
3.1528687 8.9212837 -0.65914237
3.2031538 8.8895683 -0.65823781
3.2566073 8.8669376 -0.65802908
3.301863 8.8224964 -0.6562199
3.351671 8.790885 -0.6553849
3.4163787 8.7980528 -0.65747237
3.4673643 8.7695026 -0.65691572
3.5181284 8.7406588 -0.65635908
3.5732059 8.7226 -0.65663743
3.6243572 8.6949863 -0.6562199
3.6842601 8.6881971 -0.65740281
3.7683122 8.7368784 -0.66283023
3.8058245 8.6770477 -0.66004694
3.8541193 8.6425991 -0.65921193
3.912842 8.6315088 -0.66018611
3.9778345 8.6336126 -0.66220397
4.0396161 8.6280165 -0.66366524
4.0873389 8.5922565 -0.66283023
4.1352091 8.5571346 -0.66206485
4.2043376 8.5656319 -0.66470897
4.2710557 8.568243 -0.66693562
4.3366122 8.567688 -0.66895348
4.387733 8.5382557 -0.66874474
4.4478831 8.5262089 -0.66992766
4.5057163 8.5093365 -0.6707626
4.5606766 8.4868021 -0.67118013
4.6422725 8.5129614 -0.67549425
4.7031121 8.5000286 -0.67674673
4.7625022 8.4840603 -0.67779046
4.8277969 8.4780846 -0.67966914
4.9081631 8.4975424 -0.68363535
4.967773 8.4801788 -0.68467909
5.0283737 8.464118 -0.685862
5.084332 8.4399414 -0.68641865
5.1485014 8.429018 -0.68808866
5.214828 8.4210176 -0.69003695
5.2764773 8.4049149 -0.69135898
5.3252716 8.3681726 -0.69101107
5.3835464 8.3462381 -0.69191569
5.4406605 8.3222332 -0.69268107
5.50209 8.3044949 -0.69400316
5.5696225 8.2954254 -0.69609058
5.6434221 8.2949123 -0.6989435
5.7027044 8.2724495 -0.69998723
5.762495 8.2503891 -0.70110053
5.8314471 8.2409353 -0.70332718
5.9097991 8.2439184 -0.70666713
5.994853 8.255127 -0.71077251
6.0589871 8.2366714 -0.7123729
6.1195445 8.2129383 -0.71355575
6.1836429 8.1935492 -0.7151562
6.2453103 8.1705132 -0.71647823
6.320972 8.1651707 -0.7194007
6.3943405 8.1560659 -0.72204483
6.4467459 8.1198034 -0.72232318
6.4720702 8.0497713 -0.71960944
6.5087452 7.9944353 -0.71821779
6.6274734 8.0390215 -0.72587186
6.6574979 7.9752297 -0.72378439
6.6914973 7.9167056 -0.722184
6.7282729 7.861855 -0.72093153
6.7770391 7.821177 -0.72100109
6.8466096 7.8041949 -0.7232973
6.8970165 7.7650213 -0.72357565
6.9205203 7.6958508 -0.72107065
6.9568663 7.641439 -0.71995735
6.9921293 7.5861382 -0.71877444
7.0351429 7.5394449 -0.71842653
7.0846968 7.4997625 -0.71877444
7.1326489 7.4583139 -0.71898323
7.1699524 7.405807 -0.71814823
7.1922169 7.3381619 -0.71585202
7.2132196 7.269814 -0.71348619
7.2435522 7.2113409 -0.71209455
7.2862415 7.1653605 -0.71195537
7.3379407 7.1281648 -0.71272081
7.3887377 7.0899129 -0.71341664
7.4473052 7.0588555 -0.71487784
7.5341678 7.0539374 -0.71905279
7.574379 7.0048666 -0.71877444
7.6039605 6.9461474 -0.71752197
7.6501408 6.9027014 -0.71786988
7.7012873 6.8635964 -0.71870488
7.7537394 6.8254418 -0.719679
7.7909565 6.7738099 -0.71926153
7.8164811 6.7122288 -0.71780032
7.8065486 6.6209064 -0.71313828
7.833262 6.5613508 -0.71188581
7.8856726 6.5233374 -0.71299911
7.9410005 6.487453 -0.71439075
7.9853153 6.4423642 -0.71480829
8.0254745 6.393868 -0.71487784
8.0716114 6.3500557 -0.71550411
8.1301174 6.3157105 -0.71724367
8.169508 6.2663136 -0.71731323
1.9240221 1.4565125 -0.16747341
1.9289284 1.4416924 -0.16712549
1.9297127 1.4239044 -0.16642967
1.9343824 1.4090991 -0.16608176
1.9373238 1.3931251 -0.16559468
1.9507153 1.3846775 -0.16601217
1.9616253 1.3743999 -0.16622092
1.9757639 1.3663111 -0.16670799
1.9874055 1.3564126 -0.16698633
2.0171993 1.3586881 -0.16879547
8.4946194 5.6485815 -0.7107029
8.5683174 5.622077 -0.71397328
2.1498873 1.3912705 -0.1777716
2.1625867 1.380738 -0.17811951
2.1642663 1.3631877 -0.17756285
2.1700485 1.3483022 -0.1773541
2.1748788 1.3328758 -0.17707577
2.1719196 1.3127947 -0.1761712
2.1816473 1.3004653 -0.17631036
2.1921654 1.2885717 -0.17651911
2.191401 1.270092 -0.17582329
8.9644918 5.1247029 -0.7194007
9.0079346 5.0764589 -0.72037482
9.0589705 5.0322347 -0.72197527
9.0835524 4.9732013 -0.72148818
9.1059952 4.9131083 -0.72086191
9.1500626 4.8646359 -0.72197527
9.1876926 4.8125672 -0.72260147
9.2188215 4.7570171 -0.72274065
9.2638435 4.708499 -0.72399312
9.2773952 4.6439762 -0.72281021
9.2914 4.579906 -0.72169691
9.3076591 4.5171461 -0.72079235
9.3171988 4.4513483 -0.7194007
2.1704237 1.0200762 -0.16642967
2.1766419 1.0067395 -0.16642967
2.1809626 0.99253792 -0.16629051
2.1861012 0.97872931 -0.16622092
2.1929781 0.96569949 -0.16629051
2.2016082 0.95341545 -0.16649926
2.227607 0.94849175 -0.16803007
2.2278643 0.93249315 -0.16761257
2.2390788 0.92108423 -0.16803007
2.2437634 0.90695405 -0.16796048
2.2400157 0.88948542 -0.16726466
2.2445021 0.8753615 -0.16719507
2.251694 0.86228698 -0.16733424
2.1346304 0.80243635 -0.15821895
2.1030169 0.77584702 -0.15550524
2.1077378 0.76292861 -0.15550524
2.0945199 0.74363458 -0.15418318
2.0990431 0.73076886 -0.15418318
2.1185918 0.72303534 -0.15529649
2.1305561 0.71255577 -0.15585315
2.1301486 0.69791514 -0.15550524
2.1315415 0.68391645 -0.15529649
2.1414077 0.67262 -0.15571399
2.1426342 0.65858775 -0.15550524
2.1762474 0.65434134 -0.15766229
9.8820915 2.9076684 -0.71766114
9.8920774 2.8447721 -0.71710449
9.9093466 2.7840219 -0.71710449
9.9204702 2.7215829 -0.71668696
9.9138565 2.6544669 -0.71501702
9.9048624 2.5870306 -0.71320784
9.9079828 2.5230057 -0.71230328
9.922308 2.4619238 -0.71223372
9.9207439 2.3970113 -0.71105081
9.92167 2.3328962 -0.71007669
9.9241276 2.269305 -0.70924169
9.9115725 2.2025244 -0.70736295
9.9053974 2.1374569 -0.7059713
9.9241848 2.0778654 -0.70638877
9.9230604 2.0141535 -0.70541465
9.898037 1.945914 -0.70277053
9.8539314 1.8745141 -0.69880432
9.8711338 1.8150992 -0.69922179
9.8978004 1.757288 -0.70033514
9.8995476 1.6950074 -0.69970888
9.9058247 1.6335835 -0.69943058
9.9156618 1.5727718 -0.69943058
9.9330139 1.513103 -0.69998723
9.942112 1.4521267 -0.69998723
9.8964968 1.383496 -0.6961602
9.9008446 1.3222177 -0.69588184
9.9216366 1.2630811 -0.6967864
9.9192963 1.2009796 -0.69609058
9.9512548 1.1429405 -0.69783014
9.9808903 1.0843389 -0.69943058
9.9952955 1.0238906 -0.69998723
10.007346 0.96311516 -0.7004047
10.002139 0.9007082 -0.69963932
9.9597616 0.83531427 -0.69629937
9.9915533 0.77627468 -0.69817805
9.9782171 0.71367085 -0.69692558
9.9943533 0.65321374 -0.69776058
10.008132 0.59246743 -0.69845641
10.015564 0.53125912 -0.69873476
9.9977093 0.46881217 -0.69727349
9.9685011 0.40615693 -0.69504684
9.9608364 0.34463814 -0.69435108
9.9727345 0.2837975 -0.69504684
9.9673071 0.22244437 -0.69455981
9.9754667 0.16139534 -0.69504684
9.9642992 0.10006301 -0.6942119
9.9557476 0.038885687 -0.69358563
7.8117924 -0.010028359 -0.67552191
7.8175616 -0.058004964 -0.67603964
7.8170586 -0.10597153 -0.67603964
7.8092885 -0.15379657 -0.6754356
7.8062053 -0.20165905 -0.67526305
7.7988472 -0.24936201 -0.67474532
7.8130989 -0.2978178 -0.67612588
7.8021665 -0.34535569 -0.67534935
7.7839808 -0.39241931 -0.67396873
7.7058306 -0.43589497 -0.66741097
7.6612496 -0.48054808 -0.66378695
7.6442428 -0.52658856 -0.66257894
7.6577559 -0.57475102 -0.66404581
7.6540856 -0.62172729 -0.66404581
7.6322622 -0.66711813 -0.66249263
7.6290169 -0.71402913 -0.66257894
7.6334143 -0.76171702 -0.66335553
7.634541 -0.8091706 -0.66387326
7.6076517 -0.85355562 -0.66197497
7.5508242 -0.89412558 -0.65748805
7.5392642 -0.93970013 -0.65697032
7.5175505 -0.98387349 -0.65558976
7.4985409 -1.0282218 -0.65446806
7.4901185 -1.0739299 -0.65429544
7.4932408 -1.121343 -0.65515834
7.4744072 -1.1654572 -0.65412289
7.4385962 -1.2066702 -0.65162057
7.4192629 -1.2503028 -0.65058511
7.4016385 -1.2940868 -0.64972228
7.3719921 -1.3355702 -0.64782399
7.535018 -1.4129165 -0.66292411
7.5271845 -1.4593135 -0.66301036
7.4780369 -1.4974505 -0.65947264
7.4667563 -1.5429034 -0.65930009
7.433763 -1.5837066 -0.65722919
7.4492064 -1.634843 -0.65947264
7.4196 -1.6761284 -0.65774691
7.3878269 -1.7166612 -0.65584862
7.2250199 -1.725619 -0.64230168
7.044971 -1.7283714 -0.62720156
7.0467925 -1.7747294 -0.62832326
7.0241957 -1.8149432 -0.62728781
6.9936666 -1.8529049 -0.62556207
6.9725509 -1.8931715 -0.62469923
6.872499 -1.9113566 -0.61676091
6.8146491 -1.940392 -0.61261916
6.658186 -1.9400798 -0.59958988
6.6051021 -1.9686592 -0.59587961
6.5347657 -1.9914327 -0.59061611
6.46345 -2.0131211 -0.58526635
6.43009 -2.0460954 -0.58336806
6.405097 -2.0815079 -0.58224636
6.3487082 -2.1063371 -0.57827717
6.2592301 -2.1193686 -0.57128799
6.2319832 -2.1528547 -0.56999367
6.1876483 -2.1801264 -0.56714624
6.0719576 -2.1813335 -0.55774099
5.9574242 -2.1815472 -0.5484221
5.7591162 -2.1490877 -0.53133738
5.7840014 -2.1989012 -0.53487515
5.5743728 -2.1584373 -0.51666868
5.394197 -2.1268163 -0.50113714
5.3440633 -2.1450286 -0.4976857
5.3105111 -2.1694887 -0.49578741
5.2032666 -2.1630208 -0.48698619
5.1926494 -2.1960714 -0.48724505
5.1644335 -2.2215917 -0.48586446
5.1497922 -2.2528389 -0.48577818
5.1668215 -2.2981627 -0.48871192
5.1753173 -2.340085 -0.49086908
5.4188519 -2.490375 -0.51546067
5.4513102 -2.5459232 -0.5200339
5.4706888 -2.5959823 -0.52339906
5.4744 -2.6390197 -0.52529734
5.4867363 -2.6865814 -0.52805853
5.4799609 -2.7250767 -0.52900767
5.4480186 -2.7510149 -0.5275408
5.4230576 -2.7803006 -0.52676421
5.1522665 -2.6815083 -0.50200003
5.0705309 -2.6786323 -0.49561483
5.0171232 -2.6899207 -0.4919908
4.9681444 -2.7030363 -0.4887982
4.9846082 -2.7517676 -0.49207708
4.977191 -2.7876563 -0.49302623
4.8768373 -2.7708924 -0.48474276
4.8027754 -2.7679286 -0.47904783
4.7641993 -2.784776 -0.47689068
4.7333102 -2.8058269 -0.47551009
4.6519661 -2.7963195 -0.46903864
4.5522037 -2.7745125 -0.46066886
4.5206861 -2.7934883 -0.45920199
4.5186577 -2.8306949 -0.46075514
4.4827013 -2.8466172 -0.45885682
4.4056735 -2.8357816 -0.45273051
4.3564839 -2.8420744 -0.44945163
4.310708 -2.8500686 -0.44651788
4.2467914 -2.8454082 -0.44168586
4.2259555 -2.8691738 -0.44134071
4.2008839 -2.8899677 -0.44056413
4.1225929 -2.8735294 -0.43417895
3.8200605 -2.6976151 -0.40397871
3.8058672 -2.722743 -0.40423757
3.6842222 -2.6700368 -0.39302033
3.6452839 -2.6760831 -0.39060432
3.6168036 -2.689482 -0.38931003
3.6034164 -2.7140212 -0.38965517
3.5954087 -2.7427275 -0.39060432
3.50283 -2.7062593 -0.38232082
3.4830205 -2.7252455 -0.38197568
3.4178224 -2.7082016 -0.37662593
3.4003639 -2.7284985 -0.37653965
3.3928361 -2.756851 -0.37757507
3.388165 -2.7877457 -0.37895566
3.3709962 -2.8084829 -0.37895566
3.3521771 -2.8278291 -0.37878308
3.3468828 -2.8586977 -0.38016367
3.3511317 -2.8980801 -0.38266596
3.3467774 -2.930402 -0.38421914
3.34588 -2.9660835 -0.38620371
3.349118 -3.0058568 -0.38870603
3.3401966 -3.0350602 -0.38982773
3.2841187 -3.0210969 -0.38542715
3.2801001 -3.0547714 -0.38715285
3.2750669 -3.0878263 -0.38879231
3.2812812 -3.1319406 -0.39181232
3.2856438 -3.1748619 -0.39465979
3.3095419 -3.237462 -0.39992324
3.2818286 -3.2499962 -0.39897409
3.2357943 -3.2439721 -0.39578149
3.203243 -3.2509911 -0.39422834
3.1658642 -3.2527351 -0.39207119
1.6952323 -1.7631079 -0.21078353
1.6589993 -1.7467459 -0.20759094
1.6359819 -1.7438129 -0.20603777
1.6475958 -1.777935 -0.20888524
5.0151539 -5.4796815 -0.64230168
5.0729637 -5.6116028 -0.65412289
5.0311375 -5.6344495 -0.65317374
4.9964705 -5.6652141 -0.65317374
4.9648871 -5.6995215 -0.65360516
4.9259238 -5.7253466 -0.65308744
4.859736 -5.7190213 -0.64894569
4.8111043 -5.7327061 -0.64713371
4.7802887 -5.767488 -0.64773768
4.7675266 -5.8244653 -0.65084398
4.7291932 -5.8505096 -0.65049887
4.682641 -5.8661804 -0.649032
4.6403913 -5.8869777 -0.6481691
4.6054058 -5.9169121 -0.64834172
4.590261 -5.9727073 -0.6513617
4.5583444 -6.0071092 -0.65205199
4.5178161 -6.0301819 -0.65153432
4.4813228 -6.0585899 -0.65162057
4.4411263 -6.0819497 -0.65118915
4.4083848 -6.115551 -0.65187943
4.3886824 -6.1676497 -0.65455431
4.3444571 -6.1854939 -0.65360516
4.3064222 -6.2120347 -0.65360516
4.2761006 -6.2498531 -0.65481317
4.2337689 -6.2701931 -0.6542092
4.2035027 -6.3084893 -0.65550345
4.182229 -6.3608017 -0.65826464
4.1317348 -6.3687916 -0.6564526
4.0893569 -6.3889894 -0.65593487
4.0452905 -6.4063787 -0.65515834
4.0011649 -6.4234691 -0.65438175
3.9580257 -6.4419565 -0.65377772
3.9251359 -6.4771981 -0.65489948
3.9021835 -6.5293818 -0.65774691
3.8954298 -6.6098518 -0.66344184
3.8588035 -6.6405206 -0.66413212
3.8105567 -6.6511059 -0.6628378
3.7824125 -6.6969166 -0.66508126
3.7538493 -6.742631 -0.66732472
3.7119272 -6.7646637 -0.66723841
3.6803014 -6.805716 -0.66905046
3.6328514 -6.8176188 -0.668015
3.5918767 -6.8415456 -0.66818756
3.5640178 -6.8908892 -0.67086244
3.5320702 -6.9330454 -0.67284703
3.4916971 -6.9590392 -0.67327845
3.4498141 -6.9821196 -0.67345101
3.4086509 -7.0067391 -0.67379618
3.3690364 -7.0347109 -0.67448646
3.3232601 -7.0498433 -0.67396873
1.4055241 -3.0293627 -0.28818241
1.3939425 -3.0533373 -0.28964928
1.3662027 -3.0418384 -0.28775096
3.1275108 -7.0800653 -0.66930926
3.0875819 -7.1073461 -0.67008585
3.0486097 -7.1371512 -0.6711213
2.9908748 -7.122654 -0.668015
2.9444542 -7.1344252 -0.66741097
2.9174702 -7.1939039 -0.67129385
2.8625817 -7.1848297 -0.66879159
2.8144493 -7.1920533 -0.66784239
2.77384 -7.2184863 -0.66870528
2.7309024 -7.2390995 -0.66905046
2.685395 -7.2529168 -0.66879159
2.6408412 -7.2692571 -0.66879159
2.6022077 -7.302217 -0.67034471
2.5622826 -7.3321538 -0.67163903
2.5198278 -7.355278 -0.67232931
2.4705274 -7.3583231 -0.67120761
2.4203508 -7.358201 -0.66982698
2.3714907 -7.3615336 -0.66879159
2.3223813 -7.3635945 -0.66766983
2.2789183 -7.3834176 -0.66818756
2.2436497 -7.4306431 -0.67120761
2.2067587 -7.4738903 -0.67388248
2.1589246 -7.4805899 -0.67327845
2.1100101 -7.4831481 -0.67232931
2.0674927 -7.508441 -0.67345101
2.026037 -7.5383034 -0.67500418
1.9835342 -7.5650487 -0.6762985
1.943247 -7.6012077 -0.67845565
1.8876606 -7.5772195 -0.67526305
1.8521707 -7.6341639 -0.67931849
1.8050647 -7.6444154 -0.67923224
1.761693 -7.6708832 -0.6806128
1.7148092 -7.6825209 -0.68069911
1.6646832 -7.6792669 -0.6794911
1.6206087 -7.7039604 -0.68078536
1.5750992 -7.7225451 -0.68156195
1.5288434 -7.7379284 -0.68207967
1.4826452 -7.754014 -0.68268365
1.4328667 -7.7512093 -0.68164825
1.3833536 -7.7490664 -0.68069911
1.3393298 -7.7780271 -0.68251109
1.2990777 -7.8313093 -0.68648028
1.2434666 -7.7919092 -0.68233854
1.1965386 -7.8053007 -0.68285626
1.1489135 -7.814467 -0.68302882
1.0987217 -7.8055844 -0.68164825
1.0485495 -7.7953944 -0.68018138
1.0010784 -7.8046455 -0.68044025
0.95570493 -7.8314095 -0.68225223
0.9062593 -7.8252497 -0.68121678
0.85594869 -7.8098655 -0.6794048
0.80862671 -7.8209167 -0.67992252
0.76033419 -7.8227563 -0.67966366
0.71475744 -7.8540635 -0.68199337
0.66604733 -7.852345 -0.68147564
0.61668253 -7.8413858 -0.68018138
0.56848508 -7.8440285 -0.68009508
0.52073961 -7.8533335 -0.6806128
0.47188506 -7.8454418 -0.67966366
0.42336166 -7.8412251 -0.67905962
0.37619239 -7.8635783 -0.68078536
0.32855734 -7.8806691 -0.68207967
0.28104493 -7.9064326 -0.68415052
0.23346275 -7.9398751 -0.6869117
0.18497162 -7.9511185 -0.68777454
0.136198 -7.9530993 -0.68786085
0.087396145 -7.9537859 -0.68786085
0.038590986 -7.9541721 -0.68786085
-0.010216935 -7.9552555 -0.68794715
-0.059133187 -7.9689903 -0.68915516
-0.10850261 -8.0033445 -0.69217515
-0.15754922 -7.9995389 -0.69191629
-0.20637292 -7.988462 -0.69105345
-0.25573587 -7.9979992 -0.69200259
-0.30545148 -8.0132036 -0.69346946
-0.35487837 -8.0171499 -0.69398719
-0.40411419 -8.0158176 -0.6940735
-0.4532907 -8.0131865 -0.6940735
-0.50282454 -8.0162201 -0.69459116
-0.55275518 -8.0239172 -0.69554037
-0.60138184 -8.0124264 -0.69485003
-0.64803243 -7.9778028 -0.69217515
-0.69757861 -7.9806242 -0.69277918
-0.74736947 -7.9851208 -0.69355577
-0.79872608 -8.0041771 -0.69562662
-0.84645826 -7.9862461 -0.69450492
-0.89933401 -8.0155544 -0.69752491
-0.95084327 -8.0296717 -0.69925064
-1.0004642 -8.0266523 -0.6995095
-1.050472 -8.026289 -0.70002723
-1.0963162 -7.9950171 -0.69787008
-1.1466249 -7.9970155 -0.69864666
-1.1987692 -8.01052 -0.70045865
-1.2471306 -7.9980922 -0.70002723
-1.298895 -8.0070076 -0.7014941
-1.3494909 -8.0077286 -0.70227069
-1.3998013 -8.0061674 -0.70287466
-1.4519197 -8.0140924 -0.70434153
-1.5032696 -8.0167837 -0.70537698
-1.5503452 -7.9966497 -0.70442784
-1.5970347 -7.9752641 -0.70339239
-1.6471498 -7.9711685 -0.70391011
-1.6960289 -7.9609118 -0.70391011
-1.7444172 -7.9484091 -0.70373756
-1.7966677 -7.9531045 -0.70511812
-1.8447567 -7.9390197 -0.70485926
-1.8922775 -7.9227057 -0.70442784
-1.9593729 -7.9864159 -0.71115816
-1.9932524 -7.9143453 -0.7058084
-2.0402808 -7.8961787 -0.70529068
-2.0904787 -7.8902526 -0.70589471
-2.1524293 -7.9272723 -0.71038157
-2.1836762 -7.8515272 -0.70477301
-2.2334483 -7.8437295 -0.70529068
-2.2452984 -7.7055345 -0.6940735
-2.0537553 -6.8905735 -0.62167919
-2.082926 -6.8349576 -0.6177963
-2.1120844 -6.781147 -0.61408603
-2.1581848 -6.7823005 -0.61538029
-2.203455 -6.7803001 -0.61641574
-2.2425067 -6.7590876 -0.61572546
-2.5999734 -7.678453 -0.70106268
-2.6519186 -7.6764803 -0.70235693
-2.7082417 -7.6863737 -0.70477301
-2.7644489 -7.6949267 -0.70710272
-2.8129826 -7.6815615 -0.70744789
-2.8642428 -7.6753573 -0.70848328
-2.916595 -7.6716065 -0.70977759
-1.7616063 -4.5496407 -0.42149484
-1.7602519 -4.4646006 -0.41459194
-1.7839016 -4.4444704 -0.41372907
-1.7904139 -4.3827162 -0.40898332
-1.7912643 -4.3090925 -0.40311584
-1.7811891 -4.2117691 -0.39500493
-1.7928243 -4.1678147 -0.3918986
-1.8099778 -4.137568 -0.39008659
-1.8231835 -4.0990763 -0.38749802
-1.8179234 -4.0206375 -0.38111281
-1.7913831 -3.8980639 -0.37049958
-1.7844896 -3.8211045 -0.36420068
-1.7852633 -3.7623804 -0.35962752
-1.8091806 -3.7531502 -0.3598001
-1.8220979 -3.7213993 -0.3578155
-1.8404611 -3.7012286 -0.35695264
-1.8604422 -3.6845303 -0.35643491
-1.8825605 -3.672159 -0.35634863
-1.8990772 -3.6490502 -0.3552269
-1.9139853 -3.6232347 -0.35384634
-1.9253527 -3.5912282 -0.35186175
-1.9406855 -3.5670955 -0.35065374
-1.9606102 -3.5516319 -0.3503086
-1.9711674 -3.5195434 -0.348324
-1.9907571 -3.5039172 -0.34797886
-2.0092342 -3.4864576 -0.34746113
-2.0290806 -3.4714832 -0.34720227
-2.0478024 -3.4546824 -0.34677085
-2.0689619 -3.4420524 -0.34677085
-2.0869317 -3.4241886 -0.34625313
-2.1058075 -3.4079289 -0.34590799
-2.1229761 -3.389034 -0.34530398
-2.154413 -3.3927639 -0.34702972
-2.1671011 -3.3669152 -0.3457354
-2.2100394 -3.3877645 -0.34927315
-2.2252896 -3.3658299 -0.34841028
-2.2442362 -3.3496294 -0.34815142
-2.2675452 -3.3399172 -0.34858286
-2.2930784 -3.3333278 -0.34935942
-2.3260221 -3.3371756 -0.35125774
-2.3602483 -3.342371 -0.35332862
-2.3923066 -3.3440309 -0.35505435
-2.4157035 -3.3333223 -0.35548577
-2.4479032 -3.3344982 -0.3572115
-2.4653447 -3.3154182 -0.35678005
-2.4892375 -3.3050034 -0.35729778
-2.5173256 -3.2999647 -0.35841951
-2.5582376 -3.3112605 -0.36135325
-2.59447 -3.3159008 -0.36359668
-2.6364243 -3.3272474 -0.3666167
-2.6786144 -3.3382034 -0.36963674
-2.6977901 -3.3201585 -0.36946416
-2.7143133 -3.2989266 -0.36894643
-2.742157 -3.2913949 -0.36998188
-2.7712951 -3.2851679 -0.37118989
-2.8017538 -3.2802217 -0.37257046
-2.8524592 -3.2983847 -0.37662593
-2.91465 -3.3287892 -0.38214827
-2.9264281 -3.3011515 -0.38102654
-2.959938 -3.2979612 -0.38275227
-2.998209 -3.2996447 -0.38508201
-3.0055826 -3.2672553 -0.38344255
-3.0554504 -3.2808292 -0.38723916
-3.0926106 -3.2801406 -0.38939631
-3.1773431 -3.3288436 -0.39750722
-5.3784466 -5.4979672 -0.66508126
-5.4120798 -5.4648623 -0.66508126
-5.4455094 -5.4315519 -0.66508126
-5.478025 -5.3973374 -0.66499496
-5.5074692 -5.3601489 -0.66456354
-5.5273266 -5.3138266 -0.66301036
-5.5475464 -5.2681494 -0.66154349
-5.5783134 -5.2326479 -0.66137093
-5.6103153 -5.1983218 -0.66137093
-5.6244674 -5.1476569 -0.65930009
-5.6648154 -5.1210656 -0.66033548
-5.6589732 -5.0530343 -0.65602118
-5.6838942 -5.0129447 -0.6553309
-5.7265658 -4.9884443 -0.65671146
-5.7608428 -4.9564614 -0.65714294
-5.7714071 -4.9042478 -0.65489948
-5.8105478 -4.8764277 -0.65593487
-5.8434281 -4.8432264 -0.65628004
-5.8714938 -4.8060188 -0.65610749
-5.9132695 -4.7799215 -0.65748805
-5.939373 -4.7410626 -0.65714294
-5.9573975 -4.6958957 -0.65593487
-5.9609399 -4.6396723 -0.65317374
-5.9719172 -4.589654 -0.65127546
-5.9888549 -4.5444937 -0.65006745
-6.0070591 -4.5004935 -0.649032
-6.0345602 -4.4635501 -0.649032
-6.0706854 -4.4329014 -0.64998114
-6.1422215 -4.427609 -0.65472686
-3.8338394 -2.7281365 -0.406481
-3.8113728 -2.6770768 -0.40233928
-3.8580222 -2.6746407 -0.40553185
-3.608773 -2.4692171 -0.37766138
-3.500828 -2.3639622 -0.36480469
-3.6346569 -2.421984 -0.37722993
-3.8417499 -2.5260653 -0.39716208
-3.8830874 -2.519253 -0.39983696
-3.9102199 -2.5028985 -0.40104496
-3.9086556 -2.4682207 -0.39931923
-3.8839815 -2.4194353 -0.39526379
-3.8834739 -2.3861709 -0.39371064
-3.8861134 -2.3550692 -0.39250261
-3.8953593 -2.3281138 -0.39198491
-3.9052796 -2.3016396 -0.39155346
-3.9089918 -2.2716277 -0.39051804
-3.914212 -2.2426472 -0.38965517
-3.9183567 -2.2131987 -0.38870603
-3.903137 -2.1731231 -0.38585857
-3.8893211 -2.1342766 -0.38318369
-3.8918273 -2.1046855 -0.38214827
-3.8774116 -2.0662432 -0.37947339
-3.8538504 -2.0234265 -0.37593564
-3.8352208 -1.9837238 -0.37291563
-3.8091483 -1.9407085 -0.3692053
-3.7755702 -1.8945144 -0.36480469
-3.7335312 -1.8448348 -0.35962752
-3.7098405 -1.8048953 -0.35626236
-3.7091641 -1.7765043 -0.35514063
-3.6884537 -1.7388446 -0.35212061
-3.7424343 -1.7363034 -0.35626236
-3.7493923 -1.7116529 -0.35591719
-3.7743657 -1.6951448 -0.35729778
-3.7828732 -1.6711487 -0.35712522
-3.7994525 -1.6506845 -0.35772923
-3.7994311 -1.6230359 -0.35678005
-3.8001325 -1.5958356 -0.35591719
-3.8687925 -1.5968113 -0.36143953
-3.8859038 -1.5760378 -0.36212981
-3.8825436 -1.5470027 -0.3609218
-3.8938181 -1.5238768 -0.36109439
-3.9226248 -1.50746 -0.3629064
-3.9653583 -1.4960212 -0.36601269
-3.9810033 -1.4740833 -0.3666167
-3.9674993 -1.4414648 -0.36454582
-4.0382085 -1.439164 -0.37024075
-4.0328555 -1.4094294 -0.36894643
-3.1187146 -1.0685793 -0.28447208
-3.129935 -1.0510086 -0.28490353
-3.1306465 -1.0299162 -0.2843858
-4.197094 -1.3521866 -0.38085395
-4.1654058 -1.3138237 -0.37722993
-4.4456511 -1.3722659 -0.40190783
-4.4463573 -1.3426585 -0.40121755
-4.4678888 -1.3193002 -0.40242556
-4.4931297 -1.2968329 -0.40397871
-4.52881 -1.2770791 -0.406481
-4.6585484 -1.2828528 -0.41743937
-4.6932716 -1.2614839 -0.41985539
-4.734653 -1.2415054 -0.42287543
-4.7412167 -1.2121841 -0.42278913
-4.7398648 -1.1809025 -0.42201257
-4.8360949 -1.1734047 -0.42995089
-4.8664742 -1.1492031 -0.43202177
-4.981215 -1.1440707 -0.44159955
-5.0348139 -1.1239014 -0.4457413
-5.0893245 -1.1033279 -0.44996935
-5.1301217 -1.0792567 -0.45298937
-5.1727657 -1.0551242 -0.45618197
-5.1635046 -1.0202756 -0.45480138
-5.1745605 -0.98950905 -0.4552328
-5.2138438 -0.96389633 -0.45816654
-5.2500639 -0.93731332 -0.46084142
-5.2714252 -0.90778643 -0.46222201
-5.3476605 -0.8871609 -0.46843463
-5.5251737 -0.88180178 -0.48353472
-5.6890278 -0.87218356 -0.49742684
-5.7524276 -0.84580839 -0.50251776
-7.4316826 -1.0461025 -0.64894569
-7.5060916 -1.0096447 -0.65489948
-7.4785466 -0.95926076 -0.65196574
-7.485281 -0.91347587 -0.65205199
-7.5214243 -0.87108201 -0.65472686
-7.5612893 -0.82871282 -0.65774691
-7.5701957 -0.78271174 -0.65809208
-7.556016 -0.73441654 -0.6564526
-7.542521 -0.6864152 -0.65489948
-7.5585032 -0.64113224 -0.65593487
-7.5771928 -0.59591329 -0.65722919
-7.595612 -0.55048907 -0.6585235
-7.6167402 -0.50505883 -0.66007662
-7.6495299 -0.46010745 -0.66266525
-3.7206683 -0.20101172 -0.3216615
-7.6585808 -0.3663916 -0.66301036
-7.6626754 -0.31947547 -0.66318297
-7.6764393 -0.2728765 -0.66421837
-7.6988816 -0.22638391 -0.66603041
-7.6762223 -0.17858483 -0.6639595
-7.6831498 -0.13158321 -0.66447723
-7.6658812 -0.084241331 -0.66292411
-3.4421544 0.0042846804 -0.29706991
-3.4311049 0.025323614 -0.29612073
-3.2840691 0.10486659 -0.28352293
-3.2704215 0.12452156 -0.2824012
-3.2616334 0.14423347 -0.28171092
-3.2328272 0.16283837 -0.27929491
-3.2118733 0.18154562 -0.27756917
-3.1947899 0.20025149 -0.27618858
-3.1736231 0.2184806 -0.27446288
-3.1652679 0.23742729 -0.27385888
-3.1448848 0.25531143 -0.27221942
-3.1412742 0.27442971 -0.27204686
-3.1494503 0.29462776 -0.2729097
-3.1287479 0.31206673 -0.27127028
-3.1228113 0.33083832 -0.27092513
-3.1276529 0.35077113 -0.27152914
-3.1274204 0.37018979 -0.27170169
-3.3297338 0.41488582 -0.28956297
-3.2935386 0.43091211 -0.28662926
-3.2237148 0.44190717 -0.28076178
-3.1814952 0.45602199 -0.27731031
-3.1589313 0.47258514 -0.27558458
-3.1175818 0.48597175 -0.27221942
-3.0742214 0.49854982 -0.26868168
-3.0986121 0.52204001 -0.27109769
-3.1110528 0.54378873 -0.27247828
-3.1282439 0.56659788 -0.27429029
-3.1139374 0.58376163 -0.27334115
-3.1063845 0.60209882 -0.27299601
-3.0957935 0.61977834 -0.272392
-3.0812001 0.63654411 -0.27144286
-3.0743132 0.65481514 -0.271184
-3.0556409 0.67046255 -0.26988968
-3.0573001 0.69051635 -0.27040741
-3.0539761 0.70948809 -0.27049369
-3.0524724 0.728908 -0.27075255
-3.0605206 0.75071025 -0.27187428
-3.0510263 0.76825839 -0.27144286
-3.0346799 0.78397352 -0.27040741
-3.0317385 0.80308956 -0.27057999
-3.0171394 0.81906593 -0.26971713
-3.0024586 0.83489358 -0.26885426
-2.9972792 0.85330063 -0.26885426
-2.9852915 0.86972433 -0.26825026
-2.99422 0.89229435 -0.26954454
-3.0172784 0.91936344 -0.27213314
-3.0258484 0.94230419 -0.27342743
-3.0579839 0.97293782 -0.27687889
-3.0813282 1.0012294 -0.27955377
-3.1280792 1.0376874 -0.2843858
-3.1527929 1.0674067 -0.28723326
-3.1706672 1.0951904 -0.28947669
-2.9891145 1.0530388 -0.27342743
-3.0191629 1.0844977 -0.27679262
-2.9834509 1.0923815 -0.27411774
-2.9869595 1.1144987 -0.27506688
-2.9875145 1.135638 -0.27575716
-2.9925678 1.1586246 -0.27687889
-2.9955971 1.1809851 -0.27782804
-2.9984646 1.2034261 -0.27877718
-2.9818015 1.2180336 -0.27791432
-2.9678319 1.2336293 -0.27731031
-2.9666297 1.2545332 -0.27791432
-2.9735188 1.279012 -0.27929491
-2.9920843 1.3088138 -0.2817972
-2.9949205 1.3320074 -0.28283265
-2.9903224 1.3520008 -0.28317779
-2.9747283 1.3669951 -0.28248751
-2.9689925 1.3864868 -0.28274637
-2.9721303 1.4102309 -0.28386807
-2.9759851 1.4344983 -0.28507608
-2.9689164 1.4536079 -0.28524867
-2.9536972 1.4686919 -0.28464466
-2.941962 1.4854405 -0.2843858
-2.9407709 1.5075551 -0.28516239
-2.9314654 1.525571 -0.28516239
-2.9361436 1.5509757 -0.28654295
-2.9406199 1.5764951 -0.28792354
-2.951019 1.6054606 -0.28990814
-2.9367516 1.6211299 -0.28947669
-2.9250109 1.6381452 -0.28930414
-2.9175029 1.6575384 -0.28956297
-2.9055512 1.6744138 -0.28939041
-2.8960826 1.6927131 -0.28947669
-2.8907835 1.7134995 -0.28999442
-2.894731 1.7399312 -0.29146129
-2.8822992 1.7566231 -0.2912887
-2.8943486 1.7884165 -0.29361844
-2.8917634 1.8114316 -0.29448131
-2.886481 1.8328799 -0.29508531
-2.8860707 1.8575668 -0.29620704
-2.8796248 1.8785069 -0.29672477
-2.8755236 1.901086 -0.29750133
-2.8621495 1.9175849 -0.29732877
-2.8618684 1.9429457 -0.29853678
-2.8695915 1.9740222 -0.30060765
-2.8647807 1.9967201 -0.30138421
-2.8646817 2.0228813 -0.30267853
-2.8570774 2.0438988 -0.30319622
-2.8485155 2.0643146 -0.30362767
-2.8518567 2.0935459 -0.3053534
-2.8509488 2.1199234 -0.30664769
-2.8474367 2.1445694 -0.30768311
-2.8437293 2.1692522 -0.30871856
-2.8358841 2.1909242 -0.30932257
-2.8388641 2.2211771 -0.31113458
-2.8392363 2.249692 -0.31268772
-2.8230481 2.2652001 -0.31242886
-2.8114154 2.2843645 -0.31268772
-2.8135009 2.3148656 -0.31449974
-2.8176138 2.3473914 -0.31657061
-2.8260016 2.3839087 -0.31915921
-2.8211687 2.409616 -0.32028094
-2.8100982 2.4301395 -0.32071236
-2.8026292 2.4538999 -0.32157522
-2.7845378 2.4684064 -0.32123008
-2.7856505 2.5000863 -0.32312837
-2.7916398 2.5365624 -0.32563069
-2.7818885 2.5590401 -0.32632098
-2.7770696 2.5862465 -0.32761526
-2.7720211 2.6134899 -0.32890958
