# .PCD v0.7 - Point Cloud Data file format
VERSION 0.7
FIELDS x y z
SIZE 4 4 4
TYPE F F F
COUNT 1 1 1
WIDTH 1455
HEIGHT 1
VIEWPOINT 0 0 0 1 0 0 0
POINTS 1455
DATA ascii
2.3454142 4.5631332 -0.82075894
2.3879867 4.5766678 -0.82582551
2.4451394 4.6168995 -0.83580035
2.499135 4.6496429 -0.84450853
2.5077589 4.597815 -0.83785868
2.5115378 4.5382829 -0.8297838
2.5272512 4.5012631 -0.82582551
2.5499358 4.4770923 -0.82424223
2.5694554 4.4476824 -0.82170898
2.5817213 4.4062757 -0.81695902
2.6788232 4.5083375 -0.83896697
2.6814642 4.450376 -0.83120877
2.7576265 4.5138826 -0.84625018
2.7213166 4.3936324 -0.82677555
2.7125175 4.3199916 -0.81600904
2.7617729 4.3390832 -0.82281727
2.8172522 4.366858 -0.83136708
2.8737154 4.3949404 -0.84007525
2.8548098 4.3080893 -0.82677555
2.8586195 4.2568841 -0.82028395
2.9163499 4.2857924 -0.82930881
2.9941595 4.3426008 -0.84387523
3.0433686 4.356524 -0.8502084
3.026118 4.2757115 -0.83801699
3.0488441 4.2522492 -0.83706701
3.053407 4.2039037 -0.83120877
3.0832405 4.1906562 -0.83231711
3.1679015 4.2508273 -0.84815013
3.1522813 4.176146 -0.83706701
3.200036 4.1857471 -0.84292525
3.1809239 4.1082625 -0.83120877
3.243849 4.1368394 -0.84102523
3.2568898 4.1013932 -0.83785868
3.2925136 4.0944123 -0.84055024
3.3001165 4.0526958 -0.83611703
3.3249211 4.0323701 -0.83611703
3.4154177 4.0907154 -0.85258335
3.4659531 4.0998421 -0.85891658
3.4351807 4.0132408 -0.84514183
3.4235258 3.950304 -0.83627534
3.497196 3.9856267 -0.84830844
3.5806079 4.0305262 -0.86255819
3.5597091 3.9578271 -0.85163337
3.5194399 3.8650968 -0.83627534
3.5531287 3.8543184 -0.83865029
3.558521 3.8129549 -0.83437538
3.6333883 3.8455918 -0.84640849
3.6610115 3.8275065 -0.84735847
3.7709763 3.8943427 -0.86730808
3.716691 3.7914579 -0.84941679
3.7871823 3.816237 -0.86018324
3.8623147 3.8444715 -0.87189966
3.8456979 3.7812431 -0.86287487
3.8787432 3.7672057 -0.8650915
3.8561831 3.6995888 -0.85495836
3.9103465 3.7057409 -0.86192489
3.9459865 3.6938229 -0.86477482
3.8736024 3.5817311 -0.84403354
3.9582088 3.6151586 -0.85764992
3.9671195 3.5788989 -0.85479999
4.0221791 3.5840478 -0.86192489
4.0507655 3.5651715 -0.86334985
4.1150422 3.5771711 -0.87237465
4.1481519 3.561502 -0.87474966
4.2136068 3.5730186 -0.88393277
4.169591 3.4919457 -0.87015808
4.1840906 3.4606323 -0.86873305
4.2671895 3.4854858 -0.88155782
4.2854218 3.4567575 -0.88092452
4.2764297 3.4064066 -0.87474966
4.3065639 3.3874278 -0.87664962
4.3202491 3.3554885 -0.87522465
4.3619123 3.3451395 -0.87949955
4.4177799 3.3451328 -0.8866244
4.4706469 3.3422012 -0.89311594
4.4878922 3.3123615 -0.89248264
4.4283276 3.2266197 -0.87664962
4.4504471 3.2011168 -0.87712461
4.5239477 3.2120457 -0.88773274
4.5379114 3.1802602 -0.8866244
4.5597758 3.1540411 -0.88709939
4.7739487 3.259048 -0.92494035
4.722611 3.1817 -0.9111656
4.7667131 3.1690614 -0.91591555
4.7084608 3.0888464 -0.90103251
4.7480478 3.0733101 -0.90499073
4.8059292 3.0690942 -0.91243225
4.8238344 3.0390215 -0.91227394
4.7727828 2.9661112 -0.89913249
4.8262496 2.9584415 -0.9057824
4.7851624 2.8930159 -0.89469928
4.8248744 2.8767459 -0.89881587
4.8220062 2.8350775 -0.8950159
4.8589587 2.8168259 -0.8986575
4.8752937 2.7864687 -0.89849919
4.857029 2.7366314 -0.89200765
1.5926435 0.88471884 -0.2901938
1.6240263 0.88915157 -0.29494372
1.6294514 0.87917 -0.29494372
1.6374309 0.87054557 -0.29541871
1.6427417 0.86048204 -0.29541871
1.6488681 0.85083884 -0.29557705
1.654938 0.84115285 -0.29573536
1.6644831 0.83319175 -0.29652703
1.6677927 0.82209015 -0.29621038
1.6763591 0.81356525 -0.29684368
1.6813194 0.80326396 -0.29684368
1.6853229 0.79251242 -0.29668537
1.6041243 0.74235862 -0.28148565
5.09728 2.3204558 -0.89612424
5.0897942 2.2794509 -0.89232433
5.0576005 2.2278798 -0.88424945
1.570215 0.68039846 -0.27246082
1.5534662 0.66185284 -0.26881921
1.5392822 0.64468253 -0.2656526
1.5413827 0.63447416 -0.26533595
1.5553161 0.62907547 -0.26707757
1.5931002 0.63300568 -0.27293581
1.5794766 0.6164009 -0.26992753
1.5979819 0.61234868 -0.27246082
1.6026334 0.60287964 -0.27261913
1.6137129 0.59576941 -0.27388579
1.6173382 0.58585662 -0.27388579
1.6181111 0.57493043 -0.2734108
1.6076216 0.56012017 -0.27103582
5.4580994 1.8635725 -0.92288208
5.3523846 1.7908894 -0.90309078
5.3604574 1.7570916 -0.90261579
5.3664374 1.7226586 -0.90182412
5.3806744 1.6908822 -0.90245748
5.3833976 1.6555136 -0.90119082
5.3679247 1.6147722 -0.89691591
5.3635225 1.577626 -0.89454091
5.3493776 1.5378671 -0.89058268
5.3672686 1.5074174 -0.89200765
5.3773689 1.4747173 -0.89216596
5.3910861 1.4429709 -0.89295763
5.4886875 1.4330585 -0.90768236
5.4925928 1.3981358 -0.90689069
5.4847765 1.3603674 -0.90419906
5.4920602 1.3264562 -0.90404075
5.4856777 1.2893444 -0.90166581
5.4742346 1.2512612 -0.89849919
5.4895201 1.2193609 -0.89976585
5.5162024 1.1898177 -0.90293247
5.5272651 1.1567575 -0.90356576
5.5274849 1.121447 -0.90245748
5.5245733 1.0856065 -0.90087414
5.5408306 1.0535319 -0.90245748
5.6015739 1.0295066 -0.91132396
5.628202 0.99873859 -0.91464889
5.6459031 0.9661839 -0.91654885
5.636137 0.9289546 -0.91401559
5.6183262 0.89064521 -0.91021562
5.6100187 0.85407513 -0.90799904
5.6346946 0.82248807 -0.9111656
5.65137 0.78953755 -0.91306561
5.6306615 0.75145173 -0.90894902
4.3157835 0.54910028 -0.69567794
4.245553 0.51371735 -0.6838032
4.2378349 0.48641962 -0.68206155
4.16221 0.45188645 -0.66939509
4.1089153 0.42061126 -0.66037029
4.0426188 0.38877931 -0.64928716
4.023293 0.36202154 -0.64580387
3.9762414 0.33320868 -0.63788736
3.914223 0.30384174 -0.6275959
3.8785887 0.277147 -0.62157935
3.8890834 0.2539216 -0.62300432
3.8905683 0.23005386 -0.62300432
3.9037387 0.20680349 -0.62490427
3.9059207 0.18289283 -0.62506258
3.9188082 0.15940391 -0.62696254
3.8832006 0.1340971 -0.62110436
3.8573017 0.10951285 -0.6168294
3.8381581 0.085404821 -0.61366278
3.8435464 0.061931934 -0.61445445
3.8408918 0.038317859 -0.61397946
3.8321681 0.014716326 -0.61255449
4.6962991 0.012279455 -0.84534723
4.8783445 -0.017153366 -0.87820327
4.909637 -0.047385886 -0.88388646
4.916142 -0.077617824 -0.88512969
4.9096699 -0.10765256 -0.88406408
4.8833399 -0.13706115 -0.87944645
4.8932261 -0.16739087 -0.88140005
4.892107 -0.19741198 -0.88140005
4.8819561 -0.22701541 -0.87980169
4.9079876 -0.25841153 -0.88477445
4.809051 -0.28281459 -0.86719203
1.4378436 -0.093856826 -0.25784633
1.4372406 -0.1026775 -0.25784633
1.4326588 -0.11119144 -0.25713593
1.4241039 -0.11932607 -0.2557151
1.4145234 -0.12727217 -0.25411671
1.4117565 -0.13576159 -0.2537615
1.4118758 -0.14452119 -0.25393912
1.4099841 -0.1530758 -0.2537615
1.4168403 -0.16261868 -0.25518233
1.4158158 -0.17130919 -0.25518233
1.4147379 -0.17999324 -0.25518233
1.4243375 -0.19009788 -0.25713593
1.4309419 -0.19991982 -0.25855672
1.4744852 -0.21521534 -0.26672632
1.4546506 -0.22145237 -0.26335192
1.467845 -0.2326787 -0.26601592
1.4625053 -0.24104235 -0.26530552
1.4706995 -0.25166735 -0.26708153
1.4710658 -0.26102972 -0.26743671
1.4684684 -0.26987362 -0.26725912
1.4561493 -0.27686143 -0.26530552
1.4418688 -0.28332961 -0.2629967
1.4237061 -0.28885207 -0.25997752
1.4247969 -0.29818583 -0.26051033
1.4219784 -0.30671555 -0.2603327
1.4479322 -0.3216112 -0.26548311
1.4420937 -0.32961401 -0.26477271
1.4314213 -0.33643359 -0.26317433
1.4379404 -0.3472859 -0.26477271
1.4510666 -0.35988629 -0.26761431
1.3696661 -0.3486681 -0.25287351
4.6728997 -1.2185582 -0.86932325
4.6539259 -1.2441591 -0.86719203
4.6367126 -1.2700931 -0.86541605
4.6041956 -1.2916117 -0.86079848
4.5375371 -1.3030056 -0.84978724
4.5285125 -1.3305457 -0.84960967
4.5136657 -1.3563254 -0.84836644
4.4949102 -1.3808178 -0.84641284
4.4544282 -1.3983548 -0.84037447
4.4420156 -1.4244587 -0.83966404
4.4098096 -1.4440345 -0.83522403
4.3411298 -1.4511065 -0.82385767
4.2240958 -1.4408766 -0.80325603
4.1659126 -1.4496337 -0.79384327
4.1235499 -1.4633245 -0.78744966
4.1052389 -1.4852519 -0.78567362
4.0997419 -1.5117747 -0.78638405
4.0977588 -1.5396698 -0.78780484
4.0827198 -1.5626742 -0.78673923
3.9749401 -1.5494668 -0.76773602
3.8482704 -1.5273761 -0.74500322
3.8461261 -1.5539079 -0.74642402
3.8274167 -1.573737 -0.74464804
3.8885057 -1.6268067 -0.75850081
3.8558114 -1.6410046 -0.7540608
3.7707057 -1.6321969 -0.73932004
3.7606196 -1.6553028 -0.73932004
3.7369173 -1.6723187 -0.73665601
3.6450646 -1.6581478 -0.72049445
3.624995 -1.6759411 -0.71854085
3.5264573 -1.6567394 -0.70095843
3.3892143 -1.6177471 -0.67556161
3.344687 -1.6217732 -0.66863519
3.3655753 -1.6574775 -0.67485124
3.2444317 -1.6226513 -0.65247363
3.2221291 -1.6362922 -0.64998722
3.1945329 -1.6470157 -0.6464352
3.1390235 -1.6428649 -0.6372
3.014153 -1.6011747 -0.61375678
2.9167728 -1.5724882 -0.59581918
2.9191575 -1.5969657 -0.59830558
2.8731616 -1.594795 -0.59084642
2.5786037 -1.4521356 -0.53188318
2.4816203 -1.4176704 -0.5135904
2.4626558 -1.4269524 -0.51145917
2.4716737 -1.4525026 -0.51518875
2.3612571 -1.4072082 -0.49387676
2.3534205 -1.4221791 -0.49405438
2.3463283 -1.4376204 -0.49440956
2.2939878 -1.4249978 -0.48517436
2.2935293 -1.4442886 -0.48695037
2.2730093 -1.450924 -0.48446396
2.2665429 -1.4664469 -0.48499677
2.2402177 -1.4689981 -0.48126715
2.208209 -1.4674705 -0.47629437
2.2122254 -1.4897842 -0.47913596
2.2030427 -1.5033301 -0.47913596
2.1792045 -1.5067488 -0.47593915
2.1650813 -1.5167052 -0.47487357
2.150918 -1.526545 -0.47380796
2.1079464 -1.5155938 -0.46634877
2.1041765 -1.5325538 -0.46759197
2.0685959 -1.526162 -0.46173117
2.0513079 -1.5329369 -0.45995516
2.0395091 -1.5437136 -0.45942235
2.0237494 -1.5514104 -0.45800155
2.064728 -1.6030142 -0.46954557
1.9689658 -1.5481566 -0.44983196
1.9386392 -1.5436629 -0.44503677
1.9797026 -1.5962857 -0.45675835
1.9912188 -1.6258249 -0.46173117
1.9713438 -1.6298628 -0.45942235
1.9854578 -1.6621368 -0.46510556
1.9737198 -1.6730157 -0.46475035
1.979103 -1.6985502 -0.46847996
1.9753305 -1.7164695 -0.47007838
1.9780635 -1.7402551 -0.47327515
1.9688184 -1.7536682 -0.47363037
1.9543661 -1.7624213 -0.47274238
1.9435153 -1.7743798 -0.47274238
1.9152429 -1.7702446 -0.46847996
1.912251 -1.7893574 -0.47043356
1.9019502 -1.8017337 -0.47061116
1.9036469 -1.8256277 -0.47380796
1.9708019 -1.9133461 -0.49352157
2.0046561 -1.9702303 -0.50506556
2.0378847 -2.0276003 -0.51660955
2.0392752 -2.0540307 -0.52016157
2.0521343 -2.0924959 -0.5267328
2.0474749 -2.1135283 -0.52886397
2.0392318 -2.1310277 -0.5301072
2.0626304 -2.1821115 -0.53969759
2.0485306 -2.1940074 -0.53951997
2.0290239 -2.200026 -0.53792161
1.9982514 -2.1935234 -0.53330398
1.9827795 -2.2035489 -0.53277117
1.9973395 -2.247297 -0.54040796
1.9783177 -2.2535949 -0.53898716
1.9741253 -2.2768421 -0.54165119
1.9697214 -2.3001225 -0.54431516
1.9339585 -2.2866223 -0.53827679
1.9060087 -2.2818327 -0.53436959
1.8725536 -2.2699556 -0.52886397
1.8554815 -2.2775886 -0.52797598
1.8291308 -2.273598 -0.52442396
1.8126966 -2.281697 -0.52371359
1.7950168 -2.2881317 -0.52264798
1.7779292 -2.2952132 -0.52175999
1.7703907 -2.3146763 -0.52371359
1.7686129 -2.3419847 -0.52744317
1.7412645 -2.3354385 -0.52353597
1.7117295 -2.3254759 -0.5189184
1.6760174 -2.3064835 -0.51234716
1.6457677 -2.2943375 -0.50737435
1.6174372 -2.2843168 -0.5029344
1.6016988 -2.2917788 -0.50240159
1.579222 -2.2894142 -0.49973756
1.5679146 -2.3031278 -0.50062555
1.5466167 -2.3020873 -0.49831676
1.5324622 -2.3115339 -0.49831676
1.5193278 -2.3225403 -0.49867198
2.1275277 -3.2957654 -0.70575362
2.3557901 -3.6988447 -0.78922564
2.3759911 -3.7815521 -0.80378884
2.3631144 -3.8127878 -0.80734086
2.3453226 -3.8364511 -0.80929446
2.3258045 -3.857511 -0.81071526
2.3247292 -3.9097705 -0.81870723
2.292232 -3.9095304 -0.81568807
2.2790387 -3.9422634 -0.81959528
2.2450583 -3.939075 -0.81604326
2.2112031 -3.9356184 -0.81249124
2.1879668 -3.9508336 -0.81284642
2.1712294 -3.9780042 -0.81568807
2.1383867 -3.9756527 -0.81249124
2.1139522 -3.9886985 -0.81249124
2.0999174 -4.021657 -0.81657606
2.0747514 -4.0335908 -0.81639844
2.0504074 -4.0471234 -0.81657606
2.0308099 -4.0701947 -0.81870723
2.0057974 -4.0825787 -0.81870723
1.975137 -4.083293 -0.81639844
1.9475061 -4.0900049 -0.81533283
1.9194493 -4.0956402 -0.81408966
1.8872744 -4.0921497 -0.81107044
1.858062 -4.0946918 -0.80929446
1.836514 -4.1141028 -0.81089282
1.802925 -4.1063724 -0.80716324
1.7854991 -4.1354265 -0.81071526
1.7535517 -4.1309052 -0.80769604
1.7293093 -4.1443114 -0.80822885
1.7146797 -4.1812477 -0.81337923
1.6853126 -4.1825628 -0.81160325
1.65382 -4.1781855 -0.80876166
1.6267253 -4.1845856 -0.80805123
1.6164652 -4.2349396 -0.81586564
1.6139377 -4.3074398 -0.82794243
1.5898558 -4.3237271 -0.82918566
1.5669709 -4.3435831 -0.83113927
1.5379909 -4.346622 -0.82989603
1.5122596 -4.3587666 -0.83042884
1.4835844 -4.3623734 -0.82936323
1.4542993 -4.3639259 -0.82794243
1.4274954 -4.372767 -0.82794243
1.4006377 -4.381444 -0.82794243
1.3710811 -4.3815031 -0.82634407
1.3392705 -4.3738375 -0.82332486
1.3155153 -4.3923421 -0.82527846
1.2860492 -4.3918314 -0.82368004
1.2547431 -4.3845029 -0.82083845
1.2381548 -4.4290805 -0.82776487
1.207844 -4.4252024 -0.82563365
1.1712919 -4.3973465 -0.81906247
1.1333944 -4.3625431 -0.81124806
1.1124067 -4.3923101 -0.81551045
1.0797739 -4.376123 -0.81124806
1.0483018 -4.3635287 -0.80769604
1.016801 -4.3497562 -0.80396646
1.0010052 -4.403893 -0.81284642
0.97566342 -4.4176393 -0.81426722
0.94709367 -4.4168077 -0.81302404
0.91496086 -4.3984494 -0.80858403
0.88698208 -4.3991575 -0.80769604
0.86204863 -4.4151411 -0.80964965
0.83439314 -4.4174466 -0.80911684
0.80232066 -4.3953767 -0.80414402
0.77294332 -4.3866491 -0.80165762
0.74419826 -4.3806372 -0.79970402
0.71873617 -4.3938618 -0.80130243
0.69084418 -4.3923559 -0.80023682
0.65902674 -4.3644018 -0.79437602
0.62969512 -4.3508325 -0.79117924
0.60406804 -4.3624125 -0.79260004
0.57909727 -4.3796949 -0.79508644
0.55024272 -4.3675442 -0.79224485
0.52390224 -4.3747468 -0.79295522
0.49749404 -4.3817902 -0.79366565
0.47070369 -4.3857384 -0.79384327
0.44318956 -4.3826694 -0.79277766
0.41563767 -4.3784485 -0.79153442
0.38911268 -4.3848376 -0.79224485
0.36074048 -4.3694892 -0.78904802
0.33212081 -4.3480706 -0.78478563
0.30529714 -4.348063 -0.78443044
0.27571207 -4.3046789 -0.77626085
0.24963598 -4.3121843 -0.77732646
0.224243 -4.3342733 -0.78105605
0.19683492 -4.317872 -0.77785921
0.16979231 -4.305232 -0.77537286
0.14274777 -4.2875056 -0.77199847
0.11606146 -4.274528 -0.76951206
0.089872912 -4.2771273 -0.76986724
0.063760288 -4.2864547 -0.77146566
0.037317999 -4.2710199 -0.76862401
0.011043183 -4.2465658 -0.76418406
-0.014923468 -4.2199836 -0.7593888
-0.040994577 -4.2385092 -0.76276326
-0.066738844 -4.2214503 -0.75974405
-0.092554137 -4.2170262 -0.75903362
-0.1179054 -4.1976881 -0.75565922
-0.14282174 -4.1722975 -0.75121921
-0.16739142 -4.1457763 -0.74660164
-0.19173223 -4.121078 -0.74233925
-0.21593112 -4.0991859 -0.73860961
-0.2410792 -4.097784 -0.73860961
-0.26698226 -4.1080122 -0.74074084
-0.29155627 -4.0974622 -0.73914242
-0.31419361 -4.0632172 -0.73328161
-0.34059039 -4.0788651 -0.73647845
-0.36438286 -4.0629764 -0.73399204
-0.38696182 -4.0361733 -0.72955203
-0.41431418 -4.0591774 -0.7341696
-0.43487602 -4.0164447 -0.726888
-0.45828265 -4.0029459 -0.7249344
-0.48307121 -4.0020123 -0.72528964
-0.50699914 -3.9940915 -0.72440165
-0.53045881 -3.9831014 -0.7229808
-0.55692476 -3.9943919 -0.72564483
-0.58241552 -3.9977164 -0.726888
-0.59969705 -3.9463925 -0.7181856
-0.61975151 -3.916394 -0.71339041
-0.64440888 -3.9164016 -0.71410084
-0.67306352 -3.9395361 -0.71907365
-0.6951651 -3.9237037 -0.71694243
-0.71479064 -3.895165 -0.71250242
-0.7436294 -3.916811 -0.71729761
-0.76442981 -3.8957572 -0.7142784
-0.79202926 -3.9093196 -0.7176528
-0.81197804 -3.8851199 -0.71410084
-0.82772535 -3.8425438 -0.70717442
-0.84511077 -3.80953 -0.70202404
-0.87043953 -3.8129079 -0.7036224
-0.89494246 -3.8122857 -0.70451039
-0.91647238 -3.7990689 -0.70308959
-0.93219799 -3.7628059 -0.69740641
-0.95017928 -3.7369854 -0.69367683
-0.97259474 -3.7291803 -0.69332165
-0.98707503 -3.6917675 -0.68746084
-1.0060706 -3.672353 -0.68497443
-1.0378838 -3.6992755 -0.69119042
-1.0700648 -3.7259445 -0.69740641
-1.0868062 -3.6985354 -0.69349921
-1.1072148 -3.6842573 -0.69207841
-1.1332664 -3.6886833 -0.69420964
-1.1620656 -3.7013783 -0.69793922
-1.1796485 -3.6782472 -0.69492
-1.1997466 -3.6634574 -0.69349921
-1.2178366 -3.6429596 -0.6910128
-1.2312741 -3.6093378 -0.68604004
-1.2514577 -3.5961382 -0.68497443
-1.2725127 -3.5856092 -0.68444163
-1.2837801 -3.5481193 -0.67875844
-1.3102916 -3.5531025 -0.68124479
-1.3424485 -3.5726342 -0.68657279
-1.359773 -3.552381 -0.684264
-1.3679678 -3.5091264 -0.67751521
-1.3833042 -3.485116 -0.674496
-1.3980294 -3.4601376 -0.67129922
-1.422601 -3.4596863 -0.67289764
-1.4392463 -3.4399974 -0.67076641
-1.4580151 -3.425668 -0.6697008
-1.4719731 -3.4004002 -0.66650403
-1.482109 -3.3669834 -0.66170883
-1.5071609 -3.3677077 -0.66366243
-1.5062068 -3.3109169 -0.65424961
-1.5318608 -3.313226 -0.65655839
-1.5329193 -3.2627888 -0.6483888
-1.5478252 -3.2426634 -0.64625758
-1.605034 -3.3101497 -0.66170883
-1.6066251 -3.2622736 -0.65407199
-1.6208912 -3.2409108 -0.6517632
-1.6207019 -3.1914158 -0.64377123
-1.6546795 -3.209404 -0.64945441
-1.6793588 -3.2087824 -0.65140802
-1.7008619 -3.2018945 -0.65211838
-1.7176754 -3.1861999 -0.65105283
-1.7310553 -3.1643755 -0.64874399
-1.7337288 -3.1235759 -0.642528
-1.7572063 -3.1205976 -0.64412642
-1.7572905 -3.076427 -0.6372
-1.7470356 -3.0153422 -0.62672162
-1.767498 -3.0079603 -0.62743199
-1.8201666 -3.0545511 -0.63950878
-1.848033 -3.0584879 -0.64270562
-1.853402 -3.0252709 -0.63808799
-1.878678 -3.0247107 -0.64039683
-1.9218396 -3.0522711 -0.64874399
-1.9183009 -3.0055768 -0.64128482
-1.9452569 -3.0069716 -0.64412642
-1.9706836 -3.0056791 -0.6464352
-1.9978007 -3.0066466 -0.64927679
-1.9728005 -2.9298368 -0.6352464
-2.0112572 -2.947758 -0.64181763
-2.012522 -2.9110739 -0.63648963
-2.0382483 -2.9099565 -0.63897598
-2.0623281 -2.9062245 -0.64092958
-2.0864387 -2.9023066 -0.64288318
-2.1111579 -2.8989971 -0.64501441
-2.1119685 -2.8630192 -0.63986403
-2.141274 -2.8657753 -0.64341599
-2.173661 -2.8722034 -0.647856
-2.144558 -2.7978814 -0.63400322
-2.1888342 -2.8196564 -0.64199519
-2.2091346 -2.8100414 -0.64288318
-2.2514603 -2.8280044 -0.65016478
-2.2422166 -2.781188 -0.642528
-2.2561283 -2.7635655 -0.64164001
-2.2768042 -2.7542219 -0.64270562
-2.309449 -2.7590683 -0.64714563
-2.3085227 -2.7238219 -0.64217281
-2.2931554 -2.6722591 -0.63329279
-2.2953122 -2.6417925 -0.62938559
-2.3660667 -2.6897361 -0.64430398
-2.355042 -2.6442971 -0.63684481
-2.3804471 -2.6400311 -0.63933122
-2.390631 -2.6188328 -0.6377328
-2.3919635 -2.588212 -0.6338256
-2.4192271 -2.5857053 -0.63684481
-2.4127188 -2.5472307 -0.63098401
-2.479377 -2.5856609 -0.64430398
-2.4766915 -2.5513306 -0.63950878
-2.4716101 -2.5150254 -0.63418078
-2.4863014 -2.4991148 -0.63400322
-2.511364 -2.493521 -0.63648963
-2.528724 -2.4801321 -0.63702238
-2.5502543 -2.4707334 -0.63862079
-2.5767405 -2.4659274 -0.64146239
-2.5896773 -2.4480419 -0.64092958
-2.5543082 -2.3850827 -0.6284976
-2.599272 -2.397393 -0.63595682
-2.5935671 -2.3628383 -0.63098401
-2.5933883 -2.3337116 -0.62743199
-2.6267803 -2.3347566 -0.63204962
-2.6905985 -2.3621039 -0.64394879
-2.68943 -2.3320088 -0.64021921
-2.6932254 -2.306499 -0.6377328
-2.7013173 -2.2848451 -0.63631201
-2.7235925 -2.2751684 -0.63826561
-2.7602715 -2.2772059 -0.64359361
-2.761224 -2.2496569 -0.6405744
-2.7680759 -2.2271187 -0.63897598
-2.7994084 -2.2241757 -0.6430608
-2.7735217 -2.1759703 -0.63400322
-2.7665966 -2.1432381 -0.62938559
-2.8351848 -2.1686826 -0.64199519
-2.8413713 -2.1459064 -0.64039683
-2.889982 -2.1549096 -0.6483888
-2.863529 -2.107959 -0.63950878
-2.8612854 -2.0793543 -0.63613439
-2.9115679 -2.0887263 -0.6444816
-2.9395866 -2.0816302 -0.647856
-2.8950424 -2.0235155 -0.6352464
-2.9341321 -2.0241594 -0.6411072
-2.94243 -2.0033481 -0.64021921
-2.9309814 -1.9693354 -0.63506877
-2.9495707 -1.9556658 -0.63648963
-2.9491637 -1.9294469 -0.6338256
-2.9725208 -1.9187889 -0.63631201
-2.9883883 -1.9031577 -0.6372
-3.0100079 -1.8910695 -0.63933122
-3.0123541 -1.8668607 -0.63737762
-3.02795 -1.8509094 -0.63826561
-3.0392501 -1.8322953 -0.63826561
-3.052973 -1.8151214 -0.63879842
-3.0615065 -1.7948611 -0.63826561
-3.0775733 -1.7789981 -0.63933122
-3.0875762 -1.7595936 -0.6391536
-3.0863044 -1.7338651 -0.63666719
-3.1347616 -1.7358783 -0.6444816
-3.1358526 -1.7114236 -0.642528
-3.1263623 -1.6814256 -0.63844323
-3.1609654 -1.6751177 -0.64341599
-3.1615894 -1.6506791 -0.64146239
-3.1462815 -1.6181915 -0.63631201
-3.1816077 -1.6117573 -0.64146239
-3.2345829 -1.6137397 -0.65016478
-3.2294092 -1.586483 -0.64714563
-3.2816036 -1.5872128 -0.6556704
-3.2148733 -1.5306522 -0.64039683
-3.2634103 -1.5292778 -0.64821118
-3.2727323 -1.5092251 -0.64821118
-3.2837234 -1.4899292 -0.64856642
-3.310775 -1.477778 -0.65211838
-3.2657189 -1.4336907 -0.64146239
-3.2392206 -1.3984072 -0.63453603
-3.3346977 -1.415433 -0.65158558
-3.3187997 -1.3847096 -0.64679039
-3.2917259 -1.3497524 -0.63986403
-3.3428442 -1.3468219 -0.64821118
-3.3171911 -1.3128794 -0.64164001
-3.313261 -1.2878639 -0.63933122
-3.3624718 -1.2833076 -0.64732319
-3.3610678 -1.2591975 -0.64554721
-3.3502588 -1.2317556 -0.64199519
-3.3318353 -1.2018214 -0.63702238
-3.3762546 -1.1944908 -0.64412642
-3.3602781 -1.1656846 -0.63968641
-3.3850687 -1.151067 -0.6430608
-3.4228759 -1.1405467 -0.64892161
-3.3821006 -1.1039408 -0.63986403
-3.3963094 -1.0855662 -0.64128482
-3.3925755 -1.0614721 -0.63933122
-3.4112568 -1.044383 -0.64164001
-3.41383 -1.0223024 -0.64092958
-3.4011505 -0.9958024 -0.63737762
-3.4459863 -0.9860211 -0.64465922
-3.4368076 -0.96061713 -0.64181763
-3.4407387 -0.93899262 -0.64146239
-3.4283681 -0.91304785 -0.63808799
-3.4929578 -0.90734518 -0.64909923
-3.5060909 -0.8878296 -0.65052003
-3.4933195 -0.86181813 -0.64714563
-3.5272472 -0.84726781 -0.65247363
-3.5496278 -0.82964361 -0.6556704
-3.5201061 -0.79999065 -0.64927679
-3.4769027 -0.76775837 -0.64039683
-3.4969435 -0.74971348 -0.64323843
-3.5005143 -0.72804195 -0.6430608
-3.5261383 -0.71083164 -0.64696801
-3.5555451 -0.69408894 -0.65158558
-3.561671 -0.67262501 -0.65194082
-3.5841246 -0.6541186 -0.65531522
-3.595824 -0.63348174 -0.65673602
-3.5637467 -0.60530281 -0.65016478
-3.6052694 -0.58962578 -0.6570912
-3.5699341 -0.56137151 -0.64998722
-3.5616348 -0.53769135 -0.647856
-3.5278575 -0.51046568 -0.6411072
-3.5767381 -0.49516022 -0.64945441
-3.5855625 -0.47397923 -0.65052003
-3.5532539 -0.44753638 -0.64412642
-3.5657043 -0.42689714 -0.6459024
-3.5751014 -0.40578848 -0.64714563
-3.5638251 -0.38237223 -0.64465922
-3.5670831 -0.36059698 -0.64483678
-3.5760865 -0.33935496 -0.64608002
-3.551635 -0.31505367 -0.64128482
-3.6045008 -0.29747313 -0.65052003
-3.7024188 -0.28270981 -0.66792482
-3.7521858 -0.26337132 -0.67662722
-3.5975804 -0.23031913 -0.6483888
-3.5989258 -0.20824043 -0.6483888
-3.6266711 -0.18753064 -0.653184
-3.6130071 -0.1645999 -0.65052003
-3.6296825 -0.14305061 -0.65336162
-3.6236072 -0.12054637 -0.65211838
-3.6350996 -0.098605469 -0.65407199
-3.6021841 -0.075591229 -0.64803362
-3.6321001 -0.053930659 -0.65336162
-3.6510599 -0.031809621 -0.65673602
-3.622647 -0.0093280924 -0.65158558
-3.7732034 0.013410205 -0.67875844
-3.6185527 0.035090581 -0.65087521
-3.6340132 0.057539485 -0.6537168
-3.5637369 0.078313582 -0.6411072
-3.6595936 0.10287213 -0.658512
-3.6598773 0.12535855 -0.65868962
-3.6433063 0.14717993 -0.65584803
-3.6167753 0.16834685 -0.65123039
-3.6697252 0.19337471 -0.6609984
-3.6753466 0.21629161 -0.66224164
-3.6847529 0.23953943 -0.66419524
-3.6743789 0.26151687 -0.66259682
-3.6707428 0.28390607 -0.66224164
-3.6453948 0.30446228 -0.65797919
-3.631696 0.32577121 -0.65584803
-3.631588 0.34823626 -0.65620321
-3.6460261 0.37220892 -0.65922242
-3.631933 0.39330414 -0.6570912
-3.5971863 0.41189304 -0.65123039
-3.6590753 0.44173065 -0.66295201
-3.5840504 0.45501485 -0.6498096
-3.5997257 0.47946307 -0.653184
-3.61621 0.50425637 -0.65673602
-3.5964925 0.52402627 -0.6537168
-3.5640206 0.54165328 -0.6483888
-3.6247842 0.57365316 -0.66011041
-3.5891507 0.59061605 -0.65424961
-3.6000104 0.61511123 -0.65691364
-3.6116729 0.63993329 -0.65975523
-3.6009026 0.6608398 -0.658512
-3.6344876 0.69007492 -0.66543841
-3.6408079 0.71444535 -0.66739202
-3.6633625 0.7422387 -0.67236483
-3.633693 0.75947225 -0.6677472
-3.6145337 0.77864772 -0.66508323
-3.5943153 0.79740375 -0.66224164
-3.6181386 0.82600909 -0.66756964
-3.5641394 0.83673167 -0.658512
-3.5551112 0.85766256 -0.65780163
-3.5803504 0.88702798 -0.66348481
-3.5509953 0.90292114 -0.6590448
-3.5015831 0.9132756 -0.65087521
-3.4997163 0.93575984 -0.65158558
-3.5195363 0.96423244 -0.65638083
-3.549561 0.9959057 -0.66312963
-3.5736525 1.0263544 -0.66881281
-3.5597339 1.0460443 -0.66739202
-3.5343983 1.0622051 -0.66384
-3.5287549 1.0841606 -0.66401762
-3.4882336 1.0951858 -0.65762401
-3.5133107 1.1267815 -0.66366243
-3.4586313 1.1327051 -0.65460479
-3.3806791 1.1302044 -0.6411072
-3.4230475 1.1677582 -0.65052003
-3.425113 1.1919725 -0.65229601
-3.4418492 1.2215198 -0.65691364
-3.4509473 1.2486397 -0.66011041
-3.4515312 1.272854 -0.66170883
-3.4851134 1.3095783 -0.6697008
-3.4871228 1.334806 -0.6716544
-3.4467735 1.3436726 -0.66543841
-3.4768834 1.3800381 -0.67289764
-3.4354999 1.3880796 -0.66650403
-3.4305589 1.4106297 -0.66721439
-3.4209311 1.431273 -0.66703683
-3.3713343 1.4349006 -0.6590448
-3.385046 1.4653295 -0.66348481
-3.3597775 1.4789383 -0.66028804
-3.4063354 1.5244402 -0.67129922
-3.3646672 1.5306478 -0.66490561
-3.3480654 1.5479615 -0.66348481
-3.2957473 1.5483967 -0.65496004
-3.28352 1.5673186 -0.65442723
-3.270299 1.5857195 -0.6537168
-3.2101812 1.5809815 -0.64359361
-3.2567551 1.6288121 -0.65496004
-3.2440672 1.6474282 -0.65442723
-3.2426453 1.6718105 -0.65620321
-3.2331982 1.6921316 -0.65638083
-3.2305772 1.716092 -0.65797919
-3.24511 1.7494205 -0.66312963
-3.2092748 1.7556069 -0.65797919
-3.1881158 1.7695365 -0.65584803
-3.1874893 1.7948575 -0.65797919
-3.1661608 1.8085262 -0.65584803
-3.1941776 1.8506064 -0.66401762
-3.1598516 1.8567135 -0.65922242
-3.1602364 1.8831176 -0.66170883
-3.166312 1.9131576 -0.66543841
-3.1603882 1.9361472 -0.66668159
-3.1451044 1.9534262 -0.66597122
-3.103076 1.9538161 -0.65957761
-3.0810735 1.9664677 -0.65744638
-3.116879 2.0163302 -0.6677472
-3.101156 2.0332594 -0.66703683
-3.0787849 2.0457156 -0.66490561
-3.0490305 2.0530286 -0.66117603
-3.0453188 2.0777979 -0.66312963
-3.0300837 2.0947659 -0.66259682
-2.9986322 2.1003366 -0.658512
-3.0025442 2.1306534 -0.66224164
-3.0006025 2.1570764 -0.66472799
-2.9928796 2.1795015 -0.66597122
-2.9778662 2.1966562 -0.66561604
-2.9525046 2.2060533 -0.66295201
-2.9318497 2.2187846 -0.66135359
-2.9291167 2.2451117 -0.66384
-2.943275 2.2847614 -0.67023361
-2.9129515 2.2900085 -0.66650403
-2.8872952 2.2986469 -0.66384
-2.9045525 2.3416381 -0.6711216
-2.8741186 2.3463495 -0.66739202
-2.8627019 2.3664482 -0.66810238
-2.8617132 2.3953362 -0.67129922
-2.8514669 2.4166672 -0.67236483
-2.8477888 2.4437289 -0.6750288
-2.8260539 2.4553487 -0.67343038
-2.81463 2.4758923 -0.67431843
-2.7854202 2.4806826 -0.67094404
-2.7409072 2.4713719 -0.66384
-2.7242377 2.4868166 -0.66348481
-2.7269983 2.5201805 -0.66792482
-2.7014215 2.5274544 -0.66543841
-2.7165899 2.573077 -0.6730752
-2.7114072 2.5999119 -0.67573923
-2.6904597 2.6117027 -0.674496
-2.6722779 2.6260929 -0.67396319
-2.660301 2.6466038 -0.6750288
-2.6391571 2.65799 -0.67378563
-2.6165953 2.6678112 -0.67218721
-2.6111348 2.695123 -0.6750288
-2.5884237 2.7046962 -0.67343038
-2.5636654 2.711947 -0.67129922
-2.5503359 2.7312224 -0.67218721
-2.5548842 2.769964 -0.67787039
-2.5272336 2.7739506 -0.6750288
-2.5193832 2.7996449 -0.67751521
-2.5106583 2.8246117 -0.67982399
-2.4952278 2.8421817 -0.6803568
-2.4725828 2.8514915 -0.678936
-2.4492774 2.8598833 -0.67733759
-2.4405828 2.8853755 -0.67982399
-2.4228323 2.9002964 -0.67982399
-2.386199 2.892338 -0.674496
-2.361568 2.8985336 -0.67254239
-2.3511429 2.922169 -0.67467362
-2.331944 2.9349995 -0.67431843
-2.3254354 2.9639616 -0.67769283
-2.3168502 2.9906201 -0.68053442
-2.3020446 3.009469 -0.68160003
-2.2823491 3.0219672 -0.68124479
-2.2578797 3.0280263 -0.67946881
-2.2450931 3.0497475 -0.68124479
-2.2136071 3.0459542 -0.67733759
-2.217253 3.0906606 -0.684264
-2.1868701 3.0881467 -0.68071204
-2.1870539 3.1289279 -0.68675041
-2.150486 3.1171803 -0.68124479
-2.131319 3.1303165 -0.68124479
-2.1214044 3.1572199 -0.684264
-2.1253824 3.2054415 -0.69190079
-2.1137581 3.2307737 -0.69456482
-2.0938947 3.2436824 -0.69456482
-2.0707798 3.2514894 -0.69349921
-2.032985 3.2358053 -0.68746084
-2.014648 3.2507279 -0.68799365
-1.9802885 3.2395205 -0.68302083
-1.9918853 3.3038578 -0.69403201
-1.9720786 3.3168633 -0.69420964
-1.9511919 3.3280525 -0.69403201
-1.949948 3.3731866 -0.70095843
-1.9262893 3.3799584 -0.69989282
-1.8968351 3.3762722 -0.69669604
-1.8860976 3.4059248 -0.70042562
-1.8642205 3.4157059 -0.70007044
-1.849755 3.4392133 -0.70255685
-1.8217032 3.4374561 -0.69989282
-1.8147013 3.47561 -0.70539844
-1.7946919 3.4893045 -0.70593125
-1.7616813 3.477428 -0.70131361
-1.7196553 3.4467878 -0.6929664
-1.6980398 3.4563911 -0.69278884
-1.7025185 3.5198958 -0.70344484
-1.6732712 3.5142839 -0.700248
-1.6533474 3.5280488 -0.70095843
-1.6300195 3.5345526 -0.700248
-1.6168435 3.5633059 -0.70397764
-1.5917388 3.5659709 -0.70255685
-1.575369 3.588285 -0.7050432
-1.5505905 3.5915596 -0.70380002
-1.5335246 3.6127815 -0.70610881
-1.5173937 3.6366537 -0.7089504
-1.4995333 3.6568215 -0.71108162
-1.4803785 3.6741681 -0.71268004
-1.4541832 3.6740324 -0.710904
-1.4237651 3.6627078 -0.7069968
-1.4156579 3.7090685 -0.7142784
-1.3908002 3.7121563 -0.71321285
-1.3639196 3.709537 -0.71108162
-1.3407987 3.7169104 -0.710904
-1.3248632 3.7445488 -0.71463364
-1.3002486 3.7479594 -0.71374559
-1.2734233 3.7446871 -0.71161443
-1.2501111 3.7514966 -0.71143681
-1.2395954 3.7974508 -0.71871841
-1.2114749 3.7899883 -0.71587682
-1.1973119 3.8264639 -0.72138244
-1.1836114 3.8657303 -0.72742081
-1.1482879 3.8342698 -0.72013921
-1.121696 3.8308549 -0.7181856
-1.1125263 3.8878081 -0.72759843
-1.0814931 3.8689723 -0.72280324
-1.0642146 3.8992691 -0.72724324
-1.0270909 3.8562779 -0.71800804
-0.99895322 3.8453636 -0.71481121
-0.99806333 3.9410918 -0.73150563
-0.97126776 3.9366322 -0.72955203
-0.9487049 3.9492154 -0.7307952
-0.93162757 3.985626 -0.73647845
-0.89886093 3.9548025 -0.72972965
-0.8800993 3.9852271 -0.73434722
-0.84902292 3.9597621 -0.72866404
-0.81668806 3.9263592 -0.72156
-0.79686314 3.9525189 -0.72546721
-0.76919901 3.9399486 -0.72227043
-0.7546972 3.9958441 -0.73168325
-0.73140299 4.0071759 -0.73292643
-0.71466345 4.0561695 -0.74109602
-0.69141138 4.0701799 -0.74287206
-0.66737825 4.080173 -0.74393761
-0.64018762 4.070581 -0.7414512
-0.61549306 4.0763788 -0.74180645
-0.58383763 4.0343037 -0.73345923
-0.56717992 4.0962968 -0.74411523
-0.54900819 4.1523819 -0.75370562
-0.52290362 4.1507907 -0.75281763
-0.47926581 4.00247 -0.72528964
-0.4678148 4.1207166 -0.74624646
-0.44378361 4.1352506 -0.74837762
-0.42187214 4.172164 -0.75459361
-0.39365631 4.147243 -0.74962085
-0.35948908 4.0515566 -0.73186082
-0.34094915 4.1301851 -0.74571365
-0.31492457 4.1233678 -0.74411523
-0.29141396 4.1507463 -0.74873281
-0.26505736 4.1387072 -0.74624646
-0.23903051 4.1294484 -0.74429286
-0.21618667 4.1789942 -0.75299525
-0.18851766 4.136003 -0.74500322
-0.16395351 4.157732 -0.74873281
-0.13774835 4.1380053 -0.74500322
-0.1127314 4.152545 -0.74748963
-0.086645998 4.1246257 -0.74233925
-0.061543077 4.1388559 -0.7448256
-0.035849098 4.1056976 -0.73878723
-0.010791601 4.1550446 -0.74766725
0.014860138 4.2012854 -0.75601441
0.040376063 4.1735616 -0.75104165
0.067416854 4.2647457 -0.76755846
0.092468351 4.2130904 -0.75832325
0.11996664 4.2714667 -0.76897925
0.14463174 4.2254081 -0.76080966
0.16774739 4.1546264 -0.74820006
0.19487762 4.1889081 -0.75459361
0.25306949 4.3021259 -0.77555043
0.28239098 4.3456664 -0.78372002
0.30298656 4.2584496 -0.76826882
0.35072589 4.2004724 -0.75850081
0.37868673 4.2227459 -0.76294082
0.41134107 4.2908759 -0.77572805
0.44215155 4.3323274 -0.78372002
0.46586981 4.3031158 -0.77892482
0.50020099 4.369596 -0.79153442
0.51899391 4.3000064 -0.77945763
0.57600462 4.3255053 -0.78531843
0.59561163 4.2721801 -0.77626085
0.63102597 4.3317451 -0.78780484
0.6447438 4.2431445 -0.77235365
0.67353302 4.2566051 -0.77555043
0.69740361 4.2387972 -0.77306402
0.7253862 4.246079 -0.77519524
0.75382739 4.255115 -0.77768165
0.78648847 4.2862244 -0.78425282
0.80121887 4.2204056 -0.77306402
0.83031839 4.2318268 -0.77608323
0.85607356 4.225688 -0.77590561
0.88600916 4.2396221 -0.77945763
0.92525935 4.2956786 -0.79082406
0.95649821 4.3120184 -0.79490882
0.97505897 4.2715278 -0.78851527
0.99450767 4.2367215 -0.78318721
1.0230218 4.2410631 -0.78514081
1.0688907 4.3149486 -0.80005926
1.0667493 4.1957607 -0.77910244
1.0907366 4.1824703 -0.77785921
1.1481336 4.2945423 -0.80005926
1.1817391 4.3139939 -0.80503201
1.20739 4.3038187 -0.80449927
1.2427342 4.3275447 -0.81036007
1.2706506 4.3245592 -0.81124806
1.2830076 4.2695556 -0.80236804
1.3421108 4.3688488 -0.82261443
1.3644729 4.346447 -0.81995046
1.3559719 4.2283478 -0.79917127
1.4121975 4.3125405 -0.81675363
1.4143072 4.2309904 -0.80290085
1.4253151 4.1784544 -0.79455364
1.4603022 4.1965857 -0.79970402
1.474839 4.1560116 -0.79366565
1.5110215 4.1764984 -0.79934883
1.5536368 4.2133169 -0.80822885
1.5559318 4.1410584 -0.79615206
1.6073335 4.1994495 -0.80929446
1.6180649 4.1509957 -0.80183524
1.6496737 4.1565399 -0.80485445
1.6792003 4.1563768 -0.80680805
1.7147723 4.1705713 -0.81160325
1.7555172 4.1962876 -0.81870723
1.7789208 4.1800036 -0.81764168
1.7869498 4.1283665 -0.80964965
1.8506907 4.204699 -0.82687688
1.8680168 4.1743994 -0.82314724
1.8740425 4.1198587 -0.81462246
1.8827727 4.0725493 -0.80751842
1.913164 4.0725002 -0.80982727
1.9321836 4.0482497 -0.80734086
1.9707215 4.0646563 -0.81302404
1.9812816 4.0233512 -0.80716324
2.0336542 4.0665736 -0.81835204
2.058568 4.054019 -0.81835204
2.1194692 4.1112933 -0.83256006
2.1077056 4.0275798 -0.81817442
2.1374555 4.0241323 -0.82012802
2.1630406 4.0126739 -0.82048327
2.1994247 4.0209122 -0.82492328
2.2197583 3.9995964 -0.82332486
2.2152951 3.9344459 -0.81266886
2.2672083 3.9694915 -0.82279205
2.2658761 3.9112225 -0.81355685
2.2838511 3.8870633 -0.81142563
2.3257887 3.9034138 -0.81781924
2.3390114 3.8713796 -0.81408966
2.378654 3.8829713 -0.81959528
2.4283888 3.9101064 -0.82847524
2.4612467 3.909291 -0.83149445
2.4693081 3.8692267 -0.82616645
2.4908652 3.8506968 -0.82545602
2.5160642 3.8378098 -0.82598883
2.5384762 3.8206599 -0.82563365
2.5321982 3.760927 -0.81604326
2.5557814 3.7461317 -0.81622082
2.5921469 3.7498095 -0.82048327
2.5930932 3.7023942 -0.81355685
2.6522021 3.7377839 -0.82492328
2.7089696 3.7685902 -0.83540165
2.7725854 3.8075905 -0.84783363
2.752676 3.731895 -0.83469123
2.8249905 3.7811642 -0.84960967
2.8190455 3.7253032 -0.84090728
2.7993546 3.6524732 -0.82829767
2.8367958 3.654665 -0.83273762
2.8871386 3.6727827 -0.84090728
2.8906229 3.6311281 -0.83540165
2.8708568 3.561219 -0.82332486
2.9411869 3.6030064 -0.83717763
2.9507015 3.5697198 -0.83362567
2.9441307 3.5175841 -0.82563365
2.9217649 3.447644 -0.81337923
2.9563196 3.4453373 -0.81710887
2.9612713 3.4085579 -0.81266886
3.001626 3.4124942 -0.81799686
3.0388675 3.4123878 -0.82243687
3.0735848 3.4090283 -0.82616645
3.0931175 3.3886511 -0.82581127
3.1292112 3.3862336 -0.82989603
3.1257298 3.341095 -0.82350242
3.2239826 3.4040315 -0.84392643
3.2175689 3.3557682 -0.83682245
3.2333016 3.3310187 -0.83557928
3.3019555 3.3602583 -0.84801126
3.2919776 3.3092325 -0.84019685
3.3024457 3.2792618 -0.83771044
3.3232071 3.2596259 -0.83788806
3.3699989 3.2651994 -0.84463686
3.3949466 3.2492237 -0.84588003
3.4377003 3.2499688 -0.85156327
3.4324064 3.2053027 -0.84534723
3.4454997 3.1781754 -0.84374887
3.4445698 3.1384134 -0.83877605
3.4359684 3.0921996 -0.83202726
3.4482584 3.0651734 -0.83042884
3.4610856 3.0387626 -0.82900804
3.5473154 3.0761485 -0.84516966
3.534735 3.0274336 -0.83771044
3.5449808 2.9986956 -0.83575684
3.5512314 2.9667907 -0.83291525
3.5860665 2.9587259 -0.83682245
3.6087301 2.9403968 -0.83788806
3.6420369 2.9305394 -0.84144008
3.6792097 2.9234452 -0.84588003
3.694756 2.8989923 -0.84534723
3.7412553 2.8985715 -0.85191846
3.7831981 2.8941 -0.85742408
3.82287 2.8874428 -0.86239684
3.8239501 2.8515751 -0.85866725
3.830281 2.8198886 -0.85618085
3.823632 2.7789729 -0.85085285
3.8206234 2.7411149 -0.84641284
3.8189011 2.7045364 -0.84232807
3.9297845 2.7470324 -0.86310726
4.0340405 2.7832365 -0.88228804
3.9371712 2.6808736 -0.85742408
3.9551802 2.6577632 -0.85777926
3.9845352 2.642148 -0.86062086
4.0220809 2.6316614 -0.86523849
4.0290589 2.6010604 -0.86328489
4.0623727 2.587394 -0.86701447
4.0240135 2.5283802 -0.85547048
4.0469794 2.5083086 -0.85706884
4.0992346 2.5060198 -0.86488324
4.0319495 2.4310119 -0.84747845
4.1102257 2.4439564 -0.86079848
4.1047711 2.4067419 -0.85653603
4.1756873 2.4140251 -0.86825764
4.1724677 2.3781223 -0.86452806
4.2530389 2.3896022 -0.87820327
1.6033356 0.88749719 -0.32853112
1.6191159 0.88330179 -0.33066234
1.6219054 0.87195158 -0.33012953
1.6324419 0.86474907 -0.33119512
1.6412064 0.85653883 -0.33190554
1.6481812 0.84735298 -0.33226073
1.6577384 0.83944833 -0.33314872
1.6637385 0.82970035 -0.33332634
1.6732141 0.82164657 -0.33421433
1.6782241 0.81136447 -0.33421433
1.684948 0.80189824 -0.33456954
1.6916187 0.79237992 -0.33492473
1.6901937 0.77909958 -0.33368152
1.590995 0.72152799 -0.31307992
4.5058823 2.0114679 -0.88832647
4.4550681 1.9560801 -0.87589449
1.5362489 0.66285473 -0.29975992
1.5511569 0.65803194 -0.30189112
1.5488082 0.64584816 -0.30064791
1.5463687 0.63371807 -0.29940471
1.5520535 0.62495363 -0.29975992
1.5668386 0.61976647 -0.30189112
1.576115 0.61228102 -0.30295673
1.5982293 0.60961992 -0.30650872
1.5936464 0.5966931 -0.30491033
1.596354 0.58656371 -0.30473271
1.597146 0.57575542 -0.30419993
1.596938 0.56463104 -0.30348954
1.6310524 0.56547076 -0.30935031
4.7862759 1.6278125 -0.91017127
4.6197271 1.5395852 -0.87660486
4.6487317 1.5176263 -0.88033444
4.6635804 1.4908723 -0.88140005
4.6867275 1.4666394 -0.88406408
4.6899929 1.436125 -0.88299847
4.6742063 1.3999764 -0.87838084
4.6619315 1.3651824 -0.87447369
4.6711664 1.3368225 -0.87465125
4.7408834 1.3253658 -0.88619524
4.7375345 1.2931402 -0.88406408
4.73492 1.2612592 -0.88211048
4.7520943 1.2346584 -0.88388646
4.7490873 1.2028177 -0.88193285
4.7678428 1.1764858 -0.88406408
4.8027205 1.1538792 -0.88921446
4.7972531 1.1214747 -0.88690567
4.7858114 1.0878713 -0.88353127
4.8193021 1.0644319 -0.88850409
4.8122721 1.0319506 -0.88601768
4.7780485 0.99398023 -0.87855846
4.7811637 0.96406013 -0.87802565
4.7860227 0.93451655 -0.87784809
4.791667 0.90513247 -0.87784809
4.8106837 0.87819028 -0.88033444
4.8072596 0.84711772 -0.87873608
4.7919931 0.81414086 -0.87500644
4.779417 0.78186035 -0.87180966
4.7802362 0.75190759 -0.87109923
4.7867055 0.72285652 -0.87145448
4.7725463 0.69079137 -0.86808008
4.7737708 0.66108924 -0.86754727
4.7796884 0.63204372 -0.86790246
4.7190361 0.59457636 -0.85618085
4.2242727 0.50586021 -0.76560485
4.1813402 0.47470662 -0.75725764
4.1254659 0.44273207 -0.74660164
4.1046062 0.41503075 -0.74233925
4.054173 0.38480791 -0.73274881
3.9868608 0.35373861 -0.72013921
3.9536493 0.32634899 -0.71374559
3.9349711 0.30050677 -0.71001601
3.9347775 0.27621844 -0.70966083
3.9344342 0.25194383 -0.70930564
3.9388533 0.22796889 -0.70983845
3.9441094 0.2040002 -0.71054882
3.939388 0.17952602 -0.70948321
4.7182317 0.18614094 -0.84996486
4.8579664 0.16182452 -0.87500644
4.8647699 0.13217469 -0.87607205
4.8831987 0.10269728 -0.87926888
4.9014497 0.072998658 -0.88246566
4.9047575 0.042948786 -0.88299847
4.3154311 -0.012943221 -0.85207444
4.3319459 -0.039575312 -0.85537642
4.3473148 -0.066395514 -0.85848415
4.2507143 -0.091005296 -0.83944923
4.2775326 -0.11784356 -0.84488779
4.2600617 -0.14352524 -0.84158576
4.2610612 -0.16974001 -0.84197426
4.2315221 -0.19457375 -0.83634144
4.3056793 -0.22447127 -0.8512975
1.408462 -0.081921056 -0.27694651
1.4480686 -0.093150765 -0.28491014
1.4562763 -0.10265658 -0.28665826
1.4693121 -0.11264238 -0.28937751
1.4695709 -0.12173694 -0.28957176
1.465865 -0.1304903 -0.28898907
1.4582011 -0.1388302 -0.28762943
1.452442 -0.14727926 -0.28665826
1.451511 -0.1561885 -0.28665826
1.434931 -0.16331418 -0.2835505
1.4446154 -0.17340359 -0.28568706
1.4444975 -0.18238738 -0.28588131
1.4414062 -0.19098917 -0.28549284
1.4547815 -0.20185474 -0.28840634
1.4506032 -0.21035446 -0.28782365
1.4027303 -0.21219984 -0.27850041
1.4692301 -0.2315025 -0.29209679
1.4203491 -0.23273221 -0.28257933
1.4701467 -0.25017375 -0.29287374
1.470516 -0.25953099 -0.29326221
1.4631063 -0.26748949 -0.29209679
1.4614373 -0.27646193 -0.29209679
1.4558628 -0.28467026 -0.29131988
1.4512041 -0.29301497 -0.29073715
1.4609026 -0.30431643 -0.29306796
1.4638032 -0.31430516 -0.29403916
1.4704671 -0.32518879 -0.29578725
1.4665312 -0.33376959 -0.2953988
1.4663658 -0.34320924 -0.29578725
1.4537414 -0.34967485 -0.29365069
1.409668 -0.34822959 -0.28510436
1.3998981 -0.3549425 -0.2835505
3.9959967 -1.039818 -0.81516993
3.8568506 -1.0289097 -0.7879771
3.8599269 -1.0551428 -0.78991944
3.8505461 -1.0780134 -0.78933674
3.8825212 -1.1127026 -0.79730034
3.8756206 -1.1365043 -0.79730034
3.8526013 -1.1554716 -0.79399836
3.6438031 -1.1172491 -0.75223798
3.630327 -1.1375324 -0.75087833
3.5662904 -1.1415403 -0.73903006
3.5470977 -1.1594381 -0.73650497
3.5157239 -1.1731064 -0.73145491
3.5103166 -1.195289 -0.73184335
3.5047696 -1.2174492 -0.73223186
3.5120277 -1.2441733 -0.73533958
3.5366182 -1.2773647 -0.74213779
3.5489657 -1.3064979 -0.74641097
3.531698 -1.3248035 -0.74446863
3.5143394 -1.3429463 -0.74252629
3.4557555 -1.3449135 -0.73184335
3.3252385 -1.317659 -0.70581597
3.1315114 -1.2631633 -0.66619217
3.0774224 -1.2633512 -0.65628624
3.0442691 -1.2716215 -0.65084767
3.0382147 -1.2910442 -0.65123612
2.9960198 -1.2948707 -0.64385521
2.9395254 -1.2919123 -0.63336658
2.8563144 -1.2763023 -0.61705089
2.7475085 -1.2479541 -0.59510237
2.6614268 -1.2286012 -0.57800978
2.6325247 -1.2349079 -0.57334816
2.6089592 -1.2434393 -0.56985193
2.6304154 -1.2735333 -0.57626164
2.5908632 -1.2740628 -0.56926924
2.4978731 -1.247416 -0.55042851
2.4446793 -1.2396454 -0.54032832
2.4405155 -1.2564186 -0.54110527
2.3832073 -1.2454672 -0.53003389
2.3642554 -1.25409 -0.52750885
2.3513339 -1.2657828 -0.52634341
2.3237236 -1.2693683 -0.52187604
2.3253284 -1.2888345 -0.52401263
2.3148115 -1.3016354 -0.52342993
2.3050771 -1.3148421 -0.52304143
2.3088524 -1.3358397 -0.52576071
2.3006124 -1.3499814 -0.52576071
2.3024011 -1.370093 -0.52809155
2.2763143 -1.3735499 -0.52401263
2.2586396 -1.3818591 -0.52187604
2.2334468 -1.3853487 -0.51799136
2.1559834 -1.3556794 -0.50186992
2.1277728 -1.3562266 -0.49720827
2.1433043 -1.3846966 -0.50284106
2.0773242 -1.3602 -0.48924467
2.0362468 -1.3512214 -0.48147529
2.0311735 -1.3658801 -0.48225224
2.0413978 -1.3910242 -0.48671964
2.0336313 -1.4040813 -0.48691386
2.0177441 -1.4114715 -0.48516575
1.9986418 -1.4164509 -0.48264071
1.9978809 -1.4344096 -0.48458305
1.9874554 -1.4454871 -0.48419458
1.9769691 -1.4564909 -0.4838061
1.9499145 -1.4550984 -0.47933871
1.957382 -1.4794585 -0.48341763
1.9482672 -1.4914409 -0.48341763
1.8972194 -1.470906 -0.47292897
1.8765861 -1.4734313 -0.47001547
1.8667423 -1.4843075 -0.46982124
1.8858671 -1.5184999 -0.4770079
1.9312487 -1.5746808 -0.49099278
1.9336523 -1.5964952 -0.49410054
1.9396232 -1.6215442 -0.49817947
1.9356263 -1.6384859 -0.49973333
1.9516028 -1.6726774 -0.50653154
1.9501926 -1.6923368 -0.50886232
1.9604042 -1.7224021 -0.51430088
1.9710522 -1.7533078 -0.5199337
1.9573414 -1.7627429 -0.51915675
1.9428645 -1.7714146 -0.51818562
1.9297966 -1.7813064 -0.51760286
1.8829976 -1.7596221 -0.50789118
1.7830989 -1.6868653 -0.48361188
1.7712983 -1.6964173 -0.48322341
1.7608558 -1.7072538 -0.48322341
1.7503471 -1.718026 -0.48322341
1.7439473 -1.7328827 -0.4843888
1.7346647 -1.7449423 -0.48477727
1.7252997 -1.7569531 -0.48516575
1.7076575 -1.7604643 -0.48322341
1.6893588 -1.7631172 -0.48108682
1.6683954 -1.762762 -0.47817332
1.6575478 -1.7729657 -0.47817332
1.6406488 -1.7766163 -0.4764252
1.6376489 -1.7953473 -0.47875601
1.6384199 -1.8184813 -0.48225224
1.6415763 -1.8446233 -0.48652539
1.6082103 -1.8296081 -0.47992143
1.5802354 -1.8201803 -0.47487134
1.6922594 -1.973578 -0.51235855
1.7422379 -2.0572917 -0.53139353
1.783699 -2.1326604 -0.54809767
1.7680811 -2.1405392 -0.54732072
1.7573937 -2.1543884 -0.54809767
1.7429109 -2.1636031 -0.54770923
1.7137265 -2.1542954 -0.5426591
1.6956286 -2.1585984 -0.54110527
1.6811495 -2.1674116 -0.54071677
1.6505239 -2.1550994 -0.53508395
1.6343114 -2.1612737 -0.53411281
1.6174988 -2.1665444 -0.53294742
1.6001011 -2.1709006 -0.53158778
1.5879047 -2.1822643 -0.53197622
1.5453022 -2.1513307 -0.52207029
1.5054094 -2.1231592 -0.51294124
1.4872921 -2.1251228 -0.51119316
1.4731096 -2.1325941 -0.51080471
1.4456321 -2.1205177 -0.50575459
1.4720134 -2.1879528 -0.51973945
1.4764628 -2.2239144 -0.52614921
1.4197921 -2.1672831 -0.51061046
1.3920919 -2.1537089 -0.50536615
1.3545923 -2.1241615 -0.49643135
1.4109951 -2.2428718 -0.52226454
1.5213263 -2.45154 -0.56888074
1.6301693 -2.6633129 -0.6158855
1.6680348 -2.763128 -0.63666856
1.8532484 -3.1130126 -0.71494496
1.876816 -3.1970809 -0.73164916
1.8389837 -3.1771226 -0.72446245
1.8952916 -3.3212626 -0.75476301
1.9474925 -3.4619331 -0.78409243
1.9347754 -3.4892602 -0.78758866
1.9208552 -3.5148394 -0.79069638
1.9080888 -3.5429697 -0.79438686
1.8918308 -3.5650091 -0.79671764
1.8690119 -3.5748115 -0.7963292
1.8385092 -3.5696418 -0.79263872
1.8068093 -3.561609 -0.78836554
1.7844833 -3.5717506 -0.78817135
1.75907 -3.5755908 -0.78661746
1.7341046 -3.580137 -0.78525782
1.7061948 -3.5783131 -0.78253853
1.6750392 -3.5691776 -0.77826536
1.6522851 -3.5776074 -0.77787691
1.6432867 -3.6162572 -0.78409243
1.619866 -3.6235855 -0.78350973
1.6035233 -3.6469266 -0.78642321
1.5760556 -3.6449916 -0.78389817
1.5555793 -3.6591077 -0.78486937
1.5372583 -3.67854 -0.78700596
1.5124224 -3.6824586 -0.78584051
1.4894317 -3.6907594 -0.78564632
1.4692879 -3.7062125 -0.78700596
1.4614652 -3.7535517 -0.79516375
1.4597709 -3.8183429 -0.80701208
1.4314899 -3.8143697 -0.8042928
1.4009402 -3.8037505 -0.80021387
1.3662417 -3.7809067 -0.79360992
1.3322045 -3.7587063 -0.78720015
1.3136239 -3.7797823 -0.78991944
1.2850302 -3.7719855 -0.78661746
1.2624828 -3.7816603 -0.78700596
1.2419989 -3.7977271 -0.78875405
1.2177757 -3.8024735 -0.78817135
1.1970618 -3.8182988 -0.78991944
1.1715971 -3.8190069 -0.78855979
1.1458869 -3.8186073 -0.78700596
1.1100098 -3.7832081 -0.77826536
1.0851536 -3.7842901 -0.77709997
1.080431 -3.8569999 -0.79069638
1.0580382 -3.8682878 -0.79166758
1.0395944 -3.8946106 -0.79574651
1.0149367 -3.898068 -0.79516375
0.988828 -3.8956649 -0.79341567
0.96914393 -3.9187999 -0.7969119
0.9354375 -3.8846171 -0.78875405
0.90778083 -3.874047 -0.78545207
0.88486457 -3.8833699 -0.78622901
0.86059594 -3.8868105 -0.78584051
0.84105921 -3.9121583 -0.78991944
0.81183285 -3.8922772 -0.78486937
0.78793502 -3.8971853 -0.78486937
0.76664555 -3.9154241 -0.78758866
0.73986876 -3.9055972 -0.78467512
0.70794338 -3.8666415 -0.77593458
0.69051987 -3.9066546 -0.78312123
0.6634059 -3.8924444 -0.77943081
0.6447506 -3.9283862 -0.78584051
0.62109292 -3.9351754 -0.78642321
0.59120554 -3.9010866 -0.77884811
0.56500238 -3.8891084 -0.77574033
0.54099357 -3.89153 -0.77554613
0.51749253 -3.8976939 -0.77612883
0.49172094 -3.8861976 -0.77321529
0.4703255 -3.9095943 -0.77729422
0.4502171 -3.9465189 -0.78409243
0.42357501 -3.9267752 -0.779625
0.40105927 -3.9449151 -0.78273278
0.3742376 -3.9199593 -0.77729422
0.34547099 -3.8694198 -0.76680559
0.32220921 -3.877332 -0.76797098
0.29878816 -3.8841262 -0.76894212
0.27273655 -3.8545742 -0.76272666
0.24806954 -3.8405125 -0.75961888
0.22518583 -3.8537138 -0.76194972
0.1987737 -3.8021233 -0.75146103
0.17598219 -3.8150303 -0.75379187
0.15339184 -3.8366222 -0.75787079
0.12991409 -3.8394518 -0.75825924
0.10686793 -3.858808 -0.76194972
0.082682975 -3.8358533 -0.7572881
0.05864824 -3.8039207 -0.75087833
0.03517117 -3.7894955 -0.7479648
