# .PCD v0.7 - Point Cloud Data file format
VERSION 0.7
FIELDS x y z
SIZE 4 4 4
TYPE F F F
COUNT 1 1 1
WIDTH 1447
HEIGHT 1
VIEWPOINT 0 0 0 1 0 0 0
POINTS 1447
DATA ascii
-2.4721076 2.8437002 -0.60226303
-2.4591148 2.8640597 -0.60337132
-2.4497962 2.888885 -0.60542965
-2.4370956 2.9099183 -0.60669625
-2.4185655 2.9240565 -0.60653794
-2.4030769 2.9419003 -0.60717124
-2.376302 2.9458303 -0.60495466
-2.358182 2.9603553 -0.60495466
-2.3387525 2.973217 -0.60463798
-2.3180425 2.9843919 -0.60400468
-2.3093002 3.0110958 -0.60653794
-2.3164096 3.0590587 -0.61334616
-2.2751315 3.0431621 -0.60732961
-2.2511394 3.0499146 -0.60590464
-2.2370346 3.0700541 -0.60717124
-2.2389097 3.1125801 -0.61287117
-2.2237701 3.1318948 -0.61397946
-2.1999781 3.1390119 -0.6127128
-2.1789911 3.1500154 -0.61223781
-2.1646321 3.1706657 -0.61366278
-2.1478946 3.1879826 -0.61445445
-2.1217337 3.1912344 -0.61255449
-2.1015711 3.2033675 -0.61239618
-2.1049452 3.2518456 -0.6192044
-2.0791073 3.2555459 -0.61746275
-2.0522509 3.257381 -0.61540443
-2.0134642 3.2397206 -0.60970455
-2.0090275 3.2772691 -0.61445445
-2.0001185 3.3081243 -0.61793774
-1.9802881 3.3211825 -0.61809605
-1.9648765 3.3417828 -0.61967939
-1.938888 3.3443794 -0.61793774
-1.9178407 3.355356 -0.61777937
-1.9175719 3.4031916 -0.62442929
-1.8985716 3.4183462 -0.62506258
-1.8614433 3.4004824 -0.61967939
-1.8222626 3.3779476 -0.61350447
-1.8154035 3.4152222 -0.61825436
-1.8012844 3.4394176 -0.62062937
-1.7860312 3.461813 -0.62268764
-1.7647563 3.4727068 -0.62268764
-1.7593217 3.5152578 -0.62838751
-1.7394651 3.5295296 -0.62902087
-1.7190686 3.5428014 -0.62949586
-1.6947447 3.5479367 -0.62854588
-1.6742034 3.5609496 -0.62902087
-1.6523223 3.5711553 -0.62902087
-1.6385601 3.5991998 -0.63218749
-1.6156379 3.6073837 -0.63187081
-1.5938709 3.6181328 -0.63202912
-1.5657538 3.614254 -0.62965417
-1.5539935 3.6483209 -0.63392907
-1.5487368 3.6987729 -0.64105397
-1.55419 3.7766898 -0.65292877
-1.5147034 3.7458773 -0.64596224
-1.4844012 3.7367477 -0.64279562
-1.4589332 3.7393465 -0.64168727
-1.4409062 3.7611368 -0.64390391
-1.4209287 3.7782252 -0.64532888
-1.3912243 3.7692723 -0.64232063
-1.3653811 3.7703106 -0.64105397
-1.3600651 3.8288617 -0.64960378
-1.3222581 3.7961066 -0.64263725
-1.2963887 3.7966728 -0.64137065
-1.2724419 3.8026831 -0.64105397
-1.2278669 3.7456777 -0.63012916
-1.2253796 3.8170717 -0.64089566
-1.1909842 3.7896652 -0.63503742
-1.1650972 3.7884076 -0.63361245
-1.1551965 3.8399255 -0.64105397
-1.1346778 3.8573613 -0.64279562
-1.1128975 3.8708937 -0.64390391
-1.0979341 3.9090199 -0.64912879
-1.0744504 3.9175875 -0.64944547
-1.0480951 3.9155223 -0.64802051
-1.0200598 3.9065936 -0.64548719
-0.99387842 3.9041669 -0.64406222
-0.97180539 3.9178588 -0.64532888
-0.95099235 3.937185 -0.64754552
-0.92342818 3.9285281 -0.64517057
-0.8896271 3.891767 -0.63820404
-0.86594498 3.8981164 -0.63836235
-0.84929526 3.9371381 -0.64390391
-0.82572812 3.9451745 -0.6443789
-0.80523485 3.9685528 -0.64738721
-0.77744293 3.9559793 -0.64453721
-0.75721151 3.9820154 -0.64802051
-0.73508376 3.9992113 -0.65007877
-0.70828903 3.9910078 -0.64802051
-0.67895859 3.9670546 -0.64342892
-0.65235698 3.9575064 -0.64121228
-0.62883466 3.966311 -0.64200395
-0.60968578 4.0042596 -0.64754552
-0.58852637 4.031374 -0.65134543
-0.56432551 4.0388212 -0.65197879
-0.53901088 4.0382929 -0.65134543
-0.51397312 4.0395651 -0.65102881
-0.49000698 4.0495048 -0.6521371
-0.46323738 4.035759 -0.64944547
-0.44038296 4.0561943 -0.65229541
-0.41809905 4.0843587 -0.65641201
-0.39180204 4.07407 -0.65435374
-0.36299425 4.0341105 -0.64754552
-0.33592761 4.0087113 -0.64311224
-0.31147701 4.0126657 -0.64342892
-0.28909987 4.0460181 -0.6484955
-0.26304743 4.028995 -0.64548719
-0.23808816 4.0265903 -0.64485389
-0.21348132 4.0299478 -0.64517057
-0.18870389 4.0301957 -0.6450122
-0.16469273 4.0490355 -0.6478622
-0.14038941 4.0657587 -0.65039545
-0.11521608 4.0586476 -0.64912879
-0.090420023 4.0642138 -0.64992046
-0.065655045 4.0755525 -0.65166211
-0.040627126 4.0739036 -0.65134543
-0.015584637 4.0622277 -0.64944547
0.0094039766 4.0889063 -0.65372038
0.034543198 4.094696 -0.65467036
0.059233673 4.0647883 -0.64992046
0.085034885 4.1058092 -0.65657037
0.11070418 4.1229768 -0.65942031
0.13952301 4.2287993 -0.67651999
0.166628 4.257463 -0.68126988
0.18943843 4.1833687 -0.66955346
0.21292008 4.1397262 -0.66274524
0.23621435 4.1018691 -0.65688699
0.25936651 4.06881 -0.65182042
0.28157061 4.0277429 -0.64548719
0.30403021 3.9964032 -0.6407373
0.32643992 3.9688771 -0.6366207
0.34643444 3.9176223 -0.62870419
0.36544013 3.8623412 -0.62015438
0.3848708 3.8177834 -0.61334616
0.40629163 3.7966962 -0.61033785
0.42746821 3.7754905 -0.60732961
0.44453347 3.7218153 -0.59909642
0.46415904 3.6935461 -0.59497982
0.48345453 3.6651771 -0.59086323
0.4983637 3.6073692 -0.58199674
0.5173825 3.5827439 -0.57851344
0.53582358 3.5560694 -0.57471353
0.55227202 3.5185745 -0.56917197
0.56700748 3.4732172 -0.56236374
0.58583111 3.4550705 -0.5599888
0.60513788 3.4407139 -0.55824715
0.62198871 3.4136229 -0.55444723
0.63651681 3.3757827 -0.54890567
0.65268284 3.3485544 -0.54510576
0.66756439 3.3164155 -0.54051417
0.68267882 3.2871218 -0.53639758
0.6974591 3.2577684 -0.53228098
0.71275586 3.2322149 -0.52879775
0.72951436 3.2143004 -0.52658111
0.74428385 3.1886103 -0.52309781
0.75807452 3.1599803 -0.51913959
0.77390498 3.1408889 -0.51676458
0.79292041 3.135124 -0.51660627
0.81288642 3.1330669 -0.51708126
0.83438039 3.1366076 -0.51850623
0.8569873 3.1438129 -0.52056456
0.881042 3.1556134 -0.52341449
0.90635926 3.1710336 -0.52689773
0.93023515 3.1805751 -0.52943105
0.95284694 3.1852129 -0.53117269
0.97699475 3.1944134 -0.53370595
1.0021751 3.206264 -0.53671426
1.0275375 3.2179253 -0.5397225
1.0533867 3.2303343 -0.54288912
1.0809861 3.2472303 -0.5468474
1.1094679 3.2657783 -0.55112231
1.1359537 3.2775679 -0.55428892
1.1672333 3.302187 -0.55967212
1.1981879 3.324687 -0.56473869
1.2257165 3.3367355 -0.56806368
1.2534375 3.3485703 -0.5713886
1.2802942 3.3574226 -0.57423854
1.3065913 3.3642297 -0.57677186
1.337378 3.3818581 -0.58120507
1.3651108 3.390991 -0.58421338
1.3971241 3.4099605 -0.58896327
1.4279011 3.4250183 -0.59307986
1.4585296 3.4389169 -0.59703809
1.4925113 3.4598205 -0.60226303
1.5248204 3.4759147 -0.60669625
1.5585897 3.4944468 -0.61160451
1.5893809 3.5055001 -0.61524612
1.6232592 3.5225837 -0.61999601
1.6582441 3.5411708 -0.62506258
1.6977605 3.5683761 -0.6317125
1.7368128 3.5934503 -0.63804567
1.7749307 3.6155195 -0.64390391
1.8125031 3.6354873 -0.64944547
1.8472644 3.6489632 -0.65387875
1.8813561 3.6603918 -0.65799534
1.922966 3.6855445 -0.6646452
1.9330655 3.6501172 -0.66037029
1.9423356 3.6138361 -0.65593702
1.9559623 3.5862474 -0.65308708
1.9717143 3.5629478 -0.65102881
2.0003071 3.5628359 -0.65324539
2.0363033 3.575376 -0.65783697
2.0774677 3.5961568 -0.6640119
2.1109757 3.6029356 -0.6676535
2.1506977 3.6196239 -0.67319506
2.201915 3.6545646 -0.68221986
2.2423155 3.670475 -0.68776143
2.3282294 3.759053 -0.70707774
2.3685789 3.7722905 -0.71230263
2.3842578 3.7460248 -0.71008605
2.4114804 3.7379625 -0.71135265
2.408972 3.6842558 -0.70391113
2.4249873 3.6595287 -0.70201117
2.4380376 3.6306458 -0.69931954
2.4458256 3.5943942 -0.69520295
2.4661524 3.5768807 -0.69472796
2.4880533 3.5616813 -0.69472796
2.4910359 3.519752 -0.68950307
2.4907212 3.4739096 -0.68348652
2.5108292 3.4569638 -0.68316984
2.5407715 3.4534218 -0.68554479
2.5760746 3.4567673 -0.68934476
2.612704 3.461385 -0.69346136
2.6356926 3.4476418 -0.69393635
2.6749332 3.4548254 -0.69868624
2.711314 3.4577713 -0.70264447
2.7533576 3.4673591 -0.70802772
2.8104711 3.4950264 -0.71721089
2.8412161 3.4892004 -0.71958584
2.8719947 3.4831278 -0.72196078
2.8876171 3.4586189 -0.72053581
2.9610589 3.5026646 -0.7335189
2.9837792 3.4859302 -0.73383558
3.0316269 3.4981477 -0.74032712
3.0347986 3.4587002 -0.73589385
3.0782611 3.4651105 -0.7412771
3.1192744 3.4681807 -0.74602699
3.1591108 3.4694169 -0.75046027
3.1783314 3.4477899 -0.74998528
3.1920159 3.4202828 -0.74824363
3.2136204 3.4013503 -0.748402
3.2590013 3.407254 -0.75410187
3.2777858 3.3850651 -0.75362688
3.2936559 3.3599539 -0.75251859
3.3121235 3.3375785 -0.7520436
3.391326 3.3757021 -0.76534331
3.4267614 3.3693664 -0.76866829
3.3956625 3.2980604 -0.75711012
3.3481443 3.2122269 -0.74206877
0.69156814 0.65566885 -0.15086307
0.70711213 0.66220897 -0.15339635
0.73436201 0.67930752 -0.15846291
0.73414177 0.67079371 -0.15751293
0.74117649 0.66892195 -0.15814626
0.74674141 0.66567522 -0.15846291
0.74488199 0.65586227 -0.15719627
0.74814707 0.65063167 -0.15703794
0.74987763 0.64409941 -0.15656295
0.75155628 0.63757044 -0.15608796
0.75772524 0.63484871 -0.15656295
0.76008457 0.6289289 -0.15624629
0.76545876 0.62550253 -0.15656295
0.7692824 0.62079394 -0.15656295
0.77771103 0.61975294 -0.15751293
0.78382748 0.61680061 -0.15798792
0.79461581 0.61743015 -0.15941291
0.80074 0.61434537 -0.15988789
0.8060689 0.61061257 -0.16020456
0.82166314 0.61452276 -0.16257951
0.83336294 0.61533266 -0.16416281
0.8379209 0.61078912 -0.16432114
0.84726405 0.60967183 -0.16542946
0.84132749 0.59760261 -0.16352949
0.78999281 0.55389774 -0.15276302
4.0213709 2.7816575 -0.78212637
4.0310235 2.7519205 -0.7807014
4.0199904 2.7083783 -0.77531815
4.0554452 2.6962335 -0.77895975
4.050447 2.6572182 -0.77484316
4.0799375 2.6408989 -0.77737641
4.0777564 2.6041245 -0.77389318
4.128747 2.6011584 -0.78054303
4.0926332 2.5434654 -0.77072656
4.0921674 2.5085018 -0.76771826
4.006084 2.4220483 -0.74871862
0.88881505 0.53018022 -0.16400449
0.88439077 0.52021295 -0.16257951
0.89012879 0.51626217 -0.1630545
0.88813615 0.50785118 -0.16210452
0.89123559 0.50239211 -0.16210452
0.88912213 0.49403796 -0.16115454
0.89733356 0.49141744 -0.16210452
0.88990355 0.48027745 -0.16020456
0.89108992 0.47388127 -0.15988789
0.88610834 0.46428242 -0.15846291
0.87928778 0.45385739 -0.15672128
0.87589413 0.44532278 -0.15561298
0.8803761 0.4408237 -0.15592964
0.87775016 0.43279496 -0.15497965
0.87417078 0.42438415 -0.15387134
0.88032222 0.42071444 -0.15450466
0.87841922 0.4132047 -0.153713
0.88362646 0.40905073 -0.15418799
0.88791704 0.4044393 -0.15450466
0.88137031 0.39494821 -0.15292135
0.88558435 0.39032876 -0.15323801
0.89702314 0.38881204 -0.15482132
0.89212447 0.38020566 -0.15355468
0.89170814 0.37358063 -0.15307969
0.89672297 0.36922929 -0.15355468
0.89439464 0.36186969 -0.15276302
0.87457442 0.34762776 -0.14896309
0.75618714 0.29524824 -0.12822181
0.8105849 0.30505973 -0.13692999
4.5696173 1.6865716 -0.77911806
4.5854506 1.6605181 -0.78006804
4.5843873 1.6283857 -0.77816808
4.5765762 1.5940559 -0.77515984
4.5731888 1.5614785 -0.7729432
4.580811 1.5327621 -0.77262652
4.594821 1.5061635 -0.77341819
4.6049166 1.4782436 -0.7735765
4.6214361 1.4523282 -0.77484316
4.627429 1.4230738 -0.77436817
4.6294546 1.3926629 -0.77325988
4.6199145 1.3589377 -0.77025157
4.6215234 1.3286555 -0.76914328
4.6581073 1.3082814 -0.77389318
4.6536679 1.2762809 -0.77183485
4.6804881 1.2528077 -0.77500147
4.6947746 1.225811 -0.77610981
4.6849837 1.1925977 -0.77325988
4.7008386 1.1659676 -0.77468485
4.6743112 1.1289899 -0.76914328
4.670577 1.0978031 -0.76740164
4.6781878 1.0693443 -0.76755995
4.7029753 1.0446866 -0.77056825
4.7228098 1.0187238 -0.77278483
4.7009439 0.98386186 -0.7681933
4.699151 0.95342863 -0.76692665
4.7136326 0.92629027 -0.76835161
4.7250476 0.89845693 -0.76930159
4.7149334 0.86659259 -0.76676828
4.7026625 0.83454144 -0.76391834
4.7028284 0.80483824 -0.76312673
4.6940384 0.77371961 -0.76091009
4.7211275 0.74845767 -0.7645517
4.7392974 0.72155517 -0.76676828
4.6967373 0.68561834 -0.75916845
4.7409501 0.6623863 -0.76565999
4.7821159 0.6382457 -0.77167654
4.805532 0.61138242 -0.77484316
4.7337146 0.57275623 -0.76265174
4.7400823 0.54403758 -0.76312673
4.737442 0.51430362 -0.76217669
4.7061291 0.48170847 -0.75663513
4.7846761 0.46009654 -0.7688266
4.8110113 0.43285188 -0.77262652
4.7879939 0.40118176 -0.76850992
4.7903652 0.37179562 -0.76850992
4.7886176 0.34211427 -0.76787663
4.7925968 0.31285393 -0.7681933
4.8121681 0.28448918 -0.77104324
4.7941031 0.25391352 -0.76787663
4.785708 0.22403148 -0.76629329
4.7820597 0.19446237 -0.76550168
4.7456641 0.16382408 -0.75948513
4.7811246 0.13568063 -0.76502669
4.7700214 0.10607884 -0.76312673
4.7429395 0.076364942 -0.75869346
4.7136984 0.046967827 -0.75394356
4.7010617 0.017995786 -0.75188524
4.5545888 0.011889908 -0.81977284
4.552608 -0.016050084 -0.81941766
4.4992847 -0.043478005 -0.80982727
4.4881096 -0.070914768 -0.80787367
4.4816871 -0.098323278 -0.80680805
4.4839501 -0.125903 -0.80734086
4.4152298 -0.15110083 -0.79508644
4.3817701 -0.17688408 -0.78922564
4.3668394 -0.20312861 -0.78673923
4.3812346 -0.23074506 -0.78958082
4.3758073 -0.25739288 -0.78887045
4.362361 -0.28347343 -0.78673923
4.3409066 -0.30884111 -0.78318721
4.3104758 -0.33327475 -0.77803683
4.30933 -0.35979879 -0.77821445
4.325665 -0.38790089 -0.78158885
4.2977333 -0.41199744 -0.77697122
4.2706485 -0.4358657 -0.77253121
4.2561526 -0.46079233 -0.77040005
4.277689 -0.48969346 -0.77484006
4.2746038 -0.51593167 -0.77484006
4.2401161 -0.53818971 -0.76915681
4.2260036 -0.56276911 -0.76720321
4.2799778 -0.59669757 -0.77768165
4.2499423 -0.61912137 -0.77288646
4.2188206 -0.64105141 -0.76791364
4.2313323 -0.66953778 -0.77093285
4.2222891 -0.69469005 -0.77004486
4.2266779 -0.72207463 -0.77164322
4.2047248 -0.74490798 -0.76844645
4.1671638 -0.76465964 -0.76240802
4.1140509 -0.78104424 -0.75352806
4.1507068 -0.81441426 -0.76116484
4.1408086 -0.83889091 -0.76027685
4.1153536 -0.86005801 -0.75654721
4.0994163 -0.88301533 -0.75459361
4.0737448 -0.90367967 -0.75086403
4.0335827 -0.92077941 -0.74447042
4.0173178 -0.94303942 -0.74251682
4.0143261 -0.96836334 -0.74304962
4.0302796 -0.99841589 -0.74713445
1.2790555 -0.32564491 -0.23600151
1.2770333 -0.33348691 -0.23600151
1.2816182 -0.34309462 -0.23724471
1.2737939 -0.34939283 -0.23617911
1.2678359 -0.35613936 -0.2354687
1.2618432 -0.36282599 -0.2347583
1.2492067 -0.36751148 -0.2328047
1.2346755 -0.3714895 -0.2304959
1.2229654 -0.37616974 -0.22871991
1.2253289 -0.38513976 -0.22960791
1.2116971 -0.38904643 -0.2274767
1.2148987 -0.39831069 -0.22854231
1.2170988 -0.40731698 -0.2294303
1.2294799 -0.41985855 -0.23227191
1.2491882 -0.43515351 -0.23653431
1.249277 -0.44379714 -0.2370671
1.2604121 -0.45647427 -0.2397311
1.2437369 -0.45909432 -0.2370671
3.6831868 -1.3839687 -0.70788485
3.6948464 -1.4142785 -0.71179205
3.6686769 -1.4301348 -0.70841759
3.6470261 -1.4475378 -0.70593125
3.6326005 -1.4676772 -0.70486563
3.6271675 -1.4914352 -0.705576
3.6288431 -1.5182191 -0.70770723
3.5560694 -1.5134898 -0.69527525
1.108119 -0.48014802 -0.21575511
1.0943428 -0.48218235 -0.2136239
1.0913637 -0.48888806 -0.2136239
1.09551 -0.4988341 -0.21504471
1.0808153 -0.50017977 -0.21273591
1.0750537 -0.50554717 -0.2122031
1.0639378 -0.50832015 -0.2106047
1.0590277 -0.51398033 -0.2102495
1.0593857 -0.52220726 -0.2109599
1.0464789 -0.52385724 -0.20900629
1.0458775 -0.53160477 -0.2095391
1.0417211 -0.5375613 -0.20936151
1.044507 -0.54713631 -0.2106047
1.0567753 -0.5618422 -0.2138015
1.055907 -0.56971639 -0.21433431
1.0549817 -0.57760108 -0.2148671
1.0574415 -0.5874055 -0.2161103
1.0555325 -0.59484816 -0.2164655
1.0569903 -0.60424137 -0.2175311
1.0558176 -0.61219519 -0.21806391
3.2217963 -1.8930974 -0.67218721
3.1779914 -1.8936933 -0.66543841
3.1671543 -1.9136664 -0.66561604
3.1612275 -1.9366611 -0.66685921
3.162662 -1.964327 -0.6697008
3.1513822 -1.9842199 -0.66987842
3.123385 -1.9934623 -0.66650403
3.1003516 -2.0056427 -0.66419524
3.09951 -2.0321805 -0.66668159
3.0959997 -2.0571496 -0.66863519
3.0539289 -2.0563254 -0.66224164
3.0119855 -2.055063 -0.65584803
2.9896042 -2.0667918 -0.6537168
2.9905708 -2.0946922 -0.65673602
2.9832802 -2.1169882 -0.65797919
2.9702346 -2.1352534 -0.65797919
2.9523032 -2.1499634 -0.65691364
2.9287591 -2.160445 -0.65460479
2.9209669 -2.1824973 -0.65584803
2.8973176 -2.1926603 -0.65353918
2.8806846 -2.2080026 -0.65282881
2.8577528 -2.2183967 -0.65069759
2.8386707 -2.2316334 -0.64945441
2.8218443 -2.2465577 -0.64874399
2.8202662 -2.2737103 -0.65158558
2.8077867 -2.2922168 -0.65194082
2.7724283 -2.2918494 -0.64696801
2.7454829 -2.2980814 -0.64394879
2.7223201 -2.3072505 -0.64181763
2.7178221 -2.3322403 -0.64412642
2.7019746 -2.3475821 -0.64377123
2.6749558 -2.3530695 -0.64075202
2.6567924 -2.3661664 -0.63986403
2.6531887 -2.3923068 -0.642528
2.6420946 -2.4118583 -0.64341599
2.6229086 -2.4240177 -0.64235038
2.5878613 -2.4212439 -0.63737762
2.5808167 -2.4445198 -0.63933122
2.5764253 -2.4705241 -0.64199519
2.5569806 -2.4821744 -0.64092958
2.5311718 -2.4874721 -0.63826561
2.497719 -2.4849133 -0.63364798
2.499069 -2.5169497 -0.63791043
2.4828889 -2.531534 -0.6377328
2.4768975 -2.5566144 -0.64021921
2.4632053 -2.5738969 -0.64075202
2.4426327 -2.583957 -0.63950878
2.4059074 -2.5766022 -0.63400322
2.3947237 -2.5963788 -0.6352464
2.3807361 -2.6132057 -0.6357792
2.3620234 -2.6248388 -0.63506877
2.3439114 -2.6370764 -0.63453603
2.3380768 -2.6632395 -0.63737762
2.3242707 -2.6805091 -0.63808799
2.2936938 -2.6782787 -0.63418078
2.2886591 -2.7058249 -0.63737762
2.2814789 -2.731144 -0.64004159
2.2546556 -2.7329473 -0.6372
2.2216792 -2.7268965 -0.63258243
2.1962671 -2.7297442 -0.63009602
2.1953967 -2.7631996 -0.63471359
2.1753628 -2.7727475 -0.6338256
2.1709678 -2.8023782 -0.63755518
2.1483493 -2.8086123 -0.63595682
2.1435335 -2.8382306 -0.63968641
2.1160753 -2.8379197 -0.63666719
2.0711956 -2.8136065 -0.62831998
2.0793543 -2.8612854 -0.63613439
2.0720866 -2.8883817 -0.63933122
2.0372589 -2.8769507 -0.63400322
2.0128007 -2.8797188 -0.631872
1.9973291 -2.8952549 -0.63258243
1.9922683 -2.9261627 -0.63666719
1.9797662 -2.9464996 -0.63844323
1.9649132 -2.9635124 -0.63950878
1.9353751 -2.9582212 -0.6357792
1.9134504 -2.9642537 -0.63453603
1.8783053 -2.9493797 -0.62885278
1.8690752 -2.9750135 -0.631872
1.8269323 -2.9479516 -0.62370241
1.8401277 -3.0103192 -0.63453603
1.8134902 -3.0080702 -0.63169438
1.804557 -3.0352113 -0.63506877
1.7744485 -3.0267026 -0.63098401
1.7691451 -3.060535 -0.6357792
1.7454586 -3.0627835 -0.63400322
1.7198825 -3.0614254 -0.63151681
1.7010657 -3.0719206 -0.63151681
1.6487014 -3.0209744 -0.61890721
1.6478529 -3.0639656 -0.62565601
1.6230292 -3.0627158 -0.62334722
1.6087624 -3.0813398 -0.6251232
1.5988305 -3.108654 -0.62867522
1.5712733 -3.1017275 -0.62530082
1.5447407 -3.0963416 -0.62228161
1.5291854 -3.1128271 -0.62370241
1.5246305 -3.1522701 -0.62974077
1.4959495 -3.1420197 -0.62583363
1.4762244 -3.1502485 -0.62565601
1.4543936 -3.1538856 -0.6245904
1.4333872 -3.1591659 -0.62388003
1.4107658 -3.1607127 -0.62245917
1.4008435 -3.1909342 -0.62672162
1.3785064 -3.1931455 -0.62547839
1.3581183 -3.1997321 -0.6251232
1.3395969 -3.2107296 -0.62565601
1.320618 -3.2207098 -0.62601119
1.2978879 -3.2214503 -0.6245904
1.2748362 -3.2211185 -0.62299198
1.2603981 -3.2426379 -0.62565601
1.2429354 -3.2567458 -0.62689918
1.2274194 -3.2762907 -0.62920803
1.2059343 -3.2800658 -0.6284976
1.1867878 -3.2901804 -0.62903041
1.1672341 -3.2992558 -0.62938559
1.1411597 -3.2896216 -0.62618881
1.1219044 -3.2993567 -0.62672162
1.1047515 -3.3155141 -0.6284976
1.0853037 -3.3250368 -0.62903041
1.067879 -3.3410068 -0.63080639
1.0520632 -3.3625228 -0.63364798
1.025358 -3.3491549 -0.6299184
1.0078959 -3.3657529 -0.631872
0.97283721 -3.3227649 -0.6226368
0.96543354 -3.3740838 -0.63116163
0.9356997 -3.3477211 -0.6251232
0.91306674 -3.3458047 -0.62370241
0.8889721 -3.3380315 -0.621216
0.87070191 -3.3519955 -0.62281442
0.85229373 -3.3658602 -0.62441278
0.83091748 -3.3681602 -0.62388003
0.81460553 -3.3913753 -0.62725443
0.78593618 -3.3627715 -0.62103838
0.77620065 -3.4155102 -0.6299184
0.75586593 -3.4230914 -0.6304512
0.73216397 -3.4151564 -0.62814242
0.7063818 -3.3964617 -0.62388003
0.68825322 -3.4142375 -0.62636638
0.6620068 -3.3913524 -0.62139362
0.64392716 -3.4098556 -0.62405759
0.62546849 -3.4272954 -0.626544
0.60545272 -3.4368837 -0.62760961
0.58666241 -3.4541166 -0.63009602
0.56625235 -3.462507 -0.63098401
0.54208833 -3.4474459 -0.62760961
0.52063084 -3.448761 -0.62725443
0.49804887 -3.4421513 -0.62547839
0.47421643 -3.4256468 -0.62192643
0.45602912 -3.449955 -0.62583363
0.43583724 -3.460499 -0.62725443
0.41471294 -3.4640856 -0.62743199
0.39400572 -3.4714539 -0.62831998
0.372803 -3.4747844 -0.6284976
0.35266492 -3.4887555 -0.63062882
0.33264881 -3.5055492 -0.63329279
0.30363986 -3.423224 -0.61801922
0.28644189 -3.4711182 -0.62636638
0.2653634 -3.4757538 -0.62689918
0.24002549 -3.4203794 -0.61659843
0.21556641 -3.3677733 -0.60683042
0.19501211 -3.3709974 -0.6071856
0.17661892 -3.4163561 -0.61517757
0.15574314 -3.4193413 -0.61553282
0.1353434 -3.4349828 -0.61819679
0.11409974 -3.430831 -0.6173088
0.092697285 -3.4186776 -0.61500001
0.071531564 -3.410327 -0.61340159
0.050590061 -3.409718 -0.61322397
0.029492605 -3.3902829 -0.60967201
0.0087491814 -3.41205 -0.61357921
-0.012253593 -3.4317217 -0.61713117
-0.033263154 -3.4266615 -0.61624318
-0.053795025 -3.3949053 -0.61056
-0.074045703 -3.3679471 -0.60576481
-0.093967602 -3.3408687 -0.60096961
-0.11453205 -3.3421965 -0.6013248
-0.13570963 -3.3581469 -0.60434401
-0.15704164 -3.3729796 -0.6071856
-0.17628963 -3.3444355 -0.60221279
-0.19623093 -3.333467 -0.60043681
-0.21827282 -3.3567512 -0.60487682
-0.23984112 -3.3690915 -0.60736322
-0.258616 -3.3430269 -0.60292321
-0.27830616 -3.3315699 -0.60114717
-0.29926959 -3.335681 -0.60221279
-0.31916869 -3.327904 -0.60114717
-0.33988166 -3.32882 -0.60167998
-0.36379129 -3.358959 -0.60754079
-0.3838357 -3.3517752 -0.6066528
-0.40192121 -3.3288393 -0.60292321
-0.42555708 -3.3516939 -0.60754079
-0.44572541 -3.3460929 -0.60700798
-0.46095425 -3.3052819 -0.60008162
-0.48335224 -3.3169992 -0.60274559
-0.49660656 -3.2672689 -0.59422082
-0.51848876 -3.2758248 -0.59635198
-0.53554624 -3.2541313 -0.59297758
-0.55533755 -3.249814 -0.59280002
-0.5754391 -3.2473142 -0.59297758
-0.59393364 -3.2359786 -0.59155679
-0.60919291 -3.2081017 -0.58711678
-0.6307593 -3.2139606 -0.58889282
-0.6498822 -3.2071362 -0.58836001
-0.66713446 -3.1915286 -0.58622879
-0.68339151 -3.1719818 -0.5833872
-0.69623929 -3.1379447 -0.57788157
-0.71504247 -3.1316946 -0.57752639
-0.737616 -3.1416197 -0.58019042
-0.75757062 -3.1399047 -0.58072317
-0.78439021 -3.1657658 -0.58640641
-0.80549669 -3.1675696 -0.58764958
-0.82367641 -3.1578062 -0.58676159
-0.83973432 -3.1403329 -0.58445281
-0.85716826 -3.1284771 -0.58320957
-0.87900484 -3.1326344 -0.58498561
-0.90825504 -3.1621809 -0.59155679
-0.91294432 -3.1065042 -0.58214396
-0.93453592 -3.1093266 -0.58374238
-0.95937395 -3.122349 -0.5872944
-0.97615731 -3.1088917 -0.5858736
-0.99341244 -3.0972209 -0.58480799
-1.0078061 -3.0770378 -0.58214396
-1.0285386 -3.0763965 -0.58320957
-1.038821 -3.0448785 -0.57841438
-1.0597475 -3.0449533 -0.57965761
-1.0747921 -3.0281913 -0.57770401
-1.0913445 -3.0159867 -0.5766384
-1.107107 -3.0018466 -0.5752176
-1.1203151 -2.981178 -0.57255358
-1.1396412 -2.9770052 -0.57308638
-1.1589581 -2.9727073 -0.57361919
-1.1829829 -2.980176 -0.57646078
-1.2078798 -2.9892862 -0.57965761
-1.214976 -2.9545119 -0.57432961
-1.2167555 -2.9079611 -0.56669277
-1.2615423 -2.96383 -0.57912481
-1.2793136 -2.9551303 -0.57894719
-1.3005924 -2.9544313 -0.58036798
-1.3050333 -2.9158525 -0.57432961
-1.313531 -2.8871856 -0.57024479
-1.3171853 -2.8486986 -0.56420636
-1.3471891 -2.8672862 -0.56953436
-1.3791652 -2.8891644 -0.57557279
-1.3994421 -2.8859611 -0.5766384
-1.4149505 -2.8729053 -0.57575041
-1.4193503 -2.8377621 -0.57042241
-1.4371812 -2.8298774 -0.57059997
-1.4829192 -2.8761163 -0.58178878
-1.4873098 -2.8416753 -0.5766384
-1.4936416 -2.8116357 -0.57237601
-1.5127327 -2.8058834 -0.57308638
-1.5379473 -2.8112271 -0.57610559
-1.5561227 -2.8034585 -0.57646078
-1.5626755 -2.7749908 -0.57255358
-1.5767453 -2.7602224 -0.57148796
-1.5847746 -2.7351668 -0.56829119
-1.6030226 -2.7279372 -0.56882399
-1.6061333 -2.6952219 -0.5640288
-1.6424834 -2.7181687 -0.57095522
-1.6683818 -2.7231457 -0.57415199
-1.676754 -2.6994805 -0.5713104
-1.6812294 -2.6699851 -0.56722558
-1.6970512 -2.6587896 -0.56704801
-1.717074 -2.6541111 -0.56829119
-1.7338665 -2.6443484 -0.56846881
-1.7516927 -2.6361191 -0.56900162
-1.7546464 -2.6057279 -0.56473917
-1.7983271 -2.6355629 -0.57361919
-1.8105483 -2.6188118 -0.57237601
-1.8305341 -2.6132963 -0.57361919
-1.8510895 -2.6084363 -0.57503998
-1.8544252 -2.579448 -0.57113278
-1.8609507 -2.5552909 -0.56829119
-1.8958684 -2.5699618 -0.57415199
-1.909835 -2.5559151 -0.57361919
-1.9272631 -2.5465031 -0.57415199
-1.9051442 -2.4854164 -0.56296319
-1.9565575 -2.5203285 -0.57361919
-1.9695529 -2.5051806 -0.57290876
-1.9855001 -2.4938185 -0.57308638
-1.9933541 -2.472394 -0.57095522
-2.0066204 -2.457829 -0.57042241
-2.029186 -2.4545736 -0.57255358
-2.0536816 -2.4533978 -0.5752176
-2.0515211 -2.4204774 -0.57042241
-2.0791488 -2.4227827 -0.57397437
-2.0707445 -2.3832319 -0.56758076
-2.0827293 -2.3675251 -0.56687039
-2.0802031 -2.3355908 -0.56225276
-2.1228266 -2.3542154 -0.56988961
-2.1485088 -2.3535035 -0.57290876
-2.1635768 -2.3409989 -0.57308638
-2.1402559 -2.2874305 -0.56314081
-2.165077 -2.2856884 -0.5659824
-2.2151532 -2.3100135 -0.57539517
-2.2039282 -2.2702475 -0.56882399
-2.2171271 -2.2559795 -0.56864637
-2.2392552 -2.2507064 -0.5707776
-2.255816 -2.2396982 -0.57148796
-2.2456324 -2.2023816 -0.5654496
-2.2216499 -2.1522622 -0.55603677
-2.2461879 -2.1494784 -0.55887836
-2.2543292 -2.1309226 -0.55763519
-2.3141077 -2.1607146 -0.56917918
-2.3504665 -2.1678295 -0.57486236
-2.3535409 -2.1440861 -0.57237601
-2.3666525 -2.1296048 -0.57237601
-2.3414326 -2.0810399 -0.56314081
-2.3578546 -2.069881 -0.5640288
-2.3898392 -2.0721402 -0.56864637
-2.409982 -2.0638399 -0.57042241
-2.3820322 -2.0146878 -0.56083196
-2.4139831 -2.0164411 -0.5654496
-2.4407313 -2.0134928 -0.56882399
-2.4553285 -2.000344 -0.5693568
-2.4614229 -1.9803045 -0.567936
-2.4542675 -1.9498563 -0.56349599
-2.4685078 -1.9365833 -0.5640288
-2.4725654 -1.9153721 -0.56225276
-2.4889607 -1.9037527 -0.56331837
-2.5084469 -1.8943774 -0.56509441
-2.5074022 -1.8695357 -0.56225276
-2.5045626 -1.8436115 -0.55905598
-2.4951322 -1.8131635 -0.55443841
-2.5046115 -1.796672 -0.55408317
-2.5308461 -1.7920785 -0.55745757
-2.532923 -1.7703127 -0.55550396
-2.5728958 -1.7748604 -0.56189758
-2.595938 -1.7673498 -0.56456161
-2.6100004 -1.7535841 -0.56527197
-2.602669 -1.7255692 -0.56136477
-2.6214421 -1.7149563 -0.56314081
-2.5980203 -1.6769509 -0.55585921
-2.6215405 -1.6694387 -0.5587008
-2.6292348 -1.6517507 -0.55816799
-2.646848 -1.6402539 -0.55976641
-2.6400712 -1.6137142 -0.55621439
-2.7122829 -1.6350949 -0.5693568
-2.6410677 -1.5701272 -0.55230719
-2.7627032 -1.6196113 -0.57575041
-2.7981462 -1.6174086 -0.58107841
-2.7712564 -1.5792502 -0.57344157
-2.7225575 -1.5294296 -0.56136477
-2.7379165 -1.5160336 -0.562608
-2.7635784 -1.5081658 -0.5659824
-2.7883797 -1.4995737 -0.56917918
-2.8140481 -1.4911945 -0.57255358
-2.8100607 -1.4670656 -0.56988961
-2.8146343 -1.4475445 -0.56900162
-2.8111739 -1.4240186 -0.56651521
-2.8022485 -1.397953 -0.56296319
-2.8196051 -1.3850732 -0.56473917
-2.8342519 -1.3707469 -0.5659824
-2.826617 -1.3457128 -0.56278557
-2.8330388 -1.3275081 -0.56243038
-2.8661511 -1.3216435 -0.5674032
-2.8849599 -1.3089135 -0.56953436
-2.8839512 -1.2871743 -0.56775838
-2.8593581 -1.2552077 -0.56136477
-2.8796542 -1.2431023 -0.56385118
-2.9596922 -1.2561827 -0.5780592
-2.9437323 -1.2281421 -0.57344157
-2.8820176 -1.1816692 -0.55994397
-2.8864756 -1.1628596 -0.55941117
-2.9383903 -1.1628801 -0.56811357
-2.9188719 -1.1344844 -0.56296319
-2.9349716 -1.1200638 -0.56473917
-2.9316525 -1.0982344 -0.56278557
-2.947572 -1.0836231 -0.56456161
-2.9467602 -1.0628442 -0.56314081
-2.9578645 -1.046385 -0.5640288
-2.9725969 -1.0311205 -0.56562716
-2.9695511 -1.0096917 -0.56385118
-2.9775577 -0.99207443 -0.56420636
-2.979847 -0.97256368 -0.56349599
-2.9895079 -0.95546049 -0.56420636
-2.9971924 -0.93768728 -0.56456161
-2.9906573 -0.91553187 -0.56225276
-3.0056455 -0.89998913 -0.5640288
-3.0214996 -0.8845734 -0.5659824
-3.0524147 -0.87333125 -0.5707776
-3.0472908 -0.85166967 -0.56882399
-3.0182831 -0.82362247 -0.56243038
-3.0346909 -0.8081283 -0.56456161
-3.0395923 -0.78949255 -0.56456161
-3.0443792 -0.77082711 -0.56456161
-3.056695 -0.75401968 -0.5659824
-3.0804009 -0.73985034 -0.56953436
-3.0982978 -0.72407335 -0.57202077
-3.1113186 -0.70701325 -0.57361919
-3.1127155 -0.68727213 -0.57308638
-3.120723 -0.66898578 -0.57379681
-3.1160979 -0.64801979 -0.57219839
-3.1190507 -0.62869292 -0.57202077
-3.108362 -0.60671222 -0.5693568
-3.0772152 -0.58104783 -0.56296319
-3.1397753 -0.57294345 -0.57379681
-3.1567998 -0.55606008 -0.57628322
-3.1620927 -0.53700978 -0.5766384
-3.1459048 -0.51441735 -0.57308638
-3.1363642 -0.49311525 -0.5707776
-3.160738 -0.47709715 -0.5746848
-3.1665277 -0.4581176 -0.5752176
-3.1517329 -0.43624732 -0.57202077
-3.1709354 -0.41909575 -0.57503998
-3.1861401 -0.40123233 -0.57734877
-3.2031987 -0.38343233 -0.5800128
-3.2103801 -0.36432645 -0.58090079
-3.2164688 -0.34504169 -0.58161122
-3.1989434 -0.32331631 -0.5780592
-3.1734359 -0.30107391 -0.57308638
-3.1683619 -0.28098652 -0.57184321
-3.2014108 -0.26413611 -0.57752639
-3.1961021 -0.24396199 -0.57628322
-3.1828139 -0.22331043 -0.57361919
-3.1978734 -0.20465949 -0.57610559
-3.1921916 -0.18463472 -0.57486236
-3.2424037 -0.16759379 -0.58374238
-3.2286248 -0.14702125 -0.58107841
-3.2530661 -0.12814222 -0.5853408
-3.2173998 -0.10696241 -0.57876956
-3.2366865 -0.087729044 -0.58214396
-3.2509379 -0.068158925 -0.58463037
-3.287703 -0.048757169 -0.5912016
-3.2928605 -0.028627004 -0.59208959
-3.1758661 -0.0080999359 -0.57095522
-3.2181726 0.011530292 -0.578592
-3.2623236 0.031698126 -0.58658397
-3.2453401 0.051452808 -0.58356482
-3.2528343 0.071536452 -0.58498561
-3.2395456 0.091136836 -0.58267677
-3.171062 0.10869981 -0.57042241
-3.2254004 0.13036999 -0.58036798
-3.1783366 0.14801571 -0.57202077
-3.1803167 0.16766968 -0.57255358
-3.2244191 0.18983229 -0.58072317
-3.1917684 0.20757584 -0.57503998
-3.2041774 0.22813202 -0.57752639
-3.2321529 0.25005975 -0.58285439
-3.2089822 0.26808894 -0.57894719
-3.2366824 0.29040644 -0.58427519
-3.2436562 0.31110477 -0.5858736
-3.2289586 0.32970455 -0.58356482
-3.1926308 0.34580854 -0.57734877
-3.2207589 0.36885688 -0.58285439
-3.22332 0.38920105 -0.58374238
-3.2003691 0.4063724 -0.5800128
-3.2173257 0.42859709 -0.58356482
-3.2468002 0.45280966 -0.58942556
-3.2478561 0.47329003 -0.59013599
-3.2030537 0.48685873 -0.58249921
-3.2262511 0.51065201 -0.5872944
-3.1978092 0.52628809 -0.58267677
-3.1954899 0.54606515 -0.58285439
-3.2066147 0.56823492 -0.58551842
-3.2417862 0.59499848 -0.5926224
-3.2583785 0.61873001 -0.59635198
-3.1917491 0.62640458 -0.58480799
-3.1984553 0.64812487 -0.58676159
-3.1953819 0.66793919 -0.58693922
-3.2046921 0.69043219 -0.58942556
-3.2176895 0.71391642 -0.5926224
-3.2122889 0.73342746 -0.59244478
-3.1923988 0.74952787 -0.58960319
-3.2097435 0.77440637 -0.59368801
-3.1982448 0.792431 -0.59244478
-3.1856918 0.81010133 -0.59102398
-3.2044685 0.83583808 -0.59546399
-3.1812153 0.85065788 -0.59208959
-3.1787834 0.87094104 -0.5926224
-3.1800125 0.89228904 -0.59386557
-3.1546135 0.90608311 -0.59013599
-3.1206677 0.91710371 -0.58480799
-3.1055565 0.93340361 -0.58303201
-3.1007116 0.95273024 -0.58320957
-3.1220374 0.98028207 -0.58836001
-3.1422036 1.0078307 -0.59333277
-3.1294134 1.0249491 -0.59208959
-3.1417332 1.0503687 -0.59564161
-3.1389549 1.0708965 -0.59635198
-3.1323252 1.0901365 -0.59635198
-3.1172297 1.1063747 -0.59475362
-3.0918734 1.1187875 -0.5912016
-3.0904908 1.1397799 -0.59226722
-3.0908093 1.1614894 -0.59368801
-3.0643227 1.1730477 -0.58995837
-3.0625689 1.1939718 -0.59102398
-3.0570147 1.2134665 -0.59137917
-3.057724 1.2355177 -0.59297758
-3.0455341 1.2523859 -0.59208959
-3.0359766 1.2702899 -0.59173441
-3.028125 1.2888944 -0.59173441
-3.0075152 1.3019794 -0.589248
-3.0012712 1.3212012 -0.58960319
-2.9796333 1.3335643 -0.58693922
-2.9982696 1.3640422 -0.59226722
-3.0023501 1.3881934 -0.59475362
-3.0098097 1.4141189 -0.5979504
-2.9930825 1.4287461 -0.59635198
-3.0081699 1.4586731 -0.60114717
-2.9717925 1.4636297 -0.59564161
-2.9609952 1.4809567 -0.59528637
-2.9764233 1.5115694 -0.60025918
-2.9565952 1.5243942 -0.59812802
-2.9175384 1.5269969 -0.59208959
-2.9150674 1.5485619 -0.59351039
-2.9141738 1.5710877 -0.59528637
-2.9424706 1.6097136 -0.60310078
-2.912746 1.616757 -0.59901601
-2.8821888 1.6230139 -0.59475362
-2.8619206 1.6348125 -0.5926224
-2.8893061 1.6740428 -0.60043681
-2.8671002 1.6847619 -0.5979504
-2.8347261 1.6892285 -0.59333277
-2.840313 1.7162573 -0.59670717
-2.8179796 1.7264576 -0.59422082
-2.8374317 1.762403 -0.60061437
-2.8240654 1.7782073 -0.60008162
-2.8338425 1.8087347 -0.60452157
-2.8185589 1.8234168 -0.60363358
-2.8237791 1.8514658 -0.6071856
-2.7894127 1.8535117 -0.60221279
-2.7902331 1.878835 -0.60487682
-2.7884083 1.9025741 -0.60700798
-2.7888258 1.9280399 -0.60967201
-2.7648511 1.9366488 -0.60700798
-2.7416785 1.945606 -0.60452157
-2.745672 1.9738777 -0.60807359
-2.7207789 1.9814209 -0.605232
-2.7180746 2.0050864 -0.60736322
-2.7151818 2.0287936 -0.60949439
-2.6854162 2.0323534 -0.60558718
-2.6783636 2.0529823 -0.60683042
-2.6711586 2.0736008 -0.60807359
-2.683919 2.1100183 -0.6139344
-2.6586015 2.1166418 -0.61109281
-2.610317 2.1045084 -0.60292321
-2.6400509 2.1553297 -0.61286879
-2.6229835 2.1683538 -0.6119808
-2.6013272 2.1774604 -0.61002719
-2.600682 2.2041953 -0.61304641
-2.579639 2.2137039 -0.61127043
-2.5712085 2.2340076 -0.6125136
-2.5737107 2.2640393 -0.61642081
-2.5693257 2.2882955 -0.61872959
-2.5355 2.2862277 -0.6139344
-2.5185165 2.299089 -0.61322397
-2.5188189 2.3278549 -0.61677599
-2.4865198 2.3264608 -0.61233598
-2.4536185 2.3240819 -0.60771841
-2.4386015 2.3384123 -0.60754079
-2.4206762 2.3499045 -0.6066528
-2.4139342 2.3722997 -0.6086064
-2.3972394 2.3849847 -0.60807359
-2.3950431 2.4122169 -0.61127043
-2.3788188 2.4254622 -0.61091518
-2.3632066 2.4393063 -0.61073762
-2.343431 2.4487846 -0.60949439
-2.3432372 2.478848 -0.61340159
-2.3252962 2.4903026 -0.61269122
-2.3133087 2.5081398 -0.61357921
-2.2852807 2.508467 -0.61020482
-2.2586529 2.5100081 -0.6071856
-2.2562876 2.5385284 -0.61073762
-2.2510593 2.5641558 -0.61357921
-2.2365732 2.5794065 -0.6139344
-2.2149415 2.5863552 -0.61233598
-2.2098367 2.6126688 -0.61535519
-2.2044916 2.6390164 -0.61837441
-2.1876311 2.6517341 -0.61819679
-2.1856191 2.6826522 -0.62228161
-2.1697345 2.696779 -0.62245917
-2.148248 2.7038784 -0.62103838
-2.1565278 2.748749 -0.62831998
-2.1161113 2.7315929 -0.62139362
-2.091536 2.7343655 -0.61908478
-2.0759056 2.7487178 -0.61944002
-2.0684149 2.774025 -0.62228161
-2.0566068 2.7937958 -0.62388003
-2.0400043 2.8071585 -0.62405759
-2.0296268 2.8292172 -0.62618881
-2.0059714 2.8327842 -0.62423521
-1.9795291 2.8321352 -0.62139362
-1.9688218 2.8539474 -0.62352479
-1.9407476 2.8505201 -0.62015039
-1.9303575 2.8729925 -0.62245917
-1.9317315 2.9134865 -0.62867522
-1.9159739 2.9285781 -0.62938559
-1.892096 2.9311852 -0.62743199
-1.8767189 2.9468896 -0.62831998
-1.8586017 2.9583495 -0.62831998
-1.838859 2.9671886 -0.62778717
-1.8278059 2.9901698 -0.63027358
-1.8068829 2.9971151 -0.62938559
-1.7799066 2.993767 -0.62636638
-1.7465678 2.9791658 -0.62103838
-1.7331816 2.9983454 -0.62281442
-1.7269368 3.0302966 -0.62725443
-1.7203647 3.0622833 -0.63169438
-1.7134646 3.0943024 -0.63613439
-1.6935029 3.1030302 -0.6357792
-1.6734986 3.11163 -0.63542402
-1.6534526 3.1201005 -0.63506877
-1.6374663 3.1362934 -0.63631201
-1.6289977 3.1672831 -0.6405744
-1.6095328 3.1772187 -0.6405744
-1.5860522 3.1791103 -0.63897598
-1.5760652 3.2082124 -0.64288318
-1.5554931 3.2160509 -0.642528
-1.5259969 3.2051003 -0.63844323
-1.5046309 3.210839 -0.6377328
-1.4927344 3.2369888 -0.6411072
-1.4675565 3.2344379 -0.63879842
-1.4404598 3.2272074 -0.63560158
-1.4273586 3.2513027 -0.63862079
-1.4112843 3.2690339 -0.64039683
-1.3996619 3.2975595 -0.64430398
-1.3737158 3.2924633 -0.64164001
-1.3706695 3.3427117 -0.6498096
-1.3420389 3.3309789 -0.6459024
-1.3190389 3.3327458 -0.64465922
-1.3021317 3.3499482 -0.6464352
-1.2878714 3.3744233 -0.64963204
-1.2678328 3.3841052 -0.64998722
-1.2541792 3.411216 -0.6537168
-1.2348953 3.4234757 -0.65460479
-1.2201055 3.4486146 -0.65797919
-1.1985995 3.4551065 -0.65780163
-1.171988 3.446558 -0.65478241
-1.1467719 3.4415476 -0.65247363
-1.121356 3.4354227 -0.64998722
-1.0918616 3.4159932 -0.64501441
-1.072939 3.4292026 -0.64625758
-1.0501481 3.4300756 -0.64519203
-1.0316242 3.4449389 -0.64679039
-1.0096369 3.4483707 -0.64625758
-0.98764646 3.4516628 -0.64572483
-0.97413611 3.4851418 -0.65087521
-0.95402962 3.4958003 -0.6517632
-0.93687016 3.5177536 -0.65478241
-0.90784031 3.4948626 -0.64945441
-0.89024699 3.5156305 -0.65229601
-0.8705458 3.5286698 -0.6537168
-0.8509481 3.5425565 -0.65531522
-0.82560903 3.5323796 -0.65247363
-0.80086368 3.5239444 -0.64998722
-0.78113735 3.5374403 -0.65158558
-0.76189488 3.5537133 -0.6537168
-0.74549037 3.5843344 -0.658512
-0.71997976 3.5714774 -0.65531522
-0.69861823 3.5787251 -0.65584803
-0.67664635 3.5829446 -0.65584803
-0.6576556 3.6034863 -0.65886718
-0.63348174 3.595824 -0.65673602
-0.61107635 3.597703 -0.65638083
-0.58708173 3.5897305 -0.65424961
-0.56657493 3.6029866 -0.65602559
-0.54460377 3.6073682 -0.65620321
-0.51949608 3.5901895 -0.65247363
-0.49624121 3.5845363 -0.65087521
-0.47682029 3.6070254 -0.65442723
-0.45221606 3.5903559 -0.65087521
-0.43310639 3.617491 -0.65531522
-0.41279146 3.636703 -0.65833443
-0.39278272 3.6606934 -0.66224164
-0.37110695 3.6708672 -0.66366243
-0.34699255 3.6564207 -0.66064322
-0.32768726 3.6937697 -0.66703683
-0.30371875 3.6800189 -0.66419524
-0.28255963 3.7004564 -0.66756964
-0.25895083 3.6893585 -0.66526079
-0.2373172 3.7065914 -0.66810238
-0.21411335 3.7001181 -0.66668159
-0.19115089 3.6964486 -0.6657936
-0.1703995 3.7398238 -0.67343038
-0.14779951 3.749649 -0.6750288
-0.12459196 3.7445843 -0.67396319
-0.1012373 3.7315056 -0.67147684
-0.078589134 3.7438631 -0.67360801
-0.055379234 3.7285314 -0.67076641
-0.032404177 3.7179763 -0.66881281
-0.0097338706 3.770262 -0.67822564
0.013526867 3.8076468 -0.68497443
0.037114806 3.8311093 -0.68923682
0.060189888 3.8032579 -0.684264
0.083096176 3.7831399 -0.68071204
0.10666481 3.795347 -0.68302083
0.13031931 3.8054399 -0.68497443
0.15267777 3.7799859 -0.68053442
0.17709927 3.8055201 -0.68532962
0.20096233 3.8141892 -0.6871056
0.22176793 3.7686758 -0.67911363
0.24622503 3.7878671 -0.68284321
0.26974112 3.7902114 -0.68355364
0.2956425 3.8228266 -0.68976963
0.32130027 3.8474193 -0.69456482
0.34683213 3.8669398 -0.69847202
0.36792722 3.8373094 -0.69349921
0.38897121 3.8105035 -0.6890592
0.40726721 3.7610819 -0.68053442
0.4265365 3.7252696 -0.674496
0.44620627 3.6962023 -0.6697008
0.46838224 3.6894896 -0.66899043
0.48517251 3.6426482 -0.6609984
0.50194871 3.5996401 -0.6537168
0.51977462 3.5672772 -0.6483888
0.53781325 3.5387237 -0.64377123
0.55598211 3.5130005 -0.63968641
0.57481343 3.4930146 -0.63666719
0.58745968 3.4380081 -0.62725443
0.60562789 3.4178653 -0.62423521
0.6201992 3.3792379 -0.6178416
0.63688719 3.3540978 -0.6139344
0.65272218 3.3259838 -0.60949439
0.66843158 3.2987673 -0.605232
0.6856423 3.280154 -0.60256797
0.69933659 3.2460611 -0.59706241
0.71136069 3.2061601 -0.59049118
0.72708029 3.1844647 -0.5872944
0.74121207 3.1569493 -0.58303201
0.75664812 3.1360779 -0.5800128
0.77351159 3.1218235 -0.57823682
0.79144043 3.1122496 -0.57734877
0.8130039 3.1168578 -0.57912481
0.83719397 3.1308255 -0.58267677
0.86106622 3.1427147 -0.5858736
0.88538128 3.155376 -0.589248
0.91287041 3.1782613 -0.594576
0.93568224 3.1839309 -0.59670717
0.95604998 3.1809573 -0.59723997
0.97930521 3.1872611 -0.59954882
1.008566 3.212178 -0.60540962
1.0339638 3.2237346 -0.60878402
1.058929 3.2332294 -0.61180317
1.0862324 3.2490723 -0.61606562
1.1137697 3.2647009 -0.62032801
1.1434792 3.2856901 -0.62565601
1.16954 3.2953067 -0.62885278
1.1954271 3.3038011 -0.631872
1.2218026 3.3130245 -0.63506877
1.250412 3.3275759 -0.63933122
1.2820587 3.3492532 -0.64501441
1.3122319 3.3660815 -0.6498096
1.3430222 3.3835793 -0.65478241
1.3748134 3.4026499 -0.66011041
1.4031478 3.4123545 -0.66366243
1.4335511 3.4263787 -0.66810238
1.4676461 3.4483073 -0.67414081
1.4997191 3.4645262 -0.67911363
1.5300642 3.4759765 -0.68319839
1.558195 3.4817944 -0.68621761
1.5970455 3.5106888 -0.69385439
1.6280519 3.5213697 -0.69793922
1.6529745 3.5184402 -0.69936001
1.6931779 3.5473118 -0.70717442
1.7269298 3.5616519 -0.71214724
1.7591825 3.5721788 -0.71640962
1.8096708 3.6185327 -0.72795361
1.8465391 3.6363189 -0.73381442
1.8778327 3.6424158 -0.73736644
1.9028838 3.6360569 -0.73843205
1.9237739 3.6217051 -0.73789924
1.9375569 3.594239 -0.73470241
1.9487149 3.5624235 -0.73061764
1.9633753 3.5374913 -0.72795361
1.9951808 3.5433872 -0.73168325
2.0432348 3.5772269 -0.74127364
2.0819147 3.5935767 -0.74731201
2.1193757 3.6070402 -0.75281763
2.1399574 3.5914314 -0.75228482
2.1538134 3.5647552 -0.74944323
2.1720481 3.545598 -0.74820006
2.1911671 3.5280235 -0.74731201
2.1980956 3.4911919 -0.74233925
2.1861296 3.4253721 -0.73115045
2.1851964 3.3780124 -0.72386885
2.1756732 3.3184483 -0.71392322
2.1889155 3.2943795 -0.71161443
2.2068903 3.277621 -0.710904
2.2435949 3.2884083 -0.716232
2.2821929 3.3012965 -0.72209281
2.2928109 3.2735267 -0.71907365
2.3213944 3.2714365 -0.72173762
2.3626726 3.2867 -0.7283088
2.3903244 3.2824838 -0.73061764
2.4016595 3.2558746 -0.72795361
2.4363146 3.2607882 -0.73239362
2.4693387 3.2630439 -0.73630083
2.4923065 3.2517369 -0.73718882
2.5182447 3.244158 -0.73896486
2.5630345 3.2603691 -0.74624646
2.6105678 3.279232 -0.75423843
2.6374323 3.2715807 -0.75619203
2.6599457 3.2583857 -0.75690246
2.6823964 3.2450378 -0.75761282
2.7060461 3.2330463 -0.75867844
2.7207437 3.2103746 -0.75725764
2.7461574 3.2003424 -0.75885606
2.7741318 3.1930909 -0.76116484
2.8125179 3.1974404 -0.76631522
2.8301208 3.1779182 -0.76578242
2.8495669 3.1604931 -0.76578242
2.8463519 3.1182334 -0.75974405
2.8500721 3.084084 -0.75565922
2.8554976 3.0521638 -0.7521072
2.8863506 3.0474479 -0.75530404
2.9329157 3.0588078 -0.76258564
2.9660208 3.0555854 -0.76631522
2.976438 3.0289044 -0.76418406
2.9935789 3.0091889 -0.76382881
3.0084956 2.9872963 -0.76294082
3.0415204 2.9832537 -0.76667041
3.0505812 2.9556317 -0.76436162
0.67730767 0.64753687 -0.16691509
0.6741178 0.63660723 -0.16513909
0.69239455 0.64589417 -0.1686911
0.70357734 0.64830691 -0.17046709
0.73590881 0.66983008 -0.1773935
0.74293059 0.66793567 -0.17810389
0.74554408 0.6620568 -0.1777487
0.74293751 0.65162528 -0.17615029
0.74692178 0.64705443 -0.17615029
0.75312001 0.64437997 -0.1766831
0.75856221 0.64101815 -0.1770383
0.76021576 0.63445848 -0.17650549
0.76485336 0.63040835 -0.1766831
0.77099556 0.6275686 -0.17721589
0.77713162 0.62467718 -0.1777487
0.78249079 0.6211217 -0.17810389
0.79325449 0.62177694 -0.1797023
0.80327761 0.62172049 -0.18112309
0.81489271 0.6227603 -0.18289909
0.82419497 0.62190115 -0.18414229
0.84692717 0.63095385 -0.18840469
0.84602815 0.622244 -0.1873391
0.85460615 0.6205132 -0.18840469
0.86079603 0.61697912 -0.1889375
0.81638396 0.57755393 -0.1782815
3.3660395 2.3528483 -0.73896486
3.4387293 2.3723958 -0.75175202
3.4662349 2.3601153 -0.75459361
3.4937191 2.3475864 -0.75743526
3.5359414 2.3446 -0.76347363
3.5691996 2.3352547 -0.76755846
3.6074357 2.3287926 -0.77270883
3.6058877 2.2965672 -0.76933444
3.6157451 2.2717803 -0.76844645
3.6388168 2.2552557 -0.77040005
3.6559446 2.2349396 -0.77111042
3.7041397 2.2333033 -0.77839202
3.6560299 2.1738088 -0.76542723
0.90536982 0.53027415 -0.18716149
0.90775454 0.52421629 -0.1869839
0.89984006 0.51230013 -0.1846751
0.90210867 0.50628698 -0.18449749
0.90003312 0.49788094 -0.18343189
0.88752371 0.48386034 -0.18023509
0.89134258 0.47887179 -0.18041269
0.88122207 0.46647915 -0.1777487
0.87621725 0.45696276 -0.17615029
0.88162982 0.45292857 -0.1766831
0.87649208 0.44350654 -0.1750847
0.87743586 0.4372412 -0.1747295
0.88010216 0.43184909 -0.1747295
0.87742031 0.42386889 -0.1736639
0.87378544 0.41551477 -0.1724207
0.88077372 0.41223419 -0.17330869
0.88596731 0.40805891 -0.17384149
0.89383101 0.4050557 -0.17490709
0.89180666 0.39755729 -0.1740191
0.89693236 0.39326501 -0.17455189
0.90745938 0.39126608 -0.17615029
0.89172679 0.37799737 -0.17259829
0.89857012 0.37441424 -0.17348629
0.91997033 0.37673753 -0.17721589
0.91587543 0.36851016 -0.1759727
0.90439469 0.35744873 -0.17330869
4.02423 1.4517133 -0.76986724
4.0423384 1.4302777 -0.77164322
4.0724216 1.4128693 -0.77572805
4.0679708 1.3834171 -0.77324164
4.0726485 1.3571854 -0.77253121
4.0743508 1.3300319 -0.77128804
4.0693126 1.3008101 -0.76880163
4.0734611 1.2746407 -0.76809126
4.0859098 1.2510637 -0.76897925
4.1067071 1.2299242 -0.77146566
4.1188984 1.2060862 -0.77235365
4.1054077 1.1748308 -0.76844645
4.108748 1.1485581 -0.76773602
4.1119208 1.1222886 -0.76702565
4.1073184 1.093996 -0.76489443
4.1091919 1.0675355 -0.76400644
4.0775065 1.0326322 -0.75690246
4.0904536 1.0092449 -0.75814563
4.0908284 0.98274726 -0.75708002
4.1092386 0.96054173 -0.7593888
4.1352062 0.93989325 -0.76311845
4.1495438 0.91641366 -0.76471686
4.1627865 0.89258701 -0.76613766
4.1537333 0.86401945 -0.76347363
4.1435218 0.83540213 -0.76063204
4.1553307 0.81128329 -0.76187521
4.2037444 0.79399681 -0.76986724
4.1465797 0.75686967 -0.75850081
4.1908813 0.73841977 -0.76578242
4.2118263 0.71549541 -0.76880163
4.2336183 0.69250071 -0.77199847
4.2465367 0.66788805 -0.77359682
4.2709889 0.64490771 -0.77732646
4.2885008 0.62066472 -0.77981281
4.2922282 0.59433931 -0.77981281
4.318233 0.57096159 -0.78389764
4.338253 0.54654825 -0.78691685
4.3454337 0.52038753 -0.78762722
4.307477 0.48904604 -0.78016806
4.2947407 0.46092412 -0.77732646
4.2916136 0.43396854 -0.77626085
4.2736225 0.40567154 -0.77253121
4.2779918 0.37961569 -0.77288646
4.2890673 0.35408929 -0.77448481
4.3098025 0.32919219 -0.77785921
4.2852359 0.30087662 -0.77306402
4.2860193 0.27451423 -0.77288646
4.2768159 0.24758331 -0.77093285
4.6340218 0.23979476 -0.83522403
4.6206594 0.21068205 -0.83256006
4.5982652 0.18139204 -0.82829767
4.5815878 0.15258217 -0.82510084
4.5814538 0.12444034 -0.82492328
4.5821309 0.096326731 -0.82492328
4.5452447 0.067647792 -0.81817442
4.5495105 0.0397924 -0.81888485
3.8367271 -0.011478488 -0.7572881
3.8297181 -0.034956846 -0.75592846
3.8098147 -0.058154114 -0.75204372
4.0006285 -0.085635744 -0.78991944
4.0010085 -0.1102086 -0.79011369
3.9777076 -0.13399516 -0.78564632
3.9601474 -0.1577346 -0.78234428
3.9355874 -0.18094778 -0.77768266
3.9324434 -0.20499043 -0.77729422
3.9340496 -0.22928701 -0.77787691
3.9472525 -0.25436878 -0.78079045
3.9270256 -0.27726999 -0.77709997
3.8988426 -0.29933128 -0.77185565
3.8930223 -0.32292387 -0.77107871
3.9505689 -0.35212129 -0.78292704
3.9688411 -0.37831098 -0.78700596
3.8903222 -0.39492354 -0.77185565
3.9229369 -0.42257109 -0.77884811
3.8968787 -0.44396731 -0.77418649
3.8512278 -0.46271804 -0.76564014
3.8512359 -0.48670918 -0.76622283
3.8501217 -0.51058882 -0.76661134
3.8449728 -0.53393316 -0.76622283
3.8357997 -0.55666971 -0.76505744
3.7935162 -0.57431906 -0.7572881
3.7724795 -0.59483343 -0.75379187
3.7677906 -0.61781096 -0.75359762
3.7561924 -0.63960028 -0.75204372
3.7715173 -0.666049 -0.75592846
3.7422712 -0.68458682 -0.75087833
3.7399278 -0.70790112 -0.75126684
3.7461035 -0.73290813 -0.75340337
3.7299976 -0.75354815 -0.75107259
3.690733 -0.76921302 -0.74408013
3.6562128 -0.78545535 -0.73805887
3.6522822 -0.80808663 -0.73825312
3.6338646 -0.82743138 -0.73553383
3.6420908 -0.85284495 -0.73825312
3.6139002 -0.86966646 -0.7335915
3.6132574 -0.89300168 -0.73456264
1.2696353 -0.32188946 -0.25694039
1.2657377 -0.32917953 -0.25655192
1.2627462 -0.33668682 -0.25635767
1.2663339 -0.34598091 -0.25752309
1.2811903 -0.35850593 -0.26101932
1.2525631 -0.35879156 -0.25558075
1.250338 -0.3664704 -0.25558075
1.2490054 -0.3744173 -0.25577497
1.2429332 -0.38092351 -0.25499806
1.2433807 -0.38942295 -0.25558075
1.2250857 -0.39195994 -0.25227877
1.2385082 -0.40465179 -0.25558075
1.236002 -0.41224355 -0.25558075
1.236235 -0.42076853 -0.25616345
1.250309 -0.43414113 -0.25965968
