# .PCD v0.7 - Point Cloud Data file format
VERSION 0.7
FIELDS x y z
SIZE 4 4 4
TYPE F F F
COUNT 1 1 1
WIDTH 1434
HEIGHT 1
VIEWPOINT 0 0 0 1 0 0 0
POINTS 1434
DATA ascii
-0.76089644 -2.532795 -0.67982352
-0.7679019 -2.5003092 -0.67232227
-0.78120112 -2.4890833 -0.67057198
-0.80295742 -2.504529 -0.6760729
-0.81830972 -2.4995551 -0.6760729
-0.8336314 -2.4944868 -0.6760729
-0.85610443 -2.5104041 -0.68182391
-0.86163646 -2.4767528 -0.67407256
-0.88296419 -2.4887583 -0.67882335
-0.89262336 -2.4678137 -0.67457265
-0.9147774 -2.4813697 -0.67982352
-0.9296453 -2.4748034 -0.67957348
-0.9406631 -2.4582002 -0.67657298
-0.94589043 -2.4271197 -0.66957182
-0.9657616 -2.433871 -0.6730724
-0.9774158 -2.4198186 -0.67082202
-0.99518836 -2.4209409 -0.67282236
-1.0115179 -2.4183621 -0.67382252
-1.0214123 -2.4005268 -0.67057198
-1.0457307 -2.4164314 -0.67682302
-1.064046 -2.4179463 -0.67907339
-1.0701675 -2.3919261 -0.67357248
-1.0908333 -2.3985367 -0.6773231
-1.0998456 -2.3794923 -0.67382252
-1.1136024 -2.3709459 -0.67332244
-1.1347978 -2.3780515 -0.6773231
-1.1506343 -2.3736579 -0.67807323
-1.1604749 -2.3569968 -0.67532277
-1.1792432 -2.3584929 -0.67782319
-1.2028928 -2.3693452 -0.68307412
-1.2134175 -2.3541732 -0.68082368
-1.230083 -2.3509734 -0.68207395
-1.251294 -2.3562102 -0.68582457
-1.2721562 -2.3604221 -0.68932515
-1.2731483 -2.3279333 -0.68207395
-1.2742598 -2.2963691 -0.67507273
-1.2869017 -2.2859755 -0.67432261
-1.3033037 -2.2822409 -0.67557281
-1.3182529 -2.2758768 -0.6760729
-1.3302317 -2.2644055 -0.67507273
-1.347073 -2.2611923 -0.67657298
-1.3629237 -2.2561998 -0.67757314
-1.3792694 -2.2519236 -0.67882335
-1.3961245 -2.2483542 -0.6803236
-1.4098938 -2.2397454 -0.6803236
-1.4246513 -2.2326849 -0.68082368
-1.4383239 -2.2239015 -0.68082368
-1.4604322 -2.2279925 -0.68482441
-1.4730042 -2.2173762 -0.68432432
-1.477934 -2.1954432 -0.6803236
-1.4826504 -2.1735337 -0.67632294
-1.4871539 -2.1516492 -0.67232227
-1.5180945 -2.1678672 -0.6803236
-1.5347282 -2.1632504 -0.68182391
-1.5394994 -2.1419973 -0.67807323
-1.5736926 -2.1614778 -0.68732482
-1.5788826 -2.1408699 -0.68382424
-1.5844584 -2.1210556 -0.68057364
-1.6032833 -2.1190164 -0.68307412
-1.5950602 -2.0814669 -0.67407256
-1.6178906 -2.0846462 -0.67832327
-1.6288568 -2.0723956 -0.67757314
-1.6523925 -2.0760009 -0.68207395
-1.6578102 -2.0567751 -0.67907339
-1.6697872 -2.045814 -0.67882335
-1.688475 -2.0429945 -0.68132377
-1.695388 -2.0259118 -0.67907339
-1.7077868 -2.0154707 -0.67907339
-1.7232727 -2.0086291 -0.6803236
-1.7228694 -1.9833951 -0.67532277
-1.7343676 -1.9720592 -0.67507273
-1.7477226 -1.9628268 -0.67557281
-1.7668628 -1.9599785 -0.67832327
-1.7788558 -1.9491004 -0.67832327
-1.7874973 -1.9345922 -0.67707306
-1.8085917 -1.9334896 -0.68057364
-1.8284082 -1.9307941 -0.6835742
-1.8321824 -1.9111499 -0.68057364
-1.8418519 -1.8977867 -0.67982352
-1.8432857 -1.8760874 -0.6760729
-1.857493 -1.8674885 -0.67707306
-1.9197429 -1.9065567 -0.69557619
-1.9148208 -1.8784643 -0.6895752
-1.913798 -1.8545486 -0.68507445
-1.9146519 -1.8327255 -0.68132377
-1.9427425 -1.836912 -0.68732482
-1.9553918 -1.8262792 -0.6878249
-1.9494851 -1.7984859 -0.68182391
-1.9690697 -1.7943181 -0.68482441
-1.9613354 -1.7653565 -0.67832327
-1.9699601 -1.7513583 -0.67757314
-1.9988542 -1.7552139 -0.68382424
-2.0198245 -1.7517999 -0.68732482
-2.0283296 -1.7374834 -0.6865747
-2.0300841 -1.7174985 -0.6835742
-2.0279555 -1.6944529 -0.67932343
-2.0427942 -1.6856763 -0.68082368
-2.0485966 -1.6694391 -0.67932343
-2.0746388 -1.6695893 -0.68457437
-2.0795391 -1.6526102 -0.68282408
-2.0888786 -1.6392213 -0.68257403
-2.0858886 -1.6162884 -0.67832327
-2.1119125 -1.6158183 -0.6835742
-2.1326013 -1.6110027 -0.68707478
-2.138566 -1.5949916 -0.68582457
-2.1600056 -1.5904537 -0.6895752
-2.174422 -1.580587 -0.69107544
-2.1675625 -1.5553573 -0.68582457
-2.1691651 -1.5364299 -0.68332416
-2.1960065 -1.5353005 -0.68882507
-2.2197278 -1.5316988 -0.69332582
-2.1978786 -1.4967875 -0.6835742
-2.2214839 -1.4929985 -0.68807495
-2.237864 -1.4841576 -0.69032532
-2.2453084 -1.4693376 -0.68982524
-2.2664812 -1.4634138 -0.69357586
-2.2656198 -1.4432347 -0.69057536
-2.2695146 -1.4262136 -0.68907511
-2.2856286 -1.4168544 -0.69132549
-2.2736306 -1.3901715 -0.68507445
-2.3086464 -1.3922009 -0.69307578
-2.2980075 -1.3666219 -0.68732482
-2.3121955 -1.3559256 -0.68907511
-2.3397479 -1.3528644 -0.69482607
-2.3395944 -1.3336854 -0.69232565
-2.3342299 -1.3117124 -0.68832499
-2.3642533 -1.309568 -0.69482607
-2.3518505 -1.2838973 -0.68882507
-2.397197 -1.2896348 -0.6998269
-2.4084864 -1.2767162 -0.70082706
-2.4102678 -1.2587751 -0.69907677
-2.4343028 -1.2523822 -0.70382756
-2.4358964 -1.2343569 -0.70207727
-2.4252334 -1.2103038 -0.6968264
-2.4178429 -1.1881372 -0.69257569
-2.4303164 -1.1758106 -0.69407594
-2.4348633 -1.1596266 -0.69332582
-2.443686 -1.1454871 -0.6938259
-2.4524269 -1.1312829 -0.69432598
-2.4540327 -1.1138116 -0.69282573
-2.4705448 -1.1030775 -0.69557619
-2.4905632 -1.0937406 -0.69932681
-2.5087817 -1.0834311 -0.70257735
-2.5358784 -1.0767254 -0.70832831
-2.5388637 -1.0596527 -0.70732814
-2.5623362 -1.0510399 -0.71207899
-2.5543699 -1.0295036 -0.70807827
-2.5777416 -1.0205868 -0.71282911
-2.5695181 -0.99913323 -0.70882845
-2.5593197 -0.97712815 -0.70432764
-2.5806789 -0.96718609 -0.70857841
-2.5865648 -0.95133317 -0.70857841
-2.5823359 -0.93182701 -0.70582789
-2.5934811 -0.91790408 -0.70732814
-2.5999792 -0.90229124 -0.70757818
-2.582552 -0.87852019 -0.70132715
-2.601671 -0.86725342 -0.70507777
-2.6060231 -0.85097283 -0.70482773
-2.6453156 -0.84588563 -0.71407932
-2.6495321 -0.82934886 -0.71382928
-2.6416109 -0.80910325 -0.7103287
-2.6270494 -0.78703958 -0.70507777
-2.6392622 -0.77308464 -0.7070781
-2.6234789 -0.75100887 -0.70157719
-2.654145 -0.74220443 -0.70857841
-2.6483753 -0.72309726 -0.70582789
-2.6583753 -0.70833057 -0.70732814
-2.6626716 -0.69200575 -0.70732814
-2.6602979 -0.67398882 -0.70557785
-2.6606236 -0.65672386 -0.70457768
-2.6542478 -0.63789505 -0.70182723
-2.6618829 -0.62247968 -0.70282739
-2.7024715 -0.61451614 -0.71257907
-2.6806657 -0.59227663 -0.70582789
-2.6899295 -0.57703704 -0.70732814
-2.6905758 -0.5599286 -0.70657802
-2.7015533 -0.54494238 -0.70857841
-2.6991448 -0.52724063 -0.7070781
-2.7032804 -0.51084906 -0.70732814
-2.7263653 -0.49790993 -0.71257907
-2.742718 -0.48352838 -0.71607965
-2.7236798 -0.46295357 -0.7103287
-2.72838 -0.44654587 -0.71082878
-2.7301121 -0.42964569 -0.71057874
-2.7212088 -0.41114756 -0.70757818
-2.7169731 -0.39346984 -0.70582789
-2.7289264 -0.37812251 -0.70832831
-2.7302356 -0.36124378 -0.70807827
-2.7381642 -0.34521255 -0.70957857
-2.7402308 -0.32840499 -0.70957857
-2.733536 -0.31059927 -0.70732814
-2.7373159 -0.29402801 -0.70782822
-2.7371418 -0.27703118 -0.70732814
-2.7397542 -0.26032299 -0.70757818
-2.7683036 -0.24591224 -0.7145794
-2.7552865 -0.22772203 -0.71082878
-2.767251 -0.21162617 -0.71357924
-2.7704294 -0.1947789 -0.71407932
-2.762876 -0.17721643 -0.71182895
-2.7610116 -0.16009159 -0.71107882
-2.750339 -0.1425433 -0.70807827
-2.7434239 -0.12530965 -0.70607793
-2.7499461 -0.10870475 -0.70757818
-2.7321754 -0.091211297 -0.70282739
-2.7307477 -0.07439208 -0.70232731
-2.7350249 -0.057717733 -0.70332748
-2.7614667 -0.041332077 -0.71007866
-2.7568276 -0.024343397 -0.70882845
-2.7162592 -0.0073084822 -0.69832665
-2.733681 0.0094142966 -0.70282739
-2.7519674 0.026359648 -0.70757818
-2.751754 0.043244906 -0.70757818
-2.770797 0.060547177 -0.71257907
-2.7606947 0.077278614 -0.71007866
-2.762104 0.094282083 -0.71057874
-2.7605059 0.11118951 -0.7103287
-2.7510669 0.12772343 -0.70807827
-2.7395954 0.14404449 -0.70532781
-2.7328606 0.16051234 -0.70382756
-2.7366552 0.17759022 -0.70507777
-2.7403433 0.19472069 -0.70632797
-2.7342701 0.21115983 -0.70507777
-2.7435367 0.22881578 -0.70782822
-2.7401524 0.24547313 -0.70732814
-2.7260644 0.26108465 -0.7040776
-2.7224846 0.27761057 -0.70357752
-2.7409456 0.29649225 -0.70882845
-2.7496567 0.31451273 -0.71157891
-2.731333 0.32941127 -0.70732814
-2.7273393 0.34592098 -0.70682806
-2.7328436 0.36366913 -0.70882845
-2.7228889 0.37936357 -0.70682806
-2.7415895 0.39912769 -0.71232903
-2.729516 0.41449079 -0.70982862
-2.7431798 0.43379828 -0.71407932
-2.7223132 0.44764119 -0.70932853
-2.7261965 0.46547577 -0.71107882
-2.723289 0.48219463 -0.71107882
-2.7326603 0.50116313 -0.71432936
-2.7314363 0.51828146 -0.71482944
-2.7282047 0.5350315 -0.71482944
-2.6878588 0.54427564 -0.70507777
-2.6911032 0.56214207 -0.70682806
-2.6838171 0.57782954 -0.70582789
-2.6726584 0.59261119 -0.70382756
-2.6859643 0.6128723 -0.70832831
-2.7179751 0.63773823 -0.71782994
-2.7196589 0.6557638 -0.71933019
-2.7118244 0.67150891 -0.71833003
-2.7029607 0.68694431 -0.71707982
-2.6902621 0.70132017 -0.71482944
-2.6728117 0.7143172 -0.71132886
-2.6805191 0.73402548 -0.7145794
-2.7085965 0.75960231 -0.72333086
-2.7001617 0.77513987 -0.72233069
-2.6832771 0.78814858 -0.71908015
-2.6654077 0.80070108 -0.71557957
-2.6743288 0.82130122 -0.71933019
-2.655381 0.83334947 -0.71557957
-2.6243994 0.84135634 -0.70857841
-2.6587584 0.87038773 -0.71933019
-2.6496942 0.88545853 -0.71833003
-2.6258814 0.89545405 -0.7133292
-2.6386287 0.91790766 -0.71833003
-2.6438978 0.93796295 -0.72133052
-2.622613 0.94857299 -0.71707982
-2.6321886 0.97033703 -0.72133052
-2.6044297 0.97830319 -0.71532953
-2.5983777 0.99426532 -0.71532953
-2.5877171 1.0084331 -0.71407932
-2.5958817 1.0300022 -0.71807998
-2.5886149 1.0455486 -0.71782994
-2.6054368 1.0709779 -0.72433102
-2.5809495 1.0794766 -0.71933019
-2.5724955 1.0945349 -0.71883011
-2.5648422 1.1099144 -0.71858007
-2.5517795 1.1229028 -0.71682978
-2.5430737 1.1377486 -0.71632969
-2.5589628 1.1637474 -0.72283077
-2.5403471 1.1741487 -0.71958023
-2.5383539 1.1921823 -0.72108048
-2.5388565 1.211486 -0.72333086
-2.5531592 1.2375947 -0.72958189
-2.5159795 1.2387031 -0.72108048
-2.5195913 1.2597439 -0.72433102
-2.5239024 1.2813137 -0.7278316
-2.5254612 1.3016531 -0.73058206
-2.5088468 1.312638 -0.72808164
-2.4913378 1.3230141 -0.72533119
-2.4652717 1.3286333 -0.72008032
-2.457073 1.343735 -0.72008032
-2.4403143 1.3540901 -0.7175799
-2.4311161 1.3685633 -0.71732986
-2.4125819 1.3776952 -0.71432936
-2.4283838 1.4065404 -0.72158056
-2.4372418 1.4317089 -0.72683144
-2.4267473 1.445646 -0.72633135
-2.4236333 1.4640121 -0.72808164
-2.4369013 1.4925045 -0.73483276
-2.4252295 1.5058974 -0.73408264
-2.3987336 1.5099221 -0.72883177
-2.380444 1.518885 -0.72608131
-2.390595 1.5460776 -0.73208231
-2.3964512 1.5707985 -0.73683316
-2.3883812 1.5865444 -0.73733324
-2.3874381 1.6071149 -0.74008369
-2.3543322 1.6059164 -0.73283243
-2.3460274 1.6214328 -0.73333251
-2.3257222 1.6285796 -0.73008198
-2.3314819 1.6540204 -0.73508281
-2.2953391 1.6496536 -0.72683144
-2.2922199 1.6688339 -0.72908181
-2.2679081 1.6725262 -0.72458106
-2.2568271 1.6858311 -0.72433102
-2.2456682 1.6990628 -0.72408098
-2.258261 1.7304726 -0.73158222
-2.2544858 1.7496375 -0.7338326
-2.2490375 1.7676247 -0.73558295
-2.2381492 1.7813913 -0.73558295
-2.2294385 1.796913 -0.73633307
-2.2146199 1.8074987 -0.73508281
-2.2079663 1.824753 -0.73658311
-2.2093539 1.8488272 -0.74083382
-2.1868851 1.8529624 -0.7370832
-2.1629796 1.8556312 -0.73283243
-2.1581328 1.874581 -0.73508281
-2.1553168 1.8954588 -0.73808336
-2.1407528 1.9060731 -0.7370832
-2.1304555 1.9204688 -0.73758328
-2.1100478 1.9256747 -0.73458272
-2.0910792 1.9320164 -0.73208231
-2.0961595 1.9606808 -0.73808336
-2.0890119 1.9781648 -0.73983365
-2.0586584 1.9735285 -0.73333251
-2.0534599 1.9928646 -0.73583299
-2.0384302 2.0027132 -0.73483276
-2.0418961 2.0308838 -0.74058378
-2.0389504 2.0529902 -0.74408436
-2.0324192 2.0716815 -0.74633473
-1.9933848 2.0570018 -0.73658311
-1.9894316 2.078285 -0.73983365
-1.9779729 2.0918596 -0.74033374
-1.9809655 2.1209354 -0.74633473
-1.9606907 2.1252244 -0.74358428
-1.9397857 2.1286287 -0.74058378
-1.9564925 2.1735878 -0.75208569
-1.9431188 2.1855519 -0.75208569
-1.9322281 2.2003429 -0.75308585
-1.9136142 2.2063069 -0.75108552
-1.8868091 2.2025683 -0.74583465
-1.8726333 2.2133651 -0.74558461
-1.8677111 2.2352138 -0.74908519
-1.8403996 2.2302051 -0.74358428
-1.8162793 2.2286985 -0.73933357
-1.7964979 2.2322595 -0.73683316
-1.7893957 2.2515771 -0.73958361
-1.7851132 2.2746992 -0.74358428
-1.7871397 2.3062704 -0.7503354
-1.7676582 2.3102732 -0.74808502
-1.7610389 2.3311174 -0.75133556
-1.7391745 2.3317912 -0.74808502
-1.7122002 2.3252685 -0.74258411
-1.703595 2.3435612 -0.74508452
-1.682972 2.3453183 -0.74233407
-1.6719086 2.3603406 -0.74383432
-1.682368 2.4062579 -0.75508618
-1.6714225 2.4221129 -0.75683647
-1.6461706 2.4171202 -0.75208569
-1.6307683 2.4263718 -0.75183564
-1.6056782 2.4210033 -0.74708486
-1.5860196 2.4235198 -0.74483448
-1.5768987 2.4421518 -0.74758494
-1.5608435 2.4501486 -0.74708486
-1.5607259 2.4834502 -0.75433606
-1.5439276 2.4905114 -0.75358593
-1.5205326 2.4867229 -0.74958527
-1.5017443 2.4902029 -0.74783498
-1.4849511 2.4968741 -0.74708486
-1.4740124 2.5134547 -0.74933523
-1.4614716 2.5274801 -0.75083548
-1.4286665 2.5061221 -0.74183398
-1.409466 2.5080893 -0.73983365
-1.4165787 2.5573404 -0.75183564
-1.4022529 2.5685334 -0.75258577
-1.3841717 2.5728264 -0.75133556
-1.3742568 2.5923908 -0.7545861
-1.3502529 2.5853276 -0.75008535
-1.324615 2.574625 -0.74458444
-1.3057275 2.5766592 -0.74283415
-1.2868649 2.5785587 -0.74108386
-1.2658923 2.5759797 -0.73808336
-1.2601877 2.604614 -0.74408436
-1.244599 2.6131716 -0.7443344
-1.2240187 2.6111164 -0.74158394
-1.2120318 2.6273689 -0.74408436
-1.1822752 2.6047826 -0.73558295
-1.1781189 2.6385083 -0.74308419
-1.1506109 2.6199813 -0.73583299
-1.1468039 2.6554334 -0.74383432
-1.1301103 2.6615291 -0.74358428
-1.1062952 2.6505442 -0.73858345
-1.0958935 2.6716139 -0.74258411
-1.0802044 2.6800838 -0.74308419
-1.0758649 2.7172668 -0.7515856
-1.0570651 2.7184031 -0.75008535
-1.0424389 2.7302649 -0.7515856
-1.0229466 2.729357 -0.74958527
-0.99982607 2.7183182 -0.74483448
-0.98214138 2.7216697 -0.74408436
-0.96316022 2.721256 -0.74233407
-0.94708014 2.7289441 -0.74283415
-0.93000579 2.7337873 -0.74258411
-0.90984356 2.7293389 -0.73983365
-0.8945834 2.7394719 -0.74108386
-0.88897169 2.7799518 -0.75058544
-0.86784518 2.7724185 -0.74708486
-0.84400713 2.7554741 -0.74108386
-0.83709502 2.7939889 -0.75008535
-0.81476027 2.781419 -0.74533457
-0.7915448 2.7649579 -0.73958361
-0.77273768 2.763236 -0.73783332
-0.74224037 2.7184243 -0.72458106
-0.72854054 2.7341537 -0.72758156
-0.71735686 2.7601247 -0.73333251
-0.70730972 2.7916915 -0.74058378
-0.68389636 2.7705998 -0.7338326
-0.66914815 2.7841578 -0.73633307
-0.65315574 2.7929249 -0.73758328
-0.63514674 2.7931037 -0.73658311
-0.62196964 2.8149104 -0.7413339
-0.60631233 2.826247 -0.74333423
-0.58461463 2.8090608 -0.73783332
-0.56851763 2.8182895 -0.73933357
-0.55195755 2.8255258 -0.74033374
-0.53353 2.8231511 -0.73883349
-0.51480412 2.8187521 -0.73683316
-0.49884543 2.8294859 -0.73883349
-0.48212454 2.8363116 -0.73983365
-0.46204984 2.822973 -0.73558295
-0.44878972 2.8515785 -0.74233407
-0.42780748 2.8313024 -0.73633307
-0.40973189 2.8290832 -0.73508281
-0.3926315 2.833462 -0.73558295
-0.37383884 2.8252597 -0.73283243
-0.35698166 2.8313427 -0.7338326
-0.34017932 2.8382864 -0.73508281
-0.32451007 2.8557127 -0.73908353
-0.30812156 2.8682394 -0.74183398
-0.28719407 2.8373241 -0.73333251
-0.27372691 2.8804796 -0.74408436
-0.25321305 2.8502791 -0.73583299
-0.23443973 2.8363402 -0.73183227
-0.2174021 2.8425522 -0.73308247
-0.19968393 2.8399694 -0.73208231
-0.18250325 2.8450062 -0.73308247
-0.16611227 2.8644378 -0.73783332
-0.14732522 2.8421969 -0.73183227
-0.13019387 2.8498178 -0.73358256
-0.11316687 2.8621726 -0.73658311
-0.095407605 2.857007 -0.73508281
-0.077955313 2.8604424 -0.73583299
-0.060402501 2.8608668 -0.73583299
-0.042700294 2.8515024 -0.73333251
-0.025518773 2.8865657 -0.74233407
-0.0077189133 2.8566527 -0.73458272
0.0097346725 2.8334088 -0.72858173
0.027409602 2.8642778 -0.73658311
0.044789072 2.8514702 -0.73333251
0.063456707 2.9053502 -0.7473349
0.0806375 2.8816774 -0.7413339
0.097628623 2.8608072 -0.73608303
0.1153741 2.8649917 -0.73733324
0.13183415 2.8400497 -0.73108214
0.14885296 2.8314521 -0.72908181
0.16718493 2.8469174 -0.73333251
0.1847751 2.8477702 -0.7338326
0.20292924 2.856241 -0.73633307
0.22074832 2.8588037 -0.73733324
0.23676068 2.8390622 -0.73258239
0.25529659 2.8500931 -0.73583299
0.27195084 2.8397985 -0.73358256
0.29093838 2.8534884 -0.73758328
0.30709079 2.8391352 -0.73433268
0.32494485 2.8410456 -0.73533285
0.33681685 2.792856 -0.72333086
0.35674417 2.8128297 -0.72908181
0.37450665 2.8144269 -0.73008198
0.39283568 2.8197482 -0.73208231
0.41291532 2.8364482 -0.7370832
0.42740875 2.8147151 -0.73208231
0.44663471 2.8244727 -0.73533285
0.46317253 2.8169019 -0.73408264
0.4815872 2.820688 -0.73583299
0.49837977 2.8148196 -0.73508281
0.51040852 2.7831371 -0.72758156
0.52368999 2.7599754 -0.72233069
0.54638457 2.7861657 -0.73008198
0.56942016 2.8121803 -0.73783332
0.57855636 2.7697725 -0.72758156
0.59900129 2.7822626 -0.73183227
0.61250216 2.7624643 -0.72758156
0.62944084 2.7586541 -0.72758156
0.64503002 2.7490838 -0.72608131
0.66097891 2.7413089 -0.72508115
0.67662424 2.7325022 -0.72383094
0.69290125 2.7264221 -0.72333086
0.71205753 2.7314889 -0.72583127
0.72555715 2.7149076 -0.72258073
0.74117982 2.7066689 -0.72158056
0.75542253 2.6936791 -0.71933019
0.77727544 2.7076073 -0.72433102
0.79496503 2.7065034 -0.72533119
0.81072181 2.6987925 -0.72458106
0.82527775 2.6872878 -0.72283077
0.84435856 2.6904881 -0.72508115
0.85789746 2.6760359 -0.72258073
0.87941855 2.6863658 -0.72683144
0.89036524 2.6643884 -0.72233069
0.90326154 2.6487937 -0.71958023
0.91631812 2.6340559 -0.71707982
0.93052197 2.6229084 -0.71557957
0.94791478 2.6207917 -0.71657974
0.96765947 2.6249201 -0.71933019
0.98953193 2.6343434 -0.7235809
0.99564856 2.6019952 -0.71632969
1.0108926 2.5940328 -0.71582961
1.017511 2.5643795 -0.70932853
1.0415621 2.5787387 -0.71507949
1.0459601 2.5445352 -0.70732814
1.0679011 2.553256 -0.71157891
1.0839263 2.5475466 -0.71182895
1.1064554 2.5568442 -0.71632969
1.1174458 2.5393713 -0.7133292
1.13103 2.5280473 -0.71207899
1.1461198 2.5201786 -0.71182895
1.1664342 2.5236464 -0.71482944
1.1802514 2.5129359 -0.71382928
1.1873125 2.488168 -0.70882845
1.2042458 2.4843214 -0.70982862
1.223314 2.4847043 -0.71207899
1.2194936 2.4390421 -0.7010771
1.2283028 2.4194252 -0.69757652
1.2462288 2.4178681 -0.69932681
1.2731552 2.4333422 -0.70607793
1.2839766 2.4177873 -0.70382756
1.299706 2.4115682 -0.70432764
1.3089061 2.3933527 -0.70132715
1.322158 2.3827362 -0.70057702
1.3367532 2.3745787 -0.70057702
1.3450589 2.3554001 -0.69732648
1.3594861 2.3471026 -0.69732648
1.3782741 2.3462315 -0.69957685
1.387691 2.329411 -0.69707644
1.4024583 2.3216813 -0.69732648
1.4106113 2.3031228 -0.69432598
1.4318645 2.3059416 -0.69782656
1.4403148 2.2880974 -0.69507611
1.4532858 2.2775841 -0.69457603
1.4567208 2.2523613 -0.6895752
1.4758197 2.2514796 -0.69207561
1.5024605 2.2617407 -0.69807661
1.5071213 2.2388227 -0.6938259
1.5481013 2.2695329 -0.70632797
1.5498908 2.2424653 -0.70082706
1.5663971 2.2368791 -0.70207727
1.581773 2.2295954 -0.70282739
1.5739578 2.189966 -0.69332582
1.6038871 2.2029707 -0.70057702
1.6225446 2.2001023 -0.70282739
1.6354344 2.1893294 -0.70257735
1.6575973 2.1908371 -0.70632797
1.6610001 2.167558 -0.70207727
1.6796099 2.1642108 -0.70432764
1.6988389 2.161478 -0.70682806
1.7132751 2.1525288 -0.70732814
1.7088349 2.1201103 -0.70007694
1.7499659 2.1440964 -0.71157891
1.7600056 2.1295862 -0.7103287
1.7711757 2.1165187 -0.70957857
1.7872579 2.1093054 -0.71082878
1.7913429 2.0880094 -0.70732814
1.7945992 2.0660117 -0.70357752
1.8110777 2.0593247 -0.70507777
1.8449215 2.0720415 -0.7133292
1.8614893 2.0649981 -0.71482944
1.8695571 2.0485301 -0.71307915
1.8926021 2.0484011 -0.71707982
1.9005064 2.0317988 -0.71532953
1.9195933 2.0271313 -0.71782994
1.9333353 2.0167129 -0.71833003
1.9463474 2.005507 -0.71858007
1.9443694 1.9790196 -0.7133292
1.9687636 1.9794115 -0.71782994
1.9891139 1.9754834 -0.72083044
2.007417 1.9693452 -0.72308081
2.0090353 1.9468814 -0.71933019
2.0251391 1.9385356 -0.72083044
2.0447328 1.9333923 -0.7235809
2.0360413 1.9016392 -0.71632969
2.0675931 1.907498 -0.72333086
2.0399053 1.8588979 -0.70957857
2.0714188 1.8644881 -0.71657974
2.1030772 1.8697608 -0.7235809
2.1006896 1.8446795 -0.71883011
2.1017306 1.8228713 -0.71532953
2.1239035 1.819392 -0.71908015
2.1305931 1.8025725 -0.7175799
2.1490419 1.7956754 -0.72008032
2.1689794 1.7898525 -0.72308081
2.1506543 1.7526486 -0.7133292
2.1417596 1.7236317 -0.70682806
2.1863997 1.7375739 -0.71807998
2.1894045 1.7181464 -0.71557957
2.1999056 1.7046802 -0.71557957
2.2080173 1.6893841 -0.71482944
2.2137072 1.6723015 -0.7133292
2.2316866 1.6644773 -0.71582961
2.2434165 1.6519012 -0.71632969
2.2456799 1.6324098 -0.71382928
2.2532942 1.616906 -0.71307915
2.2450035 1.5901735 -0.70732814
2.2547183 1.5763685 -0.70732814
2.2763 1.5707555 -0.71107882
2.268292 1.5447646 -0.70557785
2.2809417 1.5329787 -0.70657802
2.2983725 1.5243075 -0.70907849
2.3133528 1.513889 -0.71082878
2.3103988 1.491785 -0.7070781
2.3170593 1.4760194 -0.70632797
2.3137772 1.4540437 -0.70257735
2.3317065 1.4454331 -0.70532781
2.3347502 1.4275619 -0.70357752
2.3426366 1.412709 -0.70332748
2.3795512 1.4151418 -0.71182895
2.3873546 1.4000244 -0.71157891
2.3841667 1.3785616 -0.70807827
2.3976269 1.3667848 -0.70957857
2.411876 1.3553693 -0.71132886
2.4311562 1.3466463 -0.7145794
2.4121819 1.3168513 -0.70657802
2.4372678 1.311204 -0.71157891
2.4409904 1.293956 -0.7103287
2.448884 1.278954 -0.7103287
2.4446332 1.2576998 -0.70682806
2.4505773 1.2418004 -0.70632797
2.4806731 1.2379869 -0.71282911
2.4873536 1.2223152 -0.71257907
2.4677906 1.1939517 -0.70482773
2.4820626 1.1821194 -0.70682806
2.4699838 1.1578219 -0.70132715
2.4594598 1.1345291 -0.69632632
2.4840064 1.1274242 -0.70132715
2.4988334 1.115716 -0.70357752
2.5242472 1.1085424 -0.70882845
2.5416672 1.0976419 -0.71182895
2.5198379 1.0699103 -0.70382756
2.5290356 1.0555481 -0.70457768
2.5265076 1.0363338 -0.70207727
2.5444922 1.0255198 -0.70532781
2.5579381 1.012741 -0.70732814
2.5947835 1.0089641 -0.71582961
2.5819316 0.98576713 -0.71057874
2.5861182 0.96922612 -0.71007866
2.5711179 0.94564778 -0.70432764
2.6060135 0.94037718 -0.71232903
2.5962191 0.91887385 -0.70807827
2.6265037 0.91150314 -0.71482944
2.6375468 0.89724225 -0.71632969
2.6448393 0.88165444 -0.71682978
2.6225891 0.8563866 -0.70932853
2.6314831 0.84145898 -0.7103287
2.6393685 0.82616496 -0.71107882
2.6332796 0.80654931 -0.70807827
2.6530178 0.79482603 -0.71207899
2.6401913 0.77335703 -0.70732814
2.6588485 0.76114285 -0.71107882
2.6373618 0.73750705 -0.7040776
2.6390355 0.72054487 -0.70332748
2.663053 0.7095781 -0.70857841
2.6804755 0.69663721 -0.71207899
2.6940849 0.68255705 -0.7145794
2.6850626 0.66276217 -0.71107882
2.6834304 0.6449157 -0.70957857
2.6882799 0.62865901 -0.70982862
2.7024715 0.61451614 -0.71257907
2.6863382 0.59353125 -0.70732814
2.6776228 0.57439411 -0.7040776
2.6716182 0.55597883 -0.70157719
2.6863682 0.54187566 -0.70457768
2.6981947 0.52705479 -0.70682806
2.6890101 0.50814897 -0.70357752
2.7016017 0.49338159 -0.70607793
2.6816945 0.47275594 -0.70007694
2.703635 0.4595418 -0.70507777
2.6968489 0.44137788 -0.70257735
2.7320249 0.42994717 -0.71107882
2.732697 0.41288599 -0.71057874
2.7313461 0.39555472 -0.70957857
2.7365987 0.37918738 -0.7103287
2.7417536 0.36277044 -0.71107882
2.7266371 0.34375656 -0.70657802
2.7238884 0.3264426 -0.70532781
2.7258399 0.30972299 -0.70532781
2.7170997 0.29185182 -0.70257735
2.7149861 0.27478361 -0.70157719
2.7002354 0.25655887 -0.69732648
2.7065809 0.24041517 -0.69857669
2.7108998 0.22404329 -0.69932681
2.7218773 0.20814581 -0.70182723
2.7443516 0.19293952 -0.70732814
2.7396865 0.17572369 -0.70582789
2.7416797 0.15896624 -0.70607793
2.7358351 0.14178826 -0.70432764
2.7714734 0.12659732 -0.7133292
2.7518811 0.10878168 -0.70807827
2.7283046 0.091081172 -0.70182723
2.7326834 0.074445263 -0.70282739
2.742769 0.05788295 -0.70532781
2.7304869 0.04086129 -0.70207727
2.7239089 0.024045169 -0.70032698
2.5323789 0.0049720262 -0.69702548
2.5371807 -0.010587084 -0.6983583
2.5486331 -0.026275216 -0.7015571
2.5349324 -0.041689493 -0.69782519
2.5240295 -0.057002228 -0.69489294
2.5477178 -0.073182769 -0.7015571
2.5327723 -0.08830855 -0.69755864
2.5321827 -0.10384769 -0.69755864
2.5372744 -0.11965596 -0.69915801
2.5403421 -0.13542777 -0.70022428
2.5385013 -0.15095517 -0.69995773
2.5250247 -0.16570641 -0.69649237
2.5268443 -0.18140391 -0.69729209
2.5256836 -0.19690491 -0.69729209
2.5167446 -0.21175122 -0.69515955
2.5297964 -0.22849175 -0.69915801
2.5302656 -0.24419537 -0.69969118
2.5315959 -0.26001191 -0.70049083
2.530911 -0.27564505 -0.70075744
2.5310869 -0.29138991 -0.70129055
2.5273378 -0.30668247 -0.70075744
2.501507 -0.31913227 -0.69409329
2.5109653 -0.33601049 -0.69729209
2.5031295 -0.35060835 -0.69569266
2.5018847 -0.36610031 -0.69595921
2.4938745 -0.38057166 -0.69435984
2.4848294 -0.39480722 -0.69249386
2.4785564 -0.40941769 -0.69142765
2.483597 -0.42592224 -0.69356012
2.4951706 -0.44368589 -0.69755864
2.4772356 -0.45619306 -0.69329357
2.4904847 -0.47445256 -0.69782519
2.5007658 -0.49233282 -0.7015571
2.5099761 -0.51016498 -0.70502245
2.4851029 -0.52100533 -0.69889146
2.4837434 -0.53665113 -0.69942456
2.4907525 -0.55418468 -0.70235682
2.4844868 -0.56881166 -0.7015571
2.4743826 -0.58249873 -0.69969118
2.4857504 -0.60129768 -0.70395619
2.4679837 -0.61305183 -0.69995773
2.4641755 -0.62818354 -0.69995773
2.4462881 -0.63963288 -0.69595921
2.4488337 -0.65637839 -0.69782519
2.4633479 -0.67649865 -0.70315653
2.453584 -0.69003445 -0.7015571
2.4594915 -0.70801038 -0.70448935
2.4218183 -0.71328169 -0.69489294
2.4367754 -0.73396778 -0.70049083
2.4184096 -0.74464977 -0.69649237
2.4248271 -0.76294738 -0.69969118
2.3999138 -0.77132124 -0.69382674
2.3969674 -0.78663355 -0.69435984
2.4076314 -0.8065325 -0.69889146
2.3926055 -0.81785989 -0.69595921
2.3930025 -0.83442986 -0.69755864
2.3905616 -0.85006636 -0.6983583
2.3952675 -0.86833304 -0.70129055
2.3853743 -0.88134307 -0.69995773
2.3718038 -0.89290577 -0.69755864
2.3581815 -0.90433526 -0.69515955
2.3400199 -0.91387767 -0.69142765
2.3522799 -0.93534303 -0.69675893
2.3464963 -0.94975877 -0.69675893
2.3361688 -0.96230274 -0.69542611
2.3568861 -0.98779845 -0.70342308
2.3197513 -0.98900825 -0.69409329
2.3109863 -1.0020727 -0.69329357
2.2862754 -1.0080661 -0.68769568
2.2800469 -1.0220753 -0.68769568
2.294781 -1.0456399 -0.69409329
2.2778275 -1.0548394 -0.69089448
2.266952 -1.0667436 -0.68956167
2.2586248 -1.0798017 -0.6890285
2.2588923 -1.0970092 -0.69116104
2.2460682 -1.1078637 -0.68929511
2.2418134 -1.1229197 -0.69009477
2.2503438 -1.1445204 -0.69489294
2.238997 -1.1560954 -0.69356012
2.2369828 -1.172497 -0.69515955
2.204221 -1.1726179 -0.68716258
2.1834154 -1.1787931 -0.68289751
2.1786771 -1.1935576 -0.68369722
2.1898448 -1.2172068 -0.68956167
2.1739402 -1.2258855 -0.68689603
2.1789258 -1.2463813 -0.69089448
2.173738 -1.2611787 -0.6916942
2.1518378 -1.2661819 -0.68716258
2.1432006 -1.2788675 -0.68689603
2.136138 -1.292493 -0.68716258
2.1215951 -1.301543 -0.68503004
2.0988383 -1.3053722 -0.68023187
2.083452 -1.3135986 -0.67783278
2.1208286 -1.3554286 -0.69276047
2.1173251 -1.3715609 -0.69435984
2.101619 -1.3797653 -0.69196075
2.0866942 -1.3883626 -0.68982822
2.0797343 -1.4022181 -0.69036138
2.0710914 -1.4149528 -0.69036138
2.0552387 -1.422696 -0.68796229
2.0417361 -1.4319589 -0.68636286
2.0556943 -1.4606518 -0.69409329
2.0255744 -1.4580327 -0.68689603
2.0197048 -1.4727057 -0.68796229
2.0044289 -1.480489 -0.68582976
2.0091972 -1.5031542 -0.69062793
1.9999362 -1.5154542 -0.69062793
1.9990098 -1.5341526 -0.69356012
1.9773841 -1.5369245 -0.68929511
1.9770037 -1.5561832 -0.69249386
1.9689252 -1.5694863 -0.69302702
1.936011 -1.5627683 -0.68476349
1.9248931 -1.5733979 -0.68423033
1.9241117 -1.5925548 -0.68742913
1.9128267 -1.6030926 -0.68689603
1.9080979 -1.6191651 -0.68876195
1.8857003 -1.6201634 -0.68423033
1.8728154 -1.6291726 -0.68316406
1.8714622 -1.6482787 -0.68636286
1.8318224 -1.6334277 -0.6754337
1.8324955 -1.654326 -0.67943215
1.8315579 -1.6739929 -0.68289751
1.8247888 -1.6884729 -0.68423033
1.8150976 -1.7002969 -0.68449694
1.8081269 -1.7147185 -0.68582976
1.7829726 -1.7117616 -0.68023187
1.7675983 -1.7179667 -0.67836589
1.7412241 -1.713231 -0.67223489
1.7265823 -1.7198011 -0.67063552
1.738391 -1.7529491 -0.67943215
1.7127659 -1.7484338 -0.67356771
1.7341726 -1.7921603 -0.68636286
1.7198141 -1.7992831 -0.68503004
1.6968328 -1.797186 -0.68023187
1.687088 -1.8089737 -0.68076497
1.6779155 -1.8214182 -0.68156469
1.6628164 -1.8274018 -0.67996532
1.6573702 -1.8440223 -0.6823644
1.6479436 -1.8563197 -0.68316406
1.6308043 -1.8598735 -0.68076497
1.616838 -1.8669304 -0.67969871
1.6009674 -1.8716885 -0.67783278
1.58199 -1.8726406 -0.67463398
1.587139 -1.9022958 -0.68183124
1.5693086 -1.9045594 -0.6791656
1.5563765 -1.9126574 -0.6786325
1.5319349 -1.9063923 -0.67303461
1.5220057 -1.9180214 -0.67383426
1.5096138 -1.9265654 -0.67356771
1.4906877 -1.9266437 -0.67036897
1.4893684 -1.9495413 -0.67516714
1.4849222 -1.9686472 -0.6786325
1.4624544 -1.963806 -0.67383426
1.4555147 -1.9797319 -0.67623341
1.4314528 -1.9722437 -0.67063552
1.4109056 -1.9692367 -0.666637
1.3982396 -1.9770699 -0.66637045
1.3899435 -1.9911447 -0.66823643
1.3842605 -2.0091605 -0.67143518
1.3724483 -2.0184135 -0.67170179
1.358964 -2.0251958 -0.67116863
1.347044 -2.0342999 -0.67143518
1.3387531 -2.0489824 -0.67356771
1.3251114 -2.0555377 -0.67303461
1.3031652 -2.04899 -0.66823643
1.2941533 -2.0626628 -0.67010236
1.2743729 -2.0590904 -0.66637045
1.2682418 -2.0775661 -0.66983581
1.2554702 -2.0853088 -0.66983581
1.2426513 -2.092973 -0.66983581
1.2268645 -2.0955675 -0.66823643
1.2212095 -2.1155777 -0.67223489
1.1977201 -2.1046011 -0.66637045
1.1852553 -2.1127512 -0.666637
1.1666738 -2.1098621 -0.66343826
1.1587783 -2.1262906 -0.66637045
1.1502689 -2.1418524 -0.66903609
1.1375557 -2.1497221 -0.6693027
1.1252348 -2.1583707 -0.66983581
1.1124103 -2.1660919 -0.67010236
1.0982287 -2.1711566 -0.66956925
1.0891825 -2.1864817 -0.67223489
1.0693808 -2.1801431 -0.66823643
1.0610119 -2.1970792 -0.67143518
1.0475109 -2.2035482 -0.67143518
1.0331538 -2.2081878 -0.67090207
1.0139433 -2.2022283 -0.66717017
1.0004116 -2.2084084 -0.66717017
0.98723447 -2.2153857 -0.66743672
0.97246218 -2.2187531 -0.666637
0.95882982 -2.2246783 -0.666637
0.94816887 -2.2376194 -0.66876954
0.93034595 -2.2336078 -0.66583735
0.91443318 -2.233922 -0.66423792
0.90718055 -2.2555871 -0.66903609
0.89013702 -2.2530432 -0.666637
0.88919181 -2.2917104 -0.67649996
0.86859608 -2.2800097 -0.67143518
0.85661477 -2.2907133 -0.67303461
0.84221113 -2.2950213 -0.67276806
0.82223845 -2.2838221 -0.66796982
0.80949289 -2.2924597 -0.66903609
0.79824853 -2.3055809 -0.67143518
0.78625411 -2.3168244 -0.67330116
0.777192 -2.3371537 -0.67783278
0.75746548 -2.3253822 -0.67303461
0.73879129 -2.3162119 -0.66903609
0.72600108 -2.3253016 -0.67036897
0.70693421 -2.3140421 -0.66583735
0.70016962 -2.3432708 -0.67303461
0.68091559 -2.3308697 -0.66823643
0.66660082 -2.3350039 -0.66823643
0.65769541 -2.358547 -0.67383426
0.64270508 -2.3606782 -0.67330116
0.63117665 -2.3757555 -0.67649996
0.61852056 -2.387048 -0.6786325
0.60858071 -2.4094882 -0.68396378
0.58780015 -2.3888428 -0.67703307
0.57560021 -2.4027152 -0.67996532
0.55056858 -2.3620837 -0.66743672
0.53712934 -2.3701174 -0.66876954
0.52133358 -2.3677208 -0.66717017
0.50941348 -2.3831284 -0.67063552
0.4965415 -2.3947029 -0.67303461
0.47747347 -2.3759708 -0.66690361
0.4630698 -2.379802 -0.66717017
0.45237875 -2.4034369 -0.67303461
0.43624413 -2.3985813 -0.67090207
0.42285079 -2.4088073 -0.67303461
0.40484849 -2.3923502 -0.66770327
0.39124578 -2.4014482 -0.66956925
0.37754667 -2.4104693 -0.67143518
0.36475384 -2.4260843 -0.67516714
0.34958613 -2.4263685 -0.67463398
0.33692685 -2.4446995 -0.6791656
0.31978455 -2.4304757 -0.67463398
0.30726051 -2.4515193 -0.67996532
0.29198471 -2.4514441 -0.67943215
0.27844957 -2.4665983 -0.68316406
0.26147121 -2.4510093 -0.67836589
0.24989215 -2.4870915 -0.68796229
0.23074132 -2.4473164 -0.67649996
0.21445343 -2.4342844 -0.67250144
0.19951291 -2.4355545 -0.67250144
0.18311116 -2.4175115 -0.66717017
0.1685413 -2.4224355 -0.66823643
0.1533699 -2.4186144 -0.66690361
0.13819678 -2.4137366 -0.66530418
0.12495425 -2.4453411 -0.67383426
0.11003391 -2.4479876 -0.67436743
0.094601385 -2.4380226 -0.67143518
0.078668296 -2.4086947 -0.66317165
0.064370699 -2.427438 -0.66823643
0.049553119 -2.4316418 -0.6693027
0.034795288 -2.4434648 -0.67250144
0.019994341 -2.4677269 -0.6791656
0.0048558512 -2.4697309 -0.67969871
-0.01031473 -2.4735694 -0.68076497
-0.025471991 -2.4715321 -0.68023187
-0.040620595 -2.4703655 -0.67996532
-0.056061972 -2.4825962 -0.68343067
-0.071238279 -2.4802785 -0.68289751
-0.085377581 -2.4489715 -0.67436743
-0.10095698 -2.4618835 -0.67809933
-0.1160154 -2.4602549 -0.67783278
-0.13100623 -2.457572 -0.67729962
-0.14682828 -2.4692292 -0.68076497
-0.1619132 -2.4673202 -0.68049842
-0.17753318 -2.4730096 -0.6823644
-0.19195376 -2.4622648 -0.67969871
-0.20754379 -2.4668031 -0.68129814
-0.22328354 -2.4722025 -0.68316406
-0.23909733 -2.4775014 -0.68503004
-0.25606886 -2.4932454 -0.68982822
-0.26728848 -2.4542599 -0.67943215
-0.28278384 -2.4564033 -0.68049842
-0.29971004 -2.4699306 -0.68476349
-0.31266224 -2.4508362 -0.67996532
-0.32961348 -2.4632008 -0.68396378
-0.34258041 -2.4458604 -0.67969871
-0.35995558 -2.4599242 -0.68423033
-0.37577012 -2.4624331 -0.68556321
-0.39132628 -2.4629366 -0.68636286
-0.40564531 -2.4557345 -0.68503004
-0.42086878 -2.4541492 -0.6852966
-0.43642578 -2.4543674 -0.68609631
-0.45217589 -2.4554348 -0.68716258
-0.46939933 -2.4639752 -0.69036138
-0.48339149 -2.455375 -0.68876195
-0.49614337 -2.4410288 -0.68556321
-0.50755024 -2.4209595 -0.68076497
-0.51893336 -2.4017847 -0.67623341
-0.53135693 -2.3882067 -0.67330116
-0.54772222 -2.3924172 -0.6754337
-0.56194961 -2.387135 -0.67490053
-0.5759061 -2.3808317 -0.67410088
-0.59096867 -2.3791242 -0.67463398
-0.60388827 -2.3689156 -0.67276806
-0.61694878 -2.359571 -0.67116863
-0.63016707 -2.3510864 -0.66983581
-0.6445812 -2.3471756 -0.66983581
-0.65818793 -2.3403928 -0.66903609
-0.67440307 -2.3427935 -0.67090207
-0.69530308 -2.3607998 -0.67729962
-0.70949757 -2.3555663 -0.67703307
-0.72450513 -2.3530107 -0.67756623
-0.74587429 -2.3705854 -0.68396378
-0.76483107 -2.3797276 -0.68796229
-0.77671266 -2.3667483 -0.68556321
-0.79213887 -2.3646796 -0.68636286
-0.80008453 -2.3406231 -0.68076497
-0.81157428 -2.3274794 -0.67836589
-0.82584012 -2.3224559 -0.67836589
-0.84434652 -2.329124 -0.68183124
-0.85093671 -2.3031063 -0.67570025
-0.86844903 -2.3068614 -0.67836589
-0.88258737 -2.3014894 -0.67836589
-0.91037047 -2.3310425 -0.68876195
-0.92145038 -2.3173525 -0.68636286
-0.93058813 -2.2991476 -0.68263096
-0.94614661 -2.2969589 -0.68369722
-0.97289264 -2.3213317 -0.69276047
-0.98371494 -2.3073394 -0.69036138
-0.99095047 -2.2853439 -0.68556321
-1.001454 -2.2712839 -0.68316406
-1.0145828 -2.2633374 -0.68263096
-1.0268523 -2.2535613 -0.68156469
-1.0637518 -2.2970674 -0.69675893
-1.0667436 -2.266952 -0.68956167
-1.0773069 -2.2534077 -0.68742913
-1.0927978 -2.2502229 -0.6884954
-1.109996 -2.2503898 -0.69062793
-1.1281006 -2.2521539 -0.69329357
-1.1375281 -2.2365992 -0.69062793
-1.1547685 -2.236428 -0.69276047
-1.172497 -2.2369828 -0.69515955
-1.1753346 -2.209326 -0.68876195
-1.1874946 -2.1995285 -0.68796229
-1.2051369 -2.1998079 -0.69036138
-1.2129917 -2.1822634 -0.68716258
-1.2315676 -2.1840141 -0.69009477
-1.242552 -2.1722333 -0.68876195
-1.2548897 -2.1629009 -0.68822885
-1.270093 -2.1584828 -0.68929511
-1.2892408 -2.1605804 -0.69249386
-1.3014755 -2.1509802 -0.69196075
-1.3171697 -2.1470613 -0.69329357
-1.3425378 -2.1585798 -0.69969118
-1.3614126 -2.1592693 -0.70262337
-1.3595816 -2.1273251 -0.69489294
-1.3757536 -2.1237962 -0.69649237
-1.3818815 -2.1048415 -0.69302702
-1.3947705 -2.0963228 -0.69302702
-1.4086848 -2.0893233 -0.69356012
-1.4231095 -2.0830278 -0.69435984
-1.4331206 -2.0702944 -0.69302702
-1.4457967 -2.0614619 -0.69302702
-1.4461348 -2.0352683 -0.68716258
-1.4417013 -2.0028913 -0.6791656
-1.4590751 -2.0010159 -0.68156469
-1.4976703 -2.0276852 -0.69382674
-1.4794786 -1.9775584 -0.67969871
-1.475866 -1.947704 -0.67250144
-1.507743 -1.9646058 -0.68156469
-1.5250933 -1.9621656 -0.68396378
-1.5406815 -1.9573145 -0.68556321
-1.5544648 -1.9500852 -0.68636286
-1.568823 -1.9435099 -0.68742913
-1.5691276 -1.91967 -0.6823644
-1.5771892 -1.9055513 -0.68076497
-1.5993776 -1.9083948 -0.6852966
-1.5967122 -1.8816445 -0.6791656
-1.6170225 -1.8820454 -0.68289751
-1.6361319 -1.8808135 -0.68609631
-1.6463673 -1.8692926 -0.68556321
-1.6661459 -1.8685062 -0.6890285
-1.6653068 -1.8446562 -0.68396378
-1.6817967 -1.8400943 -0.68609631
-1.6917462 -1.8283256 -0.68556321
-1.7016149 -1.8165042 -0.68503004
-1.716045 -1.8095255 -0.68636286
-1.7431375 -1.8156464 -0.69276047
-1.7515581 -1.8021523 -0.6916942
-1.7578505 -1.7865624 -0.68982822
-1.7701401 -1.7771083 -0.69036138
-1.7755355 -1.7607847 -0.68822885
-1.766337 -1.7302999 -0.68049842
-1.7900821 -1.7321622 -0.68556321
-1.8006768 -1.7211457 -0.68556321
-1.8098019 -1.7087415 -0.68503004
-1.8322363 -1.7087784 -0.68956167
-1.8419776 -1.6968509 -0.68929511
-1.8388088 -1.6731937 -0.68423033
-1.8626618 -1.6741192 -0.68929511
-1.8635281 -1.6543415 -0.68582976
-1.8750935 -1.6441466 -0.68636286
-1.8807745 -1.6288249 -0.68476349
-1.9024534 -1.6272765 -0.6890285
-1.9101933 -1.6137071 -0.68822885
-1.9289405 -1.6093644 -0.69142765
-1.9380351 -1.5968854 -0.69116104
-1.9283581 -1.5691495 -0.68423033
-1.9371984 -1.5566843 -0.68396378
-1.96257 -1.557348 -0.68956167
-1.9607079 -1.5363607 -0.68556321
-1.9853449 -1.5360955 -0.69089448
-1.9985626 -1.5268099 -0.6922273
-2.0071239 -1.5139378 -0.69196075
-2.0094178 -1.4964136 -0.68956167
-2.0146787 -1.4812018 -0.68822885
-2.0159283 -1.4631516 -0.68556321
-2.0538592 -1.4715209 -0.69542611
-2.0620627 -1.4583344 -0.69515955
-2.0851986 -1.4555832 -0.69995773
-2.0837722 -1.4356536 -0.69649237
-2.0901508 -1.4212152 -0.69569266
-2.0948298 -1.4056789 -0.69435984
-2.0945752 -1.3869463 -0.69142765
-2.1046598 -1.3751223 -0.69196075
-2.1130576 -1.3621826 -0.69196075
-2.121376 -1.3491914 -0.69196075
-2.13533 -1.3397346 -0.69382674
-2.1443298 -1.3271143 -0.69409329
-2.1409147 -1.3069028 -0.69036138
-2.1637571 -1.3026882 -0.69515955
-2.1609352 -1.2829918 -0.6916942
-2.1704304 -1.2706821 -0.6922273
-2.1831949 -1.2602311 -0.69382674
-2.2001014 -1.2520545 -0.69675893
-2.2052205 -1.2371169 -0.69595921
-2.2093959 -1.2216974 -0.69489294
-2.2185431 -1.20904 -0.69542611
-2.2344117 -1.1999637 -0.69809175
-2.2502518 -1.190738 -0.70075744
-2.2293108 -1.1622081 -0.69196075
-2.2501185 -1.1555507 -0.69622582
-2.2717881 -1.1491165 -0.70075744
-2.2675805 -1.1295699 -0.69729209
-2.2718725 -1.114362 -0.69649237
-2.2760634 -1.099144 -0.69569266
-2.281024 -1.0843302 -0.69515955
-2.2823961 -1.0678636 -0.69356012
-2.2941587 -1.0562569 -0.69515955
-2.3128881 -1.0477269 -0.69889146
-2.3104694 -1.0295933 -0.69622582
-2.3149776 -1.0146236 -0.69569266
-2.3379776 -1.0076462 -0.70075744
-2.3263669 -0.98576289 -0.69542611
-2.3243637 -0.96813565 -0.69302702
-2.3266923 -0.95239532 -0.69196075
-2.3450117 -0.94313467 -0.69569266
-2.3355153 -0.92270935 -0.69116104
-2.3519158 -0.91254401 -0.69435984
-2.3772864 -0.90564221 -0.70022428
-2.3791876 -0.88968843 -0.69915801
-2.4135571 -0.88569534 -0.70768809
-2.4216666 -0.87184858 -0.70848781
-2.425153 -0.85633141 -0.7079547
-2.4212534 -0.83828259 -0.70528901
-2.4363916 -0.8268162 -0.70822126
-2.4405043 -0.81154722 -0.7079547
-2.4463546 -0.79685569 -0.70822126
-2.4447699 -0.77978069 -0.70635527
-2.439388 -0.76160663 -0.70342308
-2.4587638 -0.75112832 -0.70768809
-2.4531679 -0.73299336 -0.7047559
-2.4724221 -0.72224975 -0.70902097
-2.4647586 -0.70362747 -0.70555562
-2.4690294 -0.68849075 -0.70555562
-2.4546077 -0.66826648 -0.70022428
-2.4884708 -0.66110861 -0.70875436
-2.4906144 -0.64534384 -0.70822126
-2.4683614 -0.62344378 -0.70075744
-2.4740121 -0.60874683 -0.70129055
-2.4955099 -0.59781945 -0.70635527
-2.5000696 -0.58271468 -0.70662189
-2.5158184 -0.57013148 -0.71008718
-2.5117388 -0.5530268 -0.7079547
-2.5094297 -0.53639644 -0.70635527
-2.5183361 -0.52216226 -0.7079547
-2.5375569 -0.50992656 -0.71248633
-2.5444221 -0.49508271 -0.71355253
-2.5540426 -0.48070836 -0.71541852
-2.5673752 -0.46692395 -0.71835077
-2.5597491 -0.44933012 -0.71541852
-2.5453525 -0.43072256 -0.71062034
-2.5412881 -0.41401234 -0.70875436
-2.5399718 -0.39781538 -0.70768809
-2.5843022 -0.38852322 -0.71941698
-2.5694659 -0.37018684 -0.7146188
-2.5449543 -0.35073245 -0.70715499
-2.5499251 -0.33548716 -0.7079547
-2.5576739 -0.32055333 -0.70955408
-2.5682061 -0.30587867 -0.71195316
-2.5623727 -0.28925061 -0.70982063
-2.5679328 -0.27393126 -0.7108869
-2.5791552 -0.25913206 -0.71355253
-2.5950904 -0.24465723 -0.71755105
-2.6157448 -0.23041891 -0.72288233
-2.6007791 -0.2130288 -0.71835077
-2.6029983 -0.19713938 -0.71861732
-2.5772369 -0.17929396 -0.71115345
-2.6032977 -0.16505998 -0.71808416
-2.6129217 -0.14957818 -0.72048324
-2.6224535 -0.13398448 -0.72288233
-2.6328547 -0.11832259 -0.72554803
-2.6373835 -0.10231451 -0.7266143
-2.5994294 -0.084875852 -0.71595168
-2.5912299 -0.068695493 -0.71355253
-2.5973842 -0.052911881 -0.71515197
-2.6092248 -0.037137009 -0.71835077
-2.6151862 -0.021172615 -0.71995014
-2.6075563 -0.0051114368 -0.7178176
-2.6075387 0.010888324 -0.7178176
-2.5891113 0.026696909 -0.71275288
-2.5917897 0.042630758 -0.71355253
-2.5991879 0.058707811 -0.71568507
-2.5891447 0.074377239 -0.71301943
-2.6127203 0.091104753 -0.71968359
-2.6178899 0.10737199 -0.72128296
-2.586374 0.12197682 -0.71275288
-2.5932765 0.13825552 -0.71488541
-2.5779479 0.1533052 -0.7108869
-2.5884995 0.16987894 -0.7140857
-2.5989444 0.18658793 -0.7172845
-2.5929461 0.20215614 -0.71595168
-2.6003008 0.21879056 -0.71835077
-2.5960295 0.23448119 -0.71755105
-2.5935826 0.25031301 -0.7172845
-2.5843277 0.26543361 -0.71515197
-2.5701947 0.27992782 -0.71168661
-2.569386 0.29580328 -0.71195316
-2.566566 0.31144696 -0.71168661
-2.5626945 0.32694513 -0.71115345
-2.5883436 0.34637362 -0.71888387
-2.5804427 0.36144608 -0.7172845
-2.5867591 0.37852946 -0.71968359
-2.5786712 0.39352134 -0.71808416
-2.5704968 0.40842828 -0.71648479
-2.5774515 0.42576471 -0.71915042
-2.5671911 0.44026753 -0.71701789
-2.5758283 0.45803732 -0.72021669
-2.5682299 0.47296038 -0.71888387
-2.5548651 0.48672467 -0.71595168
-2.5716891 0.50630367 -0.72154951
-2.5430331 0.51688766 -0.71435225
-2.5483031 0.53426248 -0.71675134
-2.5393248 0.54866666 -0.71515197
-2.5321472 0.56339955 -0.7140857
-2.5417953 0.58193868 -0.7178176
-2.5269189 0.59487242 -0.7146188
-2.5307157 0.61217982 -0.71675134
-2.5156875 0.62490702 -0.71355253
-2.5286162 0.64461857 -0.71835077
-2.5292754 0.66134131 -0.71968359
-2.5484431 0.68308902 -0.72634768
-2.5033112 0.68747818 -0.7146188
-2.5296631 0.71143949 -0.72341549
-2.5187669 0.72508079 -0.72154951
-2.5318363 0.74569762 -0.7266143
-2.5152164 0.75760376 -0.72314894
-2.4911771 0.76706427 -0.71755105
-2.4956169 0.78522921 -0.72021669
-2.4788237 0.79669207 -0.71675134
-2.4619842 0.80797857 -0.71328598
-2.4825685 0.83164477 -0.72074986
-2.4491477 0.8371945 -0.71248633
-2.491287 0.86871326 -0.72634768
-2.4722886 0.87913787 -0.72234923
-2.4550686 0.89001948 -0.71888387
-2.4450412 0.90339607 -0.71755105
-2.442158 0.91940051 -0.71835077
-2.4472692 0.93851054 -0.72154951
-2.4190211 0.94474101 -0.71488541
-2.4248211 0.96419698 -0.71835077
-2.4242194 0.98122752 -0.71995014
-2.4297378 1.0008571 -0.72341549
-2.4439948 1.0243177 -0.72954649
-2.4039743 1.024927 -0.71941698
-2.3932192 1.0377406 -0.71808416
-2.4123805 1.0636849 -0.72581458
-2.3996522 1.0757066 -0.7239486
-2.3851135 1.0868127 -0.72154951
-2.3871455 1.105478 -0.72421521
-2.3768294 1.1184627 -0.72314894
-2.3803558 1.1380153 -0.72634768
-2.3819978 1.1568109 -0.72901338
-2.3791766 1.173537 -0.7303462
-2.3719311 1.1881132 -0.7303462
-2.3491337 1.1947783 -0.72554803
-2.3537471 1.2153618 -0.72927994
-2.3539281 1.2338091 -0.73167902
-2.3420589 1.2459656 -0.7303462
-2.3318255 1.2589387 -0.72954649
-2.3401163 1.2820231 -0.73461121
-2.3246245 1.2921425 -0.73221213
-2.3082576 1.3016468 -0.72954649
-2.3035736 1.3177 -0.73061275
-2.2721038 1.3182641 -0.72314894
-2.2789237 1.3409805 -0.72794712
-2.2830667 1.362348 -0.73194557
-2.2730157 1.3753328 -0.73141247
-2.2530332 1.3821968 -0.72768056
-2.2420545 1.3944677 -0.72688085
-2.2473152 1.4169385 -0.73141247
-2.230458 1.4255099 -0.72874677
-2.2265224 1.4423137 -0.7303462
-2.2087686 1.4501286 -0.72741395
-2.1942124 1.4599161 -0.72554803
-2.1876106 1.4749688 -0.72634768
-2.1633997 1.478032 -0.72128296
-2.1717231 1.5033489 -0.7271474
-2.1561456 1.5122181 -0.72501487
-2.153111 1.5298861 -0.7271474
-2.1421189 1.5419424 -0.7266143
-2.1318388 1.5544893 -0.72634768
-2.127687 1.5715497 -0.72821367
-2.128036 1.5920821 -0.73167902
-2.112082 1.6004522 -0.72954649
-2.1075737 1.6174897 -0.73141247
-2.0930438 1.6268417 -0.72981304
-2.0822649 1.6390575 -0.72954649
-2.0947769 1.6698288 -0.73754346
-2.0979898 1.693549 -0.74234164
-2.0584581 1.682598 -0.73194557
-2.0607162 1.7056454 -0.7364772
-2.0856662 1.7479776 -0.74927235
-2.0646141 1.7520105 -0.74554044
-2.0275097 1.7420312 -0.73594409
-2.0233269 1.7601328 -0.73834318
-2.0218904 1.780797 -0.74180853
-1.9986978 1.7822634 -0.73727691
-1.9877243 1.7944937 -0.73727691
-1.9809443 1.8105583 -0.73887628
-1.9683828 1.8213698 -0.73834318
-1.9635 1.8393441 -0.74074227
-1.961967 1.8606434 -0.74447417
-1.9616363 1.883328 -0.74873924
-1.9417505 1.887267 -0.74554044
-1.9198297 1.8890049 -0.74154192
-1.904789 1.897348 -0.7402091
-1.881575 1.8973645 -0.73567748
-1.8631538 1.9019881 -0.73301184
-1.8574797 1.9196186 -0.73541093
-1.8310167 1.9156501 -0.72954649
-1.8384143 1.9471744 -0.73727691
-1.8527234 1.9866153 -0.74793953
-1.8104634 1.9653343 -0.73567748
-1.8249621 2.0056367 -0.74660671
-1.7984492 2.0010247 -0.74074227
-1.7765405 2.0012095 -0.73674375
-1.7775701 2.0272925 -0.74234164
-1.7625738 2.0352466 -0.74127537
-1.7751089 2.0753233 -0.75193799
-1.7523912 2.0743947 -0.74767298
-1.7365432 2.0814075 -0.74634016
-1.720675 2.088304 -0.74500728
-1.7053961 2.0958319 -0.74394101
-1.697937 2.113019 -0.74634016
-1.6819447 2.1196222 -0.74500728
-1.6588027 2.1170044 -0.74047565
-1.6628836 2.149251 -0.74820608
-1.6443995 2.1525202 -0.74580699
-1.6224562 2.1510265 -0.74180853
-1.6178609 2.1725373 -0.74580699
-1.6045001 2.1824234 -0.74580699
-1.6012676 2.2062688 -0.75060517
-1.5742301 2.1972475 -0.74420762
-1.5729599 2.2241788 -0.75007206
-1.5625926 2.2385306 -0.75167143
-1.56687 2.2742698 -0.76046813
-1.5220001 2.2384076 -0.74527389
-1.5007195 2.2364988 -0.74154192
-1.4757957 2.2287879 -0.73594409
-1.4868655 2.2757266 -0.74847263
-1.4739183 2.286427 -0.74900579
-1.4458983 2.273468 -0.74180853
-1.4278241 2.2757652 -0.739676
-1.4290473 2.3090718 -0.74767298
-1.4208773 2.3276691 -0.75087172
-1.3931482 2.3140478 -0.74367446
-1.4005694 2.35902 -0.75540334
-1.3763311 2.3509331 -0.75007206
-1.3464643 2.3326209 -0.74154192
-1.3478546 2.3684835 -0.75033861
-1.32481 2.3615777 -0.74554044
-1.3088958 2.3671319 -0.74474072
-1.2888134 2.3649621 -0.74154192
-1.2847641 2.3923566 -0.74767298
-1.256089 2.3737843 -0.73940945
-1.2455093 2.3891392 -0.74180853
-1.2391902 2.4130273 -0.74687326
-1.2200115 2.4119844 -0.74420762
-1.2107743 2.4306407 -0.74767298
-1.1877747 2.421582 -0.74260819
-1.1816936 2.4470515 -0.74820608
-1.1587962 2.4377165 -0.74314135
-1.1430001 2.4430346 -0.74260819
-1.1312122 2.4570065 -0.74474072
-1.1173079 2.4665351 -0.74554044
-1.0962694 2.4601381 -0.74154192
-1.0966257 2.5021303 -0.7522046
-1.0671412 2.4760613 -0.74234164
-1.0620787 2.5065243 -0.7495389
-1.043715 2.5058758 -0.74740636
-1.0133538 2.4756598 -0.7364772
-1.0189977 2.5336971 -0.75193799
-1.0041401 2.5416949 -0.75247115
-0.98155487 2.5298367 -0.74713981
-0.96224046 2.5259037 -0.74420762
-0.94503623 2.5272465 -0.7428748
-0.92951155 2.5329976 -0.7428748
-0.91101444 2.5304914 -0.74047565
-0.89707452 2.5405779 -0.74180853
