# .PCD v0.7 - Point Cloud Data file format
VERSION 0.7
FIELDS x y z
SIZE 4 4 4
TYPE F F F
COUNT 1 1 1
WIDTH 1538
HEIGHT 1
VIEWPOINT 0 0 0 1 0 0 0
POINTS 1538
DATA ascii
-14.128145 -46.062519 8.0951881
-14.342672 -45.758526 8.0570688
-14.556409 -45.461159 8.0202761
-14.800447 -45.265068 8.0015478
-14.943025 -44.769295 7.9299493
-15.210447 -44.656223 7.9263034
-15.226834 -43.821484 7.7945433
-15.427575 -43.535744 7.7604012
-15.709828 -43.482929 7.7680254
-16.056423 -43.603191 7.8069735
-16.085653 -42.869534 7.6931124
-18.670563 -48.845127 8.7861423
-16.417328 -42.172657 7.6036153
-16.66888 -42.053711 7.6004663
-16.655014 -41.277546 7.4784842
-16.881002 -41.108894 7.4665513
-17.084259 -40.888069 7.4453373
-17.261139 -40.609123 7.4136815
-17.457155 -40.380241 7.3913069
-17.65181 -40.152298 7.3692641
-17.834669 -39.901882 7.3432436
-17.980038 -39.573524 7.3029699
-18.203913 -39.422165 7.2955117
-18.181957 -38.748173 7.1912637
-18.354437 -38.499683 7.165906
-18.56625 -38.336636 7.1566248
-18.76326 -38.145008 7.1422057
-19.006216 -38.047688 7.1456861
-19.140724 -37.735981 7.1090584
-19.18273 -37.250469 7.0396152
-19.369358 -37.052536 7.0245333
-19.573694 -36.890305 7.0164118
-19.791264 -36.75388 7.0134287
-19.719913 -36.089146 6.909512
-19.903683 -35.900192 6.8965845
-20.1028 -35.740429 6.8894582
-20.310478 -35.59671 6.8856463
-20.47714 -35.382648 6.8684096
-20.562569 -35.032658 6.824821
-20.703493 -34.782104 6.8006234
-20.882381 -34.597851 6.7895193
-20.985144 -34.290741 6.7543831
-21.07349 -33.965244 6.715601
-21.225319 -33.745983 6.6978669
-21.346094 -33.4804 6.6710176
-21.476187 -33.232838 6.6478148
-21.607292 -32.989891 6.6256061
-21.736225 -32.74659 6.6033974
-21.874548 -32.520138 6.5846696
-22.049793 -32.350266 6.5775428
-7.8474393 -11.363107 2.3187871
-8.0272646 -11.472302 2.3511057
-8.1294451 -11.467885 2.3603868
-8.215189 -11.439415 2.3648617
-8.2347517 -11.319413 2.3504426
-8.2970295 -11.259146 2.348454
-8.3282051 -11.157446 2.3378468
-8.2240343 -10.878008 2.2897832
-8.2780352 -10.810898 2.2863028
-8.3448181 -10.760681 2.2864685
-8.4137325 -10.713154 2.2872972
-8.4940424 -10.67985 2.291275
-8.5823002 -10.655948 2.2974072
-8.6737003 -10.635184 2.304368
-8.7331409 -10.574921 2.3028765
-8.8022919 -10.526431 2.3040366
-8.8800974 -10.488028 2.3075171
-8.9628973 -10.455056 2.3123233
-9.225338 -10.6285 2.3632045
-24.542639 -27.927059 6.2462363
-24.689936 -27.749418 6.2402697
-24.808914 -27.540983 6.2275081
-24.908989 -27.313189 6.2104373
-25.041325 -27.122158 6.2018189
-25.145992 -26.902437 6.1867371
-25.265175 -26.699644 6.1756325
-25.393047 -26.507088 6.1670141
-25.520201 -26.314674 6.1585617
-25.664602 -26.140701 6.1545839
-25.755692 -25.91349 6.1381764
-25.86035 -25.701439 6.1254144
-25.985191 -25.5105 6.1177907
-26.097338 -25.30801 6.1075149
-26.197298 -25.094877 6.0947533
-26.326429 -24.910616 6.0891185
-26.455727 -24.727062 6.0838146
-26.55913 -24.520117 6.072876
-26.680662 -24.330776 6.0664124
-26.800875 -24.140869 6.0599489
-26.909447 -23.941225 6.0511646
-27.027691 -23.750923 6.0448666
-27.140146 -23.556196 6.0375743
-27.251228 -23.360983 6.030282
-27.339865 -23.147453 6.0183492
-27.445066 -22.948898 6.0103936
-27.579279 -22.775043 6.009068
-27.695576 -22.586693 6.0040956
-27.805227 -22.393444 5.9979634
-27.929756 -22.212591 5.9953117
-28.053116 -22.031055 5.99266
-28.143347 -21.824062 5.9832129
-28.259502 -21.637777 5.9795666
-28.35791 -21.438402 5.9724402
-28.467581 -21.24807 5.9679651
-28.61171 -21.083527 5.9709487
-28.71183 -20.886688 5.964982
-28.805805 -20.685961 5.9580212
-28.91127 -20.493996 5.953712
-29.027588 -20.309996 5.951889
-29.149225 -20.129822 5.9513917
-29.249372 -19.935034 5.9467511
-29.360504 -19.748034 5.9445963
-29.458117 -19.552238 5.9399557
-29.552782 -19.354912 5.9349837
-29.671814 -19.17375 5.9351497
-29.778093 -18.984434 5.9329948
-29.888176 -18.797686 5.9318347
-29.997925 -18.610821 5.9308405
-30.117443 -18.430012 5.9320006
-30.220673 -18.239262 5.9301772
-30.335407 -18.055504 5.9308405
-30.449026 -17.871029 5.9315033
-30.559813 -17.684847 5.9318347
-30.66518 -17.495539 5.9313374
-30.756481 -17.298347 5.9283543
-30.868942 -17.113131 5.9296803
-30.986349 -16.930492 5.9321661
-31.09833 -16.744719 5.9338236
-31.217041 -16.56237 5.9369726
-31.339928 -16.381935 5.9411159
-31.430212 -16.184362 5.9392929
-31.538599 -15.996112 5.9411159
-31.659094 -15.813751 5.945425
-31.762609 -15.622679 5.9467511
-31.867634 -15.432221 5.9485741
-15.772591 -7.5190177 2.9344969
-32.109962 -15.065966 5.9588499
-32.194641 -14.865351 5.9575238
-15.043919 -6.7236691 2.7672691
-16.06262 -7.0610251 2.9467614
-15.157885 -6.5526376 2.7732356
-16.161674 -6.8691669 2.9492474
-15.447433 -6.3429413 2.804394
-15.25194 -6.1535811 2.7619655
-14.693496 -5.8237014 2.654237
-15.428314 -6.0056601 2.7803624
-14.680949 -5.6112642 2.6393209
-15.595031 -5.8512135 2.7972674
-15.764827 -5.804822 2.8212991
-15.172109 -5.37609 2.7031293
-15.902539 -5.525311 2.8272655
-12.994635 -4.4258299 2.3050311
-13.128188 -4.3816037 2.323925
-13.254185 -4.3334522 2.3414929
-13.334999 -4.2694845 2.3511057
-13.44658 -4.2144203 2.3661876
-13.574011 -4.1630621 2.3840871
-14.758306 -4.4273725 2.5874455
-13.931625 -4.0863795 2.4379513
-13.579136 -3.8926666 2.3719885
-15.242795 -4.268518 2.6582148
-15.499854 -4.2381115 2.6984887
-13.045343 -3.4811211 2.2670774
-15.419946 -4.013555 2.6757827
-14.061123 -3.5679159 2.4359627
-14.070305 -3.4784949 2.4338081
-14.339708 -3.4518692 2.4767337
-14.264601 -3.3413274 2.46016
-14.235795 -3.2425694 2.4517076
-14.347859 -3.175617 2.4676182
-14.48181 -3.1121755 2.4873407
-14.581727 -3.0401649 2.5012627
-14.487011 -2.9277809 2.4818716
-15.114424 -2.9581606 2.5862854
-14.661646 -2.6831708 2.5029199
-15.034239 -2.6561203 2.5637453
-15.306907 -2.6075397 2.6074996
-15.576413 -2.4571495 2.6481049
-15.590221 -2.3613803 2.6479392
-79.358047 -5.1185684 13.362614
-55.252377 1.187636 9.2858372
-54.876347 1.5164735 9.2240171
-54.339699 1.8353813 9.1355143
-53.937202 2.1531901 9.0698824
-53.275745 2.4542835 8.9609938
-52.865757 2.7605593 8.8946991
-52.244328 3.0496557 8.7931032
-51.606598 3.3302782 8.6890211
-51.299919 3.6266987 8.6409578
-50.703453 3.897336 8.5443335
-50.202911 4.1688714 8.4641171
-49.825722 4.4455438 8.4049492
-49.528515 4.7255197 8.3595371
-48.905014 4.9690194 8.2592669
-48.602009 5.2397199 8.2133579
-48.057476 5.4795179 8.1268444
-47.556892 5.7182488 8.0479536
-47.232285 5.9734416 7.9990616
-47.033443 6.241734 7.971715
-47.156406 6.5527411 7.999227
-47.304638 6.8694587 8.0313797
-47.464405 7.190309 8.0658531
-47.653183 7.5182958 8.1056299
-47.882534 7.8558941 8.1526985
-48.126049 8.1994038 8.2025852
-48.189426 8.5147934 8.2221422
-48.618389 8.8985615 8.304513
-48.579346 9.1998301 8.3073311
-48.847164 9.5613861 8.363018
-49.114296 9.9269648 8.4190369
-49.25423 10.27021 8.4536753
-49.513279 10.641656 8.5091972
-49.653103 10.990874 8.5446644
-49.976074 11.384482 8.6121197
-50.126122 11.742651 8.650239
-50.395409 12.132402 8.7094069
-50.550735 12.49844 8.7493486
-50.644196 12.851797 8.7790155
-50.831608 13.231864 8.8254213
-51.30019 13.690487 8.921217
-51.476814 14.076536 8.966795
-51.415115 14.399307 8.9712696
-52.480812 15.394753 9.1895437
-52.550667 15.766072 9.2185478
-55.356987 17.35128 9.7475777
-60.493965 19.369894 10.673048
-60.278366 19.709452 10.656143
-9.4295368 3.211658 1.6720848
-59.390228 20.636641 10.564491
-59.157448 20.963442 10.545763
-58.958145 21.300898 10.533333
-58.770809 21.641811 10.523389
-66.469818 25.876049 11.985513
-57.537159 22.806149 10.399584
-57.319317 23.127764 10.385662
-57.07872 23.43895 10.367928
-56.807346 23.735889 10.344891
-7.888031 3.3526888 1.4383968
-7.7586865 3.3540652 1.4185085
-7.7090716 3.3889079 1.4132049
-7.6800299 3.4325244 1.4117134
-7.6956348 3.4963088 1.4185085
-7.6176319 3.517416 1.4080671
-7.5896564 3.5611584 1.406907
-7.6023798 3.6242118 1.4133707
-7.6545544 3.706898 1.4272925
-54.317554 26.718512 10.171199
-59.717747 31.217815 11.322734
-53.02813 28.136385 10.086674
-52.807606 28.435982 10.077724
-52.599247 28.741499 10.071426
-52.371876 29.035965 10.061813
-52.128262 29.320507 10.049383
-51.937096 29.633942 10.047395
-51.710758 29.926872 10.038941
-19.727289 11.578923 3.8422337
-20.758249 12.703484 4.0880203
-19.185793 11.90359 3.7925129
-20.888792 13.138407 4.1451993
-19.453209 12.402686 3.8752151
-21.404343 13.832133 4.2809372
-21.465912 14.059387 4.3104382
-20.386702 13.53201 4.110229
-20.543861 13.818667 4.1589556
-20.209332 13.774503 4.1082401
-18.803375 12.985889 3.8384218
-6.1701722 4.3172145 1.2635453
-6.1435657 4.3549929 1.2635453
-17.841858 12.813217 3.6895907
-17.497347 12.729259 3.6344006
-20.709572 15.261383 4.3213768
-19.162212 14.303336 4.0165882
-5.985847 4.5253382 1.2590704
-19.628075 15.029645 4.1526575
-5.9773998 4.6353183 1.2691803
-5.8759422 4.6146502 1.2536011
-18.8279 14.974641 4.0409513
-5.8434482 4.7062044 1.2589046
-18.66641 15.223882 4.0460892
-18.587095 15.350061 4.0492382
-18.228535 15.243035 3.9913962
-18.063915 15.294695 3.975817
-6.1657696 5.2856827 1.3628212
-19.018049 16.507504 4.2302217
-17.73044 15.581635 3.9648783
-19.779932 17.599043 4.4475021
-17.381824 15.657453 3.9295766
-19.626596 17.898926 4.4620867
-17.269526 15.944502 3.948139
-17.333467 16.201685 3.9854298
-18.995113 17.974504 4.3929749
-18.898708 18.104361 4.3962893
-19.305471 18.722544 4.5176082
-18.263453 17.93074 4.299334
-18.193655 18.082788 4.3089466
-19.415003 19.534979 4.6266627
-37.687023 38.38842 9.0388899
-37.460377 38.628853 9.0412102
-37.246525 38.8829 9.0470114
-37.023514 39.127903 9.0509892
-36.814381 39.388199 9.0587778
-36.594749 39.637985 9.0644131
-36.38673 39.901127 9.0733633
-36.166298 40.151485 9.0796614
-35.943504 40.399902 9.0857935
-35.74897 40.681175 9.0995493
-35.516781 40.920612 9.1041899
-35.30418 41.183441 9.1142998
-35.069935 41.421867 9.1192722
-34.871414 41.703606 9.1340227
-34.655689 41.966213 9.1447954
-34.438046 42.227741 9.1555681
-34.200562 42.465908 9.1615343
-33.968201 42.711235 9.1693239
-33.78833 43.024334 9.191864
-19.79113 25.521738 5.4256768
-19.644951 25.656788 5.4286599
-19.491911 25.783138 5.4299855
-19.502634 26.12907 5.4775519
-18.70311 25.381294 5.2965684
-18.760509 25.789051 5.3575592
-18.634245 26.287655 5.4132466
-18.913572 27.031761 5.5425205
-19.265783 28.267414 5.7470388
-17.37808 25.836922 5.2309365
-33.395477 50.315083 10.147001
-30.717442 46.902294 9.4204149
-18.195887 28.158531 5.6323495
-17.36672 27.99259 5.5342336
-17.21574 28.133112 5.541029
-16.969925 28.117479 5.5173287
-16.310858 27.404156 5.3575592
-17.306488 29.905993 5.8048811
-16.64472 29.173895 5.6427908
-16.234774 29.284529 5.6252227
-15.830179 28.972521 5.5464983
-15.784419 29.314837 5.5934014
-27.147913 51.169113 9.7328272
-16.173161 30.940521 5.8653746
-26.335728 51.924881 9.7827139
-26.041746 52.135784 9.792161
-14.882904 31.22019 5.8105159
-14.80458 31.552866 5.8554306
-14.931082 32.336998 5.9838758
-14.047928 30.9214 5.7057705
-13.967784 31.252806 5.7510166
-13.863462 31.537441 5.7876444
-13.595734 31.450829 5.75632
-3.3897629 7.975142 1.4543076
-13.825109 33.669888 6.1149731
-13.024641 32.862461 5.9387956
-2.9900694 7.6811171 1.3832067
-3.3579798 8.7853909 1.5786096
-3.3306847 8.8769264 1.5913713
-3.0192325 8.19942 1.4664062
-3.230212 8.9412451 1.5956805
-3.0202572 8.8675623 1.5723116
-11.106641 33.27869 5.8940468
-2.8345721 8.8530912 1.5602129
-2.7860954 8.8891382 1.5635276
-2.760704 9.0012913 1.580267
-3.0301466 10.100555 1.7702006
-2.4094956 8.4049997 1.4674007
-8.8271189 32.283791 5.6227369
-2.0209796 7.5732265 1.3152549
-16.502403 63.403996 11.008664
-2.0823874 8.2063532 1.4208288
-2.3567002 9.5324612 1.6482188
-2.2665327 9.6758852 1.6681072
-2.1880665 9.6059561 1.6536881
-2.0873168 9.4304781 1.6212038
-1.974094 9.1856775 1.5769522
-1.9233302 9.2246494 1.5815928
-1.9129882 9.4653683 1.6208723
-1.9482507 9.9540586 1.7025802
-14.795264 78.139519 13.363442
-14.352454 78.430603 13.397916
-1.5776908 9.2609978 1.5767865
-1.5201982 9.2666121 1.5761236
-5.978672 39.474087 6.7076454
-1.4590994 10.501602 1.7798133
-1.4029362 10.572924 1.7904204
-1.1549577 9.1333284 1.5451308
-4.8458557 40.311562 6.8215065
-1.3111715 11.501335 1.9433948
-1.0424418 9.6707401 1.6326395
-4.3024373 42.357151 7.1531444
-0.76412493 8.5655537 1.4432032
-0.98402119 11.852601 1.9967618
-0.72717237 9.462182 1.592863
-0.66673642 9.4330196 1.5872279
-0.82154346 12.734735 2.1426096
-0.73730117 12.635181 2.1250417
-0.55076629 11.960585 2.0101864
-0.52205426 13.084124 2.1986284
-0.31738538 9.4009018 1.5787753
-0.25907078 9.3799982 1.5749635
-0.16930844 7.880806 1.322713
-0.12084378 7.8747945 1.3215529
-0.11773842 12.798141 2.1489077
-0.039124101 12.77101 2.1442671
0.038741853 12.610266 2.1172521
0.13660794 14.831537 2.4906554
0.18645859 12.151311 2.0403504
0.26527449 12.348112 2.0736635
0.33305326 12.057414 2.0251026
0.40882778 12.108367 2.0340524
0.59704512 14.959306 2.5140243
0.58806604 12.768383 2.14609
0.67169756 12.865973 2.163161
0.67436457 11.555184 1.9432291
0.73915601 11.456352 1.9273185
0.83537847 11.818528 1.989138
0.89419937 11.635207 1.9591397
0.9899776 11.923355 2.0086949
1.0529528 11.803114 1.9894694
1.1415602 11.966266 2.0181417
1.233106 12.137601 2.0483057
1.1345122 10.524747 1.7769958
1.345315 11.800174 1.9939443
1.2714696 10.575633 1.7881001
1.3694985 10.829837 1.8325174
1.4331988 10.8007 1.829037
1.4516649 10.447875 1.7706978
1.7393887 11.978793 2.0322294
2.0564334 13.575744 2.3055282
1.866737 11.832833 2.0111809
2.0141902 12.277568 2.0889111
2.2807937 13.387823 2.2803364
2.3927546 13.542553 2.3091745
2.161006 11.807709 2.0153244
2.3565447 12.44439 2.1265333
2.4031153 12.277751 2.1005127
3.2571783 16.115732 2.7611368
2.5119314 12.047498 2.0662053
4.061451 18.897587 3.2464123
3.9808161 17.98455 3.0936036
4.1064253 18.027094 3.1052051
4.3211055 18.446119 3.1819408
4.3721161 18.161346 3.137358
4.4361291 17.942711 3.1042106
4.3634834 17.195381 2.9794114
4.4845619 17.228409 2.9898527
4.7929296 17.527845 3.0518382
5.0745902 18.120113 3.1603951
5.2454686 18.297192 3.1968572
5.2324467 17.837881 3.1221101
5.3602195 17.866838 3.1328831
5.3731604 17.518711 3.077527
5.6180043 17.923929 3.1547601
5.4960151 17.164999 3.0269775
6.0336871 18.453533 3.2608314
6.1567941 18.446098 3.266135
6.3948221 18.774841 3.3312693
7.8541803 22.603914 4.0195713
6.3259726 17.851868 3.1809466
6.4434323 17.834976 3.1849241
6.5316167 17.737728 3.1746485
8.5253763 22.72105 4.0764189
6.911469 18.081818 3.2512186
8.8014088 22.609205 4.0754242
8.9356108 22.543776 4.0734353
9.0682335 22.474804 4.0709496
20.911821 50.92469 9.2498722
7.6521835 18.003044 3.285526
9.6616745 22.348682 4.0898433
10.961497 24.934126 4.5754504
9.9243345 22.204126 4.0853686
10.252934 22.566595 4.1635962
11.623661 25.172216 4.6576552
10.462481 22.297127 4.1372437
11.906224 24.974268 4.6477113
10.746489 22.190134 4.1415529
12.415077 25.239532 4.7251101
16.291862 32.119507 6.0506678
24.550144 47.673206 9.0098858
24.821184 47.481468 9.0022621
16.565081 31.220068 5.9376354
16.758202 31.121313 5.9382982
16.982418 31.079344 5.9500656
18.78488 33.397346 6.4376612
26.689857 46.117546 8.9528732
19.403625 32.598335 6.3735213
27.475098 45.520523 8.9336472
27.973923 45.086918 8.9152508
31.98214 50.847996 10.093303
28.434973 44.598877 8.8870754
28.653494 44.339081 8.8701706
28.96554 44.224308 8.8826008
29.198719 43.989048 8.8711653
29.489546 43.840977 8.8776283
33.605988 49.304714 10.025848
29.95639 43.375984 8.8572435
30.255901 43.239838 8.8671875
30.773888 42.850876 8.8642044
31.01535 42.632534 8.8582373
31.203808 42.342983 8.8376865
31.731186 41.970253 8.8405037
32.229328 41.558998 8.8365259
32.397228 41.250328 8.8129911
32.654026 41.056168 8.8141518
33.149048 41.157642 8.8794518
33.215221 40.725727 8.8300629
33.650364 40.746231 8.8791199
33.696041 40.295391 8.8257532
34.117901 40.294849 8.8713303
34.25346 39.955223 8.842658
34.65461 39.43335 8.8206158
34.825775 39.141136 8.8028812
35.079803 38.942833 8.8065281
35.335369 38.7458 8.8108368
35.569099 38.524635 8.810008
35.813568 38.315025 8.8121634
36.065613 38.113178 8.8164721
36.300838 37.893307 8.8169689
36.583469 37.72224 8.8292341
36.81424 37.497059 8.8292341
37.065872 37.29285 8.8345375
37.306591 37.077229 8.8375206
37.550278 36.864201 8.8414984
37.807625 36.663994 8.8489561
38.046833 36.445648 8.852437
40.120014 37.962261 9.2805328
40.417755 37.776649 9.2956152
39.009766 36.014767 8.9207201
40.913994 37.310379 9.3037367
39.598999 35.668648 8.9546957
39.73238 35.349617 8.9356365
41.728649 36.669441 9.3339005
40.115517 34.818008 8.9250288
40.345623 34.585968 8.9288416
40.599979 34.374084 8.9382877
40.82526 34.136974 8.9416027
41.094788 33.936069 8.9548616
41.325165 33.701973 8.9598341
41.555759 33.467564 8.9651375
41.785801 33.232208 8.9706068
44.657726 35.071075 9.540905
42.582458 33.020908 9.0539722
46.916195 35.922707 9.9285612
43.048191 32.544041 9.0673962
43.260502 32.289314 9.0702143
43.507824 32.060123 9.0806551
43.998108 31.595701 9.1013727
44.138847 31.288073 9.0906
44.628971 31.225834 9.1519222
45.010426 31.083097 9.1908703
45.184814 30.795778 9.1877213
45.399113 30.535564 9.1930246
45.638203 30.291328 9.2036314
46.039356 30.152287 9.2470541
46.23344 29.875648 9.2490435
46.511513 29.65237 9.2681026
46.743504 29.398449 9.2782125
46.969936 29.140194 9.2874937
47.330387 28.963146 9.3234587
47.562092 28.705307 9.3342314
47.766987 28.430582 9.3400326
47.966904 28.152431 9.34517
48.125084 27.849676 9.3425188
49.53558 21.775099 9.0917597
49.740673 21.502048 9.1050186
50.825909 20.869396 9.2318068
50.298191 20.292955 9.1131401
50.448345 19.994488 9.1179457
50.069035 19.136602 9.0062399
0.74651849 0.26471004 0.13107026
0.6680156 0.23229036 0.11681695
0.70490193 0.2402685 0.12311493
0.7260074 0.24249493 0.12659539
0.73404306 0.24018084 0.12775554
0.73832059 0.23657438 0.12825274
0.74916863 0.23498893 0.12991011
0.76191032 0.23385744 0.13189894
0.769943 0.23116153 0.1330591
0.77797103 0.22837578 0.13421924
0.78125364 0.22414143 0.13455072
0.78546321 0.22014128 0.13504793
0.78679919 0.21531764 0.13504793
0.78715271 0.21023162 0.1348822
0.78461033 0.20440422 0.13421924
0.77915859 0.19788833 0.1330591
0.77748609 0.19239378 0.13256189
0.77194047 0.18600409 0.13140173
0.76826632 0.18013956 0.13057305
0.7683956 0.17520316 0.13040732
0.76849329 0.17027198 0.13024159
0.77048779 0.16576058 0.13040732
0.77245575 0.1612311 0.13057305
0.77246392 0.15629302 0.13040732
0.76953709 0.1507927 0.12974438
0.77238578 0.14643501 0.13007584
0.7820003 0.14329062 0.13156748
0.83530599 0.14775385 0.14051722
0.81869787 0.13964498 0.13753398
0.87890238 0.14435628 0.14764388
0.91094357 0.14387767 0.15294743
0.94398594 0.14315878 0.15841672
0.95948565 0.13948923 0.16090277
0.96325386 0.13400641 0.16139998
0.96699071 0.12848257 0.16189718
0.97069603 0.12291791 0.16239439
0.95674515 0.11519409 0.15990835
0.92509973 0.10563581 0.15443906
0.92965239 0.1003802 0.155102
0.98911816 0.10065328 0.16504617
1.0427297 0.099638365 0.17399593
1.0639492 0.095078148 0.17747638
1.0713922 0.089119121 0.17863654
1.0827348 0.083374508 0.18045963
1.0901121 0.077215977 0.18161978
1.0945017 0.070779614 0.18228273
1.101807 0.064464584 0.18344288
1.1071059 0.057959769 0.18427156
1.1064556 0.051120255 0.18410583
1.1126608 0.044566024 0.18510024
1.11587 0.037837796 0.18559745
1.1279107 0.031316724 0.18758628
1.1182222 0.024183823 0.18592893
1.1075031 0.017155895 0.18410583
1.0622256 0.0099434089 0.17648196
1.0377246 0.0010459191 0.15235934
1.0199071 -0.0052420245 0.14971431
1.0297465 -0.011604779 0.15118377
0.99602979 -0.017360236 0.14618759
0.99293792 -0.023403576 0.14574675
0.99771917 -0.029639119 0.14648148
0.99257594 -0.035586689 0.14574675
1.0585551 -0.044411112 0.15559216
1.0493704 -0.050483521 0.15426964
1.0460776 -0.056762561 0.1538288
1.0674322 -0.064478144 0.15706161
1.0314844 -0.068684444 0.15177155
1.0004762 -0.085162587 0.14736316
0.96545595 -0.088175625 0.14222004
0.97868037 -0.095432155 0.14427729
0.98988366 -0.10265156 0.14604065
1.3023897 -0.54703778 0.20805196
1.3226632 -0.56511176 0.21187258
1.3418555 -0.58306098 0.21554624
1.3445873 -0.59407878 0.21657485
1.333697 -0.59907889 0.21539928
1.3632954 -0.62243587 0.2208363
1.3361169 -0.61997539 0.2170157
1.3340774 -0.62900478 0.21730958
1.3230546 -0.63376349 0.21613401
1.3146926 -0.63970786 0.21539928
1.3107427 -0.6477626 0.21539928
1.3032063 -0.65402001 0.2148115
1.3009319 -0.66290128 0.21510538
1.2942036 -0.66950899 0.21466455
1.2926992 -0.67881584 0.21510538
1.2893828 -0.68719977 0.21525234
1.3025471 -0.70450163 0.21819127
1.3155471 -0.72199064 0.22113019
1.3292451 -0.7401461 0.22421606
1.3513838 -0.76335758 0.22877139
1.3792959 -0.7903077 0.23435536
1.3786979 -0.80123919 0.23509009
1.3711985 -0.80817801 0.23464924
1.3653646 -0.81606913 0.2345023
1.3594854 -0.82391924 0.23435536
1.3493464 -0.82914048 0.23347367
1.3450732 -0.83792692 0.23362063
1.3357236 -0.84352547 0.2328859
1.3263562 -0.84904087 0.23215117
1.3211217 -0.85716325 0.23215117
1.3133572 -0.86362404 0.23171031
1.3055632 -0.87002188 0.23126948
1.3026602 -0.87967587 0.23171031
1.2964216 -0.88709408 0.23156337
1.2950197 -0.89784825 0.23229811
1.2943443 -0.90918666 0.23317978
1.2959967 -0.92226994 0.2345023
1.2911159 -0.93078274 0.23464924
1.2821842 -0.93635535 0.23406146
1.285165 -0.95067197 0.23567787
1.2753483 -0.95557576 0.23494314
1.2781311 -0.96995705 0.23655955
1.2870613 -0.98922759 0.23935153
1.2934602 -1.0068222 0.24170266
1.2903664 -1.017188 0.24229045
1.2578087 -1.0041157 0.23729427
6.9913001 -5.6476994 1.3333665
6.961874 -5.6948743 1.3343952
6.9519396 -5.7583041 1.3392444
6.9490676 -5.8281822 1.3455631
6.9139299 -5.8713512 1.34571
6.8650227 -5.9027019 1.3432119
6.8197217 -5.9369206 1.3414485
6.7764864 -5.9727678 1.340126
6.7323298 -6.0076499 1.3386565
6.7026811 -6.0554762 1.340126
6.6690488 -6.0998268 1.3408608
6.6140757 -6.1245046 1.337334
6.5705981 -6.1595612 1.3361585
6.5384207 -6.2052083 1.337334
6.5023627 -6.2472663 1.3377749
6.460362 -6.2835984 1.3370402
6.457634 -6.358511 1.3445344
6.4212995 -6.4008079 1.3451222
6.3449998 -6.402853 1.337334
6.3374243 -6.4741774 1.3440936
6.3257728 -6.5420938 1.3501184
6.2738972 -6.5686259 1.3476204
17.535686 -18.584635 3.7941289
17.660744 -18.948751 3.8462946
17.265436 -18.754036 3.7851651
17.103455 -18.808395 3.7748787
7.1389389 -7.9486132 1.5853794
7.8863244 -8.8897734 1.7636253
7.8225026 -8.9275808 1.761568
17.063963 -19.716091 3.8718634
16.492752 -19.294117 3.769001
6.9223866 -8.2001371 1.5924329
8.2921572 -9.945693 1.9218863
8.2347479 -10.000966 1.922768
8.2181625 -10.10656 1.9333482
8.1064453 -10.095097 1.9215925
6.9343386 -8.744976 1.6562074
6.7347941 -8.6012335 1.6210873
7.4237046 -9.6017351 1.8012434
7.7536144 -10.156559 1.8964647
7.7179427 -10.239488 1.9030772
6.8447185 -9.1979685 1.7014669
5.1107578 -6.956872 1.2806128
5.0261588 -6.9304509 1.2700326
6.2331481 -8.7063532 1.588906
5.900434 -8.3494434 1.5170493
6.0296278 -8.6442766 1.5639253
6.5761356 -9.5520248 1.7210108
6.1393585 -9.0358696 1.6210873
6.0182409 -8.9756088 1.6036007
6.5662346 -9.9238672 1.7659763
4.6919413 -7.1869454 1.2732655
4.8625703 -7.5490403 1.332191
5.637094 -8.9917393 1.5747993
3.901233 -6.3089423 1.1001627
5.0008917 -8.1989288 1.424914
3.7730343 -6.2724328 1.0856152
4.8832455 -8.2316084 1.4200648
4.1997762 -7.1797037 1.2338839
4.0315852 -6.9902797 1.1970004
4.6971612 -8.2607708 1.4099256
4.6502552 -8.296339 1.4111011
3.890274 -7.0416598 1.1933267
3.943975 -7.2434769 1.2234507
4.0009551 -7.4566698 1.2553381
3.9440296 -7.4600925 1.2518114
3.9324565 -7.5499454 1.2628323
3.8982506 -7.597693 1.2667999
3.8479888 -7.6144071 1.2656243
3.8122151 -7.6600118 1.269298
4.5570302 -9.2988787 1.5365932
3.0038896 -6.226522 1.0252202
4.4282694 -10.460759 1.6857437
3.1185474 -7.4951267 1.2042007
3.0863543 -7.5479951 1.2096378
3.151736 -7.8448873 1.2541624
3.0773921 -7.7978344 1.2435824
4.0774164 -10.519736 1.6742818
3.4835835 -9.1541929 1.4532747
2.6404626 -7.0692668 1.1192658
2.6092947 -7.1187682 1.1245558
3.3449607 -9.3014631 1.4666468
3.2865086 -9.3180809 1.466059
3.1943507 -9.237113 1.4501889
3.7521739 -11.069185 1.7345299
3.6891737 -11.107019 1.736881
3.1602976 -9.713851 1.5157268
3.1012359 -9.7349443 1.5160208
3.0390887 -9.7462349 1.5148451
3.2248592 -11.311304 1.7455509
3.1506164 -11.313727 1.7429057
3.0987875 -11.397751 1.7528981
12.539857 -53.873901 8.2155952
9.5259695 -49.03619 7.4191465
6.9186697 -44.261982 6.6535563
4.0030494 -63.433384 9.4405394
3.6028416 -63.265171 9.4120321
3.2041464 -63.080612 9.3814669
2.8099704 -62.940975 9.3579559
2.4122622 -62.659519 9.3137245
1.6317943 -62.251308 9.249362
1.2441955 -61.981266 9.2079239
0.86096525 -61.780033 9.1770649
0.48031333 -61.584351 9.1473818
0.10187165 -61.252796 9.0978603
-0.27318045 -61.075218 9.071557
-0.64781046 -61.061508 9.0699406
-1.0201476 -60.917927 9.0493689
-1.3830339 -60.434868 8.9786873
-1.749096 -60.262096 8.9544411
-2.1121171 -60.059448 8.9260807
-2.4754522 -59.92083 8.9075651
-2.8283525 -59.594273 8.8614244
-3.1858096 -59.423683 8.8387947
-3.5403361 -59.235165 8.8138132
-3.8938408 -59.062305 8.7914772
-4.2435083 -58.861687 8.7653208
-4.5934854 -58.692535 8.7441607
-4.9384675 -58.484848 8.7175636
-5.2825918 -58.291885 8.6934643
-5.6388302 -58.244591 8.6914072
-6.0457644 -58.691029 8.7634106
-6.4634347 -59.180855 8.8423214
-6.9508519 -60.218014 9.003521
-7.4144483 -60.948959 9.119462
-7.7736058 -60.787521 9.1022692
-8.1194916 -60.537708 9.0721455
-8.475667 -60.378994 9.0559807
-8.8126945 -60.098797 9.0218897
-9.1690292 -59.963421 9.00984
-9.5059958 -59.712616 8.9807444
-9.0235815 -54.524948 8.2085419
-9.300024 -54.131252 8.1576986
-9.5535927 -53.633003 8.091279
-9.8146753 -53.205681 8.0357332
-10.078849 -52.818966 7.986506
-10.344007 -52.458199 7.9413934
-10.551256 -51.831566 7.8561645
-10.820516 -51.534489 7.8210444
-11.101797 -51.306637 7.7966514
-11.605914 -50.622768 7.7137737
-12.061641 -49.79686 7.6098828
-12.185284 -48.991428 7.4980564
-12.447498 -48.766224 7.4751329
-12.763271 -48.75304 7.4849782
-12.929635 -48.179897 7.4090071
-13.179391 -47.933701 7.3834386
-13.34137 -47.383488 7.311141
-13.668675 -46.357567 7.1781545
-13.933446 -46.208427 7.1681623
-14.212342 -46.107883 7.1659579
-14.624544 -46.431156 7.2300267
-14.607445 -45.402699 7.0836682
-14.849639 -45.202267 7.0664754
-14.99464 -44.716412 7.0047579
-15.241514 -44.544014 6.9922676
-15.288988 -43.803398 6.8905807
-15.513691 -43.585754 6.8711839
-15.765654 -43.447899 6.8645711
-15.925936 -43.063679 6.8191648
-16.147669 -42.853146 6.8013844
-16.250809 -42.337704 6.7352586
-16.422056 -42.011482 6.6992564
-16.54237 -41.565285 6.6441517
-16.744734 -41.333736 6.6234322
-16.943373 -41.097614 6.6021252
-17.127886 -40.83234 6.5762625
-17.262424 -40.45536 6.5324726
-17.454807 -40.220737 6.5117531
-17.567493 -39.809719 6.4625263
-17.774183 -39.618149 6.449007
-17.958252 -39.379642 6.4279938
-18.078096 -39.006657 6.3850856
-18.252197 -38.757183 6.3624558
-18.42691 -38.513298 6.3408546
-18.578133 -38.225136 6.3120532
-18.726515 -37.936577 6.2832518
-18.888905 -37.681244 6.2600341
-19.064569 -37.456207 6.24196
-19.233646 -37.221645 6.2224159
-19.344971 -36.880436 6.1850915
-19.516054 -36.658016 6.1677518
-19.664917 -36.397465 6.1440935
-19.809898 -36.133873 6.1199946
-19.969694 -35.900993 6.1011853
-20.094812 -35.609802 6.0725307
-20.24856 -35.373375 6.0532808
-20.389736 -35.118439 6.0309448
-20.547119 -34.89465 6.0140462
-20.671083 -34.617596 5.9880366
-20.846731 -34.430035 5.9776034
-20.992912 -34.196102 5.9592352
-7.2623024 -11.66777 2.0398843
-7.2947016 -11.561084 2.0290103
-7.3196716 -11.444442 2.0163729
-7.3316493 -11.309671 2.0005026
-7.4019923 -11.266126 2.0007966
-7.469336 -11.218025 2.0003557
-7.52807 -11.157223 1.9977106
-7.5824327 -11.090407 1.994037
-7.6334429 -11.01928 1.9896286
-7.6793203 -10.941467 1.9840447
-7.689569 -10.814332 1.969497
-7.7528892 -10.762933 1.9687622
-7.819366 -10.71596 1.9689091
-7.8690977 -10.6463 1.9649416
-7.9265676 -10.587523 1.9630313
-7.9967608 -10.54578 1.9643538
-8.0727644 -10.51142 1.9671458
-8.1437883 -10.470278 1.9687622
-8.1980877 -10.407679 1.9664111
-8.2408228 -10.330888 1.9614149
-8.3096514 -10.287054 1.9627374
-8.4327316 -10.309378 1.9768443
-8.4781647 -10.236111 1.9727298
-8.5624228 -10.209666 1.977726
-8.6313086 -10.164476 1.9791954
-8.8128071 -10.250088 2.0063806
-8.9359303 -10.265206 2.0200465
-9.01052 -10.223542 2.0226915
-9.2014933 -10.311986 2.0513461
-9.2725496 -10.264141 2.0531094
-9.4775391 -10.362529 2.084409
-25.03924 -27.043934 5.4734306
-25.191856 -26.876074 5.4706388
-25.353567 -26.718124 5.4700513
-9.7762756 -10.176038 2.0945482
-9.8040504 -10.080403 2.0872009
-9.8560019 -10.01019 2.0851436
-10.059683 -10.092448 2.1151206
-10.199402 -10.107823 2.1314318
-26.022242 -25.4755 5.4081869
-9.8469896 -9.5218754 2.0331247
-9.8687525 -9.4264297 2.0256305
-9.9177723 -9.3575535 2.0238671
-10.056767 -9.3727322 2.040472
-10.073336 -9.2733307 2.032243
-10.06199 -9.149456 2.0185771
-10.053921 -9.0300379 2.0057926
-10.086942 -8.9484844 2.0013843
-10.1305 -8.8766451 1.9991801
-10.165329 -8.7974882 1.9953595
-10.204833 -8.7227373 1.9925675
-10.2695 -8.669528 1.9947717
-10.361246 -8.6386595 2.0022659
-10.432382 -8.5900126 2.0057926
-10.492567 -8.5320797 2.0072622
-10.541636 -8.4650602 2.0066743
-10.596478 -8.4026766 2.0072622
-10.646279 -8.3362808 2.0069683
-10.699576 -8.2726145 2.0074091
-10.76586 -8.218812 2.0103481
-10.832674 -8.165103 2.0134339
-10.896059 -8.1085215 2.0159321
-10.947998 -8.0432692 2.0163729
-10.99074 -7.9712954 2.0151973
-11.028989 -7.8962212 2.0132868
-11.12085 -7.8592291 2.0212221
-11.15994 -7.7846193 2.0196056
-11.203422 -7.713192 2.0188708
-11.24972 -7.6437483 2.018724
-29.396189 -19.712351 5.2562442
-29.526485 -19.538158 5.2580075
-29.636703 -19.35067 5.256391
-29.737417 -19.157207 5.2533054
-29.841881 -18.966423 5.251101
-29.946802 -18.776129 5.2491908
-30.047144 -18.583179 5.2466927
-30.163136 -18.400009 5.2471337
-30.272926 -18.213057 5.2466927
-30.385811 -18.027971 5.2469864
-30.506954 -17.847681 5.2488971
-30.612467 -17.658182 5.2483091
-30.704762 -17.461212 5.2456641
-30.8165 -17.275385 5.2465458
-30.940102 -17.09602 5.2496319
-31.048761 -16.908218 5.2503662
-31.150181 -16.716454 5.2500725
-31.260908 -16.529629 5.2515421
-31.371393 -16.342531 5.2531586
-31.459639 -16.143862 5.2512479
-31.554571 -15.94874 5.2506604
-31.669546 -15.76364 5.2535992
-31.783438 -15.577729 5.2565379
-31.902475 -15.394024 5.2605057
-32.036537 -15.217082 5.2671185
-32.131992 -15.02148 5.2675591
-32.231647 -14.827761 5.2688818
-16.515224 -7.2319536 2.6766024
-16.598354 -7.1473055 2.6829212
-16.237473 -6.874094 2.617677
-16.219984 -6.7496295 2.6081254
-16.218065 -6.6323795 2.6012189
-16.25407 -6.4154267 2.5941656
-15.871654 -6.1521802 2.5270112
-15.151983 -5.7664986 2.4066622
-14.699893 -5.2867522 2.3189352
-16.115398 -5.6844735 2.5368564
-15.693791 -5.4276919 2.4651468
-15.534761 -5.2661858 2.4350228
-13.885571 -4.612246 2.1718419
-13.575936 -4.4170752 2.1190882
-16.600735 -5.2889652 2.5865242
-13.452537 -4.1950703 2.0916092
-14.811983 -4.5195403 2.2988036
-13.838534 -4.1298203 2.1436284
-13.959517 -4.0728168 2.1584699
-13.701731 -3.9065232 2.1148269
-13.673988 -3.8080454 2.1068916
-13.992031 -3.8042762 2.1522982
-14.161387 -3.7571671 2.1747808
-13.973503 -3.6156812 2.1424527
-13.888966 -3.5030169 2.1261418
-14.173392 -3.4824102 2.166405
-15.488376 -3.7049451 2.3640478
-14.259376 -3.3185346 2.1731644
-13.847263 -3.1331623 2.1073325
-16.336462 -3.5912828 2.4830742
-14.323848 -3.0567427 2.1740463
-38.715214 -7.767643 5.8643079
-38.774773 -7.5323973 5.8662181
-15.617488 -2.9341097 2.3589046
-14.452722 -2.6235216 2.1803648
-14.608846 -2.5593781 2.2015252
-14.721807 -2.4861674 2.2162197
-14.999414 -2.4384983 2.2557483
-15.018981 -2.3471813 2.2564831
-39.730545 -5.9607768 5.9665823
-39.79966 -5.7216687 5.9715786
-39.89967 -5.4863839 5.9814243
-40.029678 -5.2542067 5.9959717
-40.179924 -5.0233402 6.0137525
-40.203117 -4.7758889 6.0127234
-40.41449 -4.5497022 6.0400558
-40.442627 -4.301743 6.0402026
-40.657818 -3.8206758 6.0648894
-40.867714 -3.5875702 6.0928092
-41.094017 -3.3534806 6.123374
-41.276569 -3.1135483 6.1476202
-61.143738 -1.9782455 9.0863991
-60.408176 -1.5834599 8.9754543
-59.450558 -1.1933664 8.8318882
-59.020588 -0.82247877 8.7670841
-58.515129 -0.45634115 8.6914072
-57.721554 -0.095958851 8.5732622
-57.236385 0.25605339 8.5012589
-56.42268 0.59864902 8.3807631
-56.138062 0.94015694 8.3391771
-55.350018 1.2667267 8.2230892
-54.871552 1.5926983 8.1532898
-54.16581 1.9049228 8.0499868
-53.757778 2.2209151 7.9912081
-53.369663 2.533004 7.9356627
-52.61726 2.8209846 7.8261876
-52.249428 3.1228981 7.7741685
-51.90752 3.4222267 7.726264
-51.275833 3.696712 7.6354513
-50.679245 3.9664316 7.5500755
-50.319824 4.2491088 7.5002608
-49.826847 4.5155644 7.4307551
-49.268517 4.7699375 7.3516979
-48.861477 5.0333385 7.2954178
-48.48748 5.2956843 7.2442803
-47.964729 5.5366197 7.1711011
-47.594044 5.7899737 7.1208453
-47.207348 6.037107 7.0683856
-47.157654 6.3250747 7.0666223
-47.16301 6.6206336 7.0733819
-47.339745 6.9418964 7.1061511
-47.538754 7.2693133 7.1425934
-47.672016 7.5893245 7.1694846
-47.906578 7.9283624 7.2119522
-48.179707 8.2775955 7.2605915
-48.415287 8.6242342 7.3039408
-48.527798 8.9518232 7.3290682
-48.634216 9.2803755 7.3536086
-48.8937 9.6411858 7.40166
-49.144756 10.004344 7.4488297
-49.223778 10.335376 7.4702835
-49.387592 10.686578 7.5049629
-49.82024 11.100623 7.580934
-49.970051 11.456279 7.6142912
-50.219414 11.838244 7.6632242
-50.454422 12.220903 7.7103939
-50.536869 12.569648 7.7346401
-50.783699 12.962425 7.7844548
-51.189308 13.401037 7.8591037
-51.159618 13.729234 7.8673325
-51.60947 14.18999 7.9497695
-51.810879 14.587886 7.994441
-51.963711 14.975636 8.0320597
-52.110882 15.36497 8.0692368
-52.504292 15.83177 8.1450615
-52.60656 16.215399 8.1762133
-52.916473 16.667141 8.2401352
-53.151253 17.100269 8.2928886
-53.39209 17.539989 8.3471117
-53.718613 18.013178 8.4152956
-53.992657 18.474377 8.4758368
-54.299469 18.952326 8.5421095
-54.375992 19.354132 8.5726748
-54.736931 19.861839 8.6486464
-55.230053 20.425133 8.7462187
-55.286034 20.83234 8.7751665
-55.543175 21.319334 8.8365898
-8.2119446 3.4452522 1.32117
-7.8085394 3.3325341 1.2594526
-7.7425747 3.3606954 1.2521052
-7.7091389 3.402549 1.250048
-7.6727738 3.4429045 1.2475499
-7.6533041 3.4907396 1.2478437
-7.637126 3.5401294 1.2487255
-7.6233144 3.5907159 1.250048
-7.6350455 3.6536465 1.2556319
-7.715682 3.7505798 1.2726777
-54.206348 26.757381 8.9786873
-54.014618 27.076185 8.9742785
-53.776062 27.37076 8.9623766
-53.530655 27.660706 8.9495916
-53.29948 27.95694 8.9394522
-53.04137 28.237902 8.9250517
-52.816631 28.535555 8.9165287
-52.553814 28.811546 8.9018345
-52.336273 29.111351 8.8950748
-52.119625 29.411028 8.8887558
-51.893539 29.704725 8.881115
-20.706211 12.022336 3.5551941
-20.651657 12.160704 3.558574
-20.317625 12.132524 3.5137553
-21.622854 13.092528 3.7534246
-20.120848 12.352479 3.5056732
-20.273096 12.617865 3.5456426
-20.21788 12.756272 3.5496101
-19.343414 12.371155 3.4092765
-21.687504 14.058465 3.8377719
-18.729668 12.30509 3.3274274
-20.298401 13.695178 3.6358676
-19.584408 13.389078 3.522572
-20.022291 13.869458 3.6166177
-20.004015 14.039212 3.6288142
-6.2248611 4.4265695 1.1329318
-19.017162 13.698025 3.4799576
-18.907986 13.79638 3.4754024
-20.874502 15.428336 3.8543768
-17.462378 13.073009 3.2388189
-18.475855 14.009406 3.4427803
-19.558477 15.020148 3.6617303
-5.7784123 4.4948454 1.085762
-19.285654 15.190484 3.6452723
-21.48568 17.137909 4.0811148
-5.6777692 4.5867724 1.0825292
-18.426996 15.071974 3.5347686
-20.649317 17.102097 3.9813383
-18.081604 15.353543 3.5221312
-18.083065 15.546739 3.5409403
-17.94928 15.624281 3.5334461
-20.063791 17.682337 3.971199
-17.379778 15.507522 3.4585035
-19.020987 17.182625 3.8061783
-18.204969 16.649504 3.6631997
-18.867491 17.469179 3.8180811
-17.379353 16.290592 3.5369728
-17.20875 16.330198 3.522572
-18.695396 17.960152 3.8495276
-18.756449 18.241411 3.8850887
-18.519407 18.233326 3.8590791
-18.176586 18.340485 3.8342452
-37.635658 38.442902 7.9904737
-37.431385 38.706524 7.9973803
-37.200699 38.943336 7.9989963
-36.999062 39.211151 8.007225
-36.782047 39.463486 8.0125151
-36.566681 39.718266 8.0185404
-36.348907 39.971157 8.0244179
-36.128742 40.222137 8.0301495
-35.893078 40.456383 8.032794
-35.680023 40.716774 8.0408764
-35.468361 40.979809 8.0496931
-35.256737 41.244034 8.0589504
-35.036186 41.49889 8.0665913
-34.828403 41.770065 8.0776129
-34.590317 42.005886 8.0820208
-34.371861 42.266453 8.0914259
-34.160801 42.537483 8.103034
-33.91452 42.765667 8.1067076
-33.692947 43.025913 8.1167002
-33.268661 43.575294 8.1427097
-33.041744 43.833107 8.1528492
-32.813511 44.090569 8.1631355
-18.863163 25.673794 4.7310581
-19.131754 26.720446 4.8803558
-18.505573 26.183859 4.761476
-18.379087 26.346399 4.7704396
-18.246813 26.501854 4.7782278
-31.231979 45.962006 8.2535076
-17.884964 26.671198 4.7688236
-18.553473 28.800289 5.087697
-29.834354 47.583248 8.3416748
-17.304792 27.980209 4.8856459
-17.136389 28.091774 4.8866744
-16.931572 28.142996 4.8774166
-17.5616 29.599785 5.1112084
-17.006519 29.069225 5.0014396
-16.779398 29.089062 4.9870386
-16.632866 29.248219 4.996737
-16.376181 29.21254 4.9733725
-27.729891 50.184216 8.5159531
-27.448881 50.403801 8.5244761
-27.328995 50.925133 8.584137
-27.085369 51.223022 8.6061783
-16.28632 31.263493 5.2350841
-16.02915 31.236111 5.2139239
-26.29678 52.027168 8.6584911
-15.465229 31.070061 5.1541166
-14.861426 31.287813 5.1439772
-14.449235 30.907982 5.0668306
-14.095779 31.142445 5.076529
-24.295267 54.564159 8.8714161
-13.856195 31.641071 5.1297235
-3.770932 8.7581491 1.4147748
-3.8239481 9.033432 1.4554789
-3.8041735 9.1425667 1.4692918
-13.727427 33.565529 5.3855572
-13.131367 32.679001 5.2302346
-3.1789362 8.2020779 1.3050059
-3.1999784 8.409091 1.334836
-3.2542548 8.7121029 1.3798015
-3.1820097 8.6808281 1.3717195
-11.199174 31.137182 4.9140062
-3.0874186 8.7537365 1.3771565
-20.435408 59.081699 9.285511
-11.637263 35.031658 5.4821005
-19.431067 59.714027 9.3270969
-10.559336 33.140835 5.1654315
-2.8146665 9.0266933 1.4028721
-9.6370668 31.581076 4.9034262
-9.5392962 31.961874 4.9533877
-9.3513155 32.04829 4.9577966
-2.5554018 8.9636831 1.3828875
-2.5791814 9.2621975 1.4265305
-2.5557847 9.4009762 1.4454865
-2.5670595 9.6765289 1.4854559
-2.5336592 9.7926455 1.5008852
-2.416183 9.5807009 1.466059
-2.3254836 9.4656696 1.4462212
-2.3274317 9.7308407 1.4845742
-2.2784448 9.7911806 1.4916277
-1.9074101 8.4311781 1.2823762
-2.0695434 9.415554 1.430351
-1.9743581 9.252984 1.4037538
-1.9203533 9.2784853 1.4058111
-1.837504 9.161108 1.3862672
-1.7293813 8.9051886 1.3458569
-1.6500456 8.7843943 1.3260192
-1.6346378 9.0065184 1.3580534
-1.5218056 8.6880398 1.3085326
-1.4676443 8.692337 1.3077979
-1.4088835 8.667984 1.3028017
-1.3558239 8.6774435 1.3029486
-1.2997658 8.6670132 1.3001567
-1.2748566 8.8716192 1.3296928
-1.2333344 8.9733467 1.3437997
-1.3269528 10.11349 1.5135226
-0.95615602 8.0535469 1.2030252
-0.91103858 8.0975971 1.2087561
-0.93228042 8.7699108 1.3083856
-0.88643843 8.8551874 1.3202883
-0.97129804 10.341606 1.5412955
-0.80314058 9.1550932 1.3634905
-0.79450762 9.7424955 1.4503357
-0.73032326 9.6889935 1.4416659
-0.67981464 9.8225603 1.4609159
-0.74819797 11.865072 1.76436
-0.67914993 11.935606 1.7742053
-0.43154433 8.5076866 1.263714
-0.37867212 8.4953518 1.2615098
-0.32497793 8.4569902 1.2554851
-0.27080891 8.3886337 1.2450519
-0.31887943 12.186157 1.8091786
-0.25464773 12.713015 1.887207
-0.12141825 8.7551775 1.2989811
-0.099052958 12.770573 1.895436
-0.020659205 12.751157 1.8924971
0.039173979 8.6253633 1.2795842
0.1347914 12.65352 1.8780963
0.21408206 9.3292456 1.3845038
0.35276163 12.134755 1.8016843
0.50728214 14.409945 2.1402485
0.48544267 11.737158 1.7433467
0.54905975 11.5571 1.7170433
0.62520373 11.651299 1.731591
0.64906847 10.850425 1.6130053
0.70691532 10.71398 1.5933145
0.84091127 11.656562 1.7343829
1.1930728 15.237737 2.2688265
0.90758318 10.741535 1.5996332
0.97802722 10.786004 1.6071274
1.0601064 10.944219 1.6316675
1.1483184 11.142168 1.6622323
1.1421425 10.452502 1.5602516
1.2347225 10.691935 1.5971351
1.2724748 10.455374 1.5628966
1.4766177 11.542339 1.7268887
1.5046819 11.214442 1.6791312
1.6240609 11.56547 1.7332073
1.9321988 13.173045 1.9761095
1.7645192 11.53587 1.7318848
1.8245393 11.457423 1.7217455
1.9397005 11.717304 1.7625966
2.1967859 12.783381 1.9251192
2.1974754 12.333391 1.8592873
2.2160532 12.010346 1.8125583
2.3911138 12.527996 1.8929379
3.3211591 16.84037 2.5481713
2.4468114 12.016953 1.8200526
2.58757 12.321167 1.8685448
2.6560104 12.272187 1.8635486
3.876703 17.396797 2.6460376
4.1564388 18.1276 2.7610965
4.330451 18.368441 2.8018007
4.3045354 17.76952 2.7143676
4.5851369 18.432943 2.8200219
4.6878791 18.364208 2.8138502
4.7761731 18.242279 2.7995965
4.6495976 17.324158 2.6629364
4.7642002 17.325823 2.6676388
4.7800808 16.975397 2.6181178
5.0991654 17.691862 2.7334707
5.237556 17.761759 2.7491939
5.3749967 17.823992 2.7638886
5.4708586 17.747194 2.757129
5.4643574 17.347229 2.7001138
5.9981837 18.257135 2.8530848
5.7679577 17.199633 2.6932073
6.3825216 18.651966 2.926852
6.2729211 17.970865 2.8258998
6.6510615 18.684996 2.9446325
8.2274723 22.672773 3.5813506
8.2933578 22.424257 3.550051
6.7828588 17.999407 2.8557298
8.6586514 22.557201 3.5876694
8.8040981 22.522074 3.5906081
8.8850689 22.324257 3.5676847
8.9431486 22.074963 3.5365319
7.3125682 17.736235 2.8482356
7.4384751 17.73208 2.8548481
10.572707 24.776989 4.0001473
9.7483873 22.462233 3.6358676
9.7750168 22.150417 3.5950167
10.024514 22.343622 3.6363084
10.370728 22.740685 3.711251
10.258438 22.133665 3.6223485
10.503623 22.302973 3.6605546
10.590754 22.1346 3.6435089
23.629463 48.618847 8.0288267
12.269844 24.476419 4.0656857
24.424356 47.987022 7.9973803
24.610727 47.627987 7.962554
16.662231 31.76569 5.3270721
16.897268 31.738817 5.3398566
16.900806 31.281214 5.2801967
17.269461 31.046391 5.2759352
26.501894 46.298111 7.9233189
26.995274 45.845814 7.9020119
27.281647 45.688652 7.9036283
27.521515 45.454395 7.8921666
27.763159 45.224819 7.8817334
28.038561 45.051098 7.8812923
28.32238 44.890755 7.8834968
28.47419 44.523632 7.8495522
28.707569 44.287491 7.8388252
29.027107 44.184086 7.8519034
29.268068 43.960682 7.8439679
29.511806 43.74255 7.8372087
29.774069 43.552483 7.8357391
30.023283 43.343765 7.8311839
30.281851 43.149014 7.8294206
30.539162 42.952721 7.8276572
31.026062 42.522789 7.8181057
31.268167 42.306953 7.81355
31.515905 42.099255 7.8107581
31.739565 41.860153 7.8023825
31.992201 41.659908 7.8015008
32.225964 41.435497 7.7963576
32.463078 41.216003 7.7923899
32.699326 40.99593 7.7885695
33.006817 40.864544 7.8019414
33.251297 40.654358 7.8006191
33.520943 40.474705 7.8054681
33.715908 40.205357 7.7932715
33.986298 40.026375 7.7988558
34.210617 39.793083 7.7941532
34.446995 39.574215 7.7925367
34.683285 39.355431 7.7912145
34.901062 39.116043 7.7860713
35.133789 38.893818 7.7846017
35.374447 38.680428 7.7851896
35.616493 38.468452 7.786365
35.853893 38.251354 7.7868061
36.100857 38.044273 7.789598
36.333614 37.822044 7.789598
36.592587 37.626759 7.795476
36.867878 37.447338 7.8050275
37.108826 37.232327 7.8075256
37.363979 37.031086 7.8132563
37.603924 36.814278 7.8160481
37.842613 36.595913 7.8188405
38.073605 36.369862 7.8203096
38.403961 36.237389 7.8423519
38.657425 36.030739 7.8488173
38.89888 35.812294 7.8530788
39.152279 35.604218 7.8599854
39.392818 35.383804 7.8645406
39.628429 35.158493 7.868361
39.859776 34.92902 7.871594
40.135422 34.737518 7.8837905
40.355331 34.497025 7.8852601
40.592693 34.271091 7.8904033
40.828045 34.042915 7.8953991
41.068989 33.818794 7.9017181
41.328678 33.609226 7.9118571
41.628983 33.431187 7.9299316
41.873631 33.207085 7.937573
42.231571 33.070892 7.966815
42.482208 32.848656 7.9759259
42.711269 32.608978 7.981216
42.96505 32.387379 7.9913554
43.232796 32.17511 8.0042868
43.438171 31.915676 8.0059032
43.681229 31.68339 8.01472
44.000271 31.504604 8.0376434
44.197598 31.237455 8.0385246
44.590431 31.106596 8.0751143
44.852154 30.881773 8.0880461
45.138969 30.672697 8.1056795
45.421623 30.459061 8.1227255
45.587864 30.166685 8.1191988
46.160007 29.737297 8.1554937
46.440109 29.516115 8.1728334
46.682358 29.269489 8.1837082
47.06802 29.110497 8.2198563
47.342014 28.879869 8.2366085
47.59037 28.632187 8.2490988
47.807693 28.364874 8.2564459
47.993641 28.078491 8.2586508
48.178738 27.791389 8.2610016
51.138 20.549149 8.1856184
0.59984803 0.22337529 0.093286932
0.67101961 0.23598956 0.10386706
0.7014339 0.24189149 0.1084224
0.70290488 0.23758301 0.1084224
0.71279776 0.23607224 0.10974491
0.72789299 0.23121132 0.11165521
0.73024225 0.22703522 0.11180216
0.73351371 0.22312769 0.11209606
0.73297334 0.21805693 0.11180216
0.73144889 0.21272413 0.11136132
0.73178911 0.20796077 0.11121438
0.73305142 0.2034667 0.11121438
0.74096739 0.20078188 0.112243
0.74505365 0.1969927 0.11268384
0.74720591 0.19266526 0.11283079
0.75604677 0.19001245 0.11400636
0.75815898 0.18560591 0.1141533
0.76216954 0.18164094 0.11459414
0.76230633 0.17673668 0.11444719
0.76337641 0.17205593 0.11444719
0.76731598 0.16800594 0.11488803
0.77026713 0.16370758 0.11518192
0.77222574 0.15917878 0.11532887
0.7741577 0.15463209 0.11547582
0.76829499 0.14855854 0.11444719
0.76044291 0.14219745 0.11312468
0.88587475 0.16014798 0.13193381
0.91217244 0.15914853 0.13575441
0.93751496 0.15766746 0.13942806
0.95115685 0.15397599 0.14133836
0.9657656 0.15027575 0.14339562
0.97742963 0.14596163 0.14501202
0.98320222 0.14066535 0.14574675
0.98306686 0.13449512 0.1455998
0.98093146 0.12807438 0.14515896
0.99445838 0.12364851 0.14706926
0.99814504 0.1178944 0.14751011
1.0224401 0.1144238 0.15103681
1.0427947 0.11024084 0.15397574
1.0178618 0.10127667 0.15015514
1.0617956 0.099101923 0.15662077
1.083076 0.094401844 0.15970665
1.090536 0.088317715 0.16073526
1.0900711 0.081550233 0.16058832
1.1023923 0.075680517 0.16235168
1.1136948 0.069600329 0.16396809
1.1091633 0.062484268 0.16323335
1.1065621 0.055526827 0.16279252
1.1207162 0.049353816 0.16484977
1.1190211 0.042400178 0.16455588
1.1271693 0.035789173 0.16573144
1.1253899 0.028820459 0.16543755
1.1789486 0.022987247 0.17337266
1.1167575 0.014883871 0.16411504
1.0475898 0.0074905129 0.1538288
1.0729158 0.0025323073 0.13908637
1.1016648 -0.0041648848 0.14285657
1.0897208 -0.010804377 0.14129648
1.0926082 -0.017538855 0.1416865
1.0835587 -0.024043063 0.14051645
1.0923108 -0.030945519 0.1416865
1.0653455 -0.03672009 0.13817631
1.0551933 -0.042852055 0.13687624
1.0420351 -0.048721347 0.13518615
1.0641235 -0.062853917 0.13817631
1.0736119 -0.070029259 0.13947639
1.0242337 -0.079432957 0.13310604
1.000469 -0.089949347 0.13011587
0.9998982 -0.096086428 0.13011587
47.778534 -9.0913582 6.375525
44.539986 -14.003411 6.1203213
1.3364873 -0.56925118 0.18887906
1.4348589 -0.67460245 0.20630001
1.344808 -0.64235651 0.19381933
1.3212174 -0.64107102 0.19095917
1.3190377 -0.65004265 0.1912192
1.3185707 -0.65989935 0.19173922
1.2888645 -0.65494788 0.18796901
1.278654 -0.65966088 0.18705897
1.2701908 -0.66519356 0.18640894
1.263459 -0.67157829 0.18601891
1.2593145 -0.67931807 0.18601891
1.2577316 -0.68846095 0.18640894
1.258684 -0.69905442 0.18718897
1.2647362 -0.71260643 0.18874906
1.2964919 -0.74102265 0.19420935
1.2816279 -0.74299502 0.19264928
1.371057 -0.80613679 0.20695004
1.3643818 -0.81351846 0.20669003
1.358516 -0.82136178 0.20656003
1.3551412 -0.83071858 0.20682004
1.3458081 -0.83640051 0.20617001
1.3406507 -0.84464252 0.20617001
1.3354429 -0.8528527 0.20617001
1.3285202 -0.85995305 0.20590998
1.3174158 -0.86428064 0.20499994
1.3112624 -0.87179881 0.20486993
1.3050661 -0.87927401 0.20473993
1.2988276 -0.88670599 0.20460992
1.2656401 -0.87547719 0.20018968
1.2602445 -0.88322657 0.20018968
1.29037 -0.91620421 0.20590998
1.2839192 -0.92352551 0.20577998
1.2798309 -0.93255413 0.20603999
1.2788708 -0.94392288 0.20682004
1.2905239 -0.96481556 0.2096802
1.2877412 -0.97511053 0.21020022
1.2856673 -0.98601109 0.21085025
