# .PCD v0.7 - Point Cloud Data file format
VERSION 0.7
FIELDS x y z
SIZE 4 4 4
TYPE F F F
COUNT 1 1 1
WIDTH 1550
HEIGHT 1
VIEWPOINT 0 0 0 1 0 0 0
POINTS 1550
DATA ascii
-6.4152822 -6.6221232 1.8951222
-5.9345603 -6.0511818 1.7419132
-6.8349071 -6.8841739 1.9941033
-7.7914948 -7.7519054 2.2595983
-5.5237904 -5.4287629 1.5915265
-7.7988906 -7.5711102 2.234601
-4.9961467 -4.791121 1.4221902
-8.374054 -7.9321856 2.3714812
-5.9135523 -5.533144 1.6643008
-5.9927087 -5.5386362 1.677001
-8.6177444 -7.8671718 2.3990991
-8.6549435 -7.8043079 2.3960752
-5.5011802 -4.8997307 1.5137124
-8.7088785 -7.6612825 2.3847864
-6.868844 -5.9682746 1.8703265
-8.8936644 -7.6322913 2.4095819
-9.1121845 -7.7232327 2.4559479
-8.1169128 -6.7945538 2.1761398
-8.0286055 -6.6372819 2.1414661
-8.0320024 -6.5575418 2.1315882
-8.9665203 -7.2292471 2.3680542
-8.6268053 -6.8684497 2.2670572
-5.7574024 -4.5265384 1.5048424
-8.2516356 -6.405901 2.1475139
-9.0837078 -6.9629273 2.3531365
-5.4586101 -4.1313496 1.4064661
-8.6286459 -6.4475737 2.214442
-9.2032404 -6.7893133 2.3513222
-9.0143223 -6.5649238 2.2926593
-7.1314316 -5.1270347 1.8052127
-5.7872572 -4.1070752 1.4580734
-5.81636 -4.0742979 1.4590813
-7.5726471 -5.2355237 1.8922999
-8.3117638 -5.6714473 2.0684903
-7.191102 -4.8424072 1.7818282
-6.6634932 -4.4279552 1.6441417
-7.3908696 -4.8461709 1.8165019
-7.34234 -4.7501874 1.7973506
-7.3110771 -4.6665778 1.7826345
-7.0975494 -4.4692383 1.72377
-7.5391922 -4.6829681 1.8241622
-7.6790853 -4.6402464 1.8441198
-7.8554997 -4.6812859 1.8795997
-7.5057545 -4.4106908 1.7892871
-7.6004763 -4.4038353 1.8054143
-7.5839791 -4.3323402 1.7951332
-7.6334624 -4.2986999 1.8005761
-7.7076535 -4.2784004 1.8118652
-7.7904735 -4.2620521 1.8251702
-7.8595862 -4.2374105 1.8352498
-47.348339 -21.540665 10.703632
-47.505543 -21.261337 10.709478
-31.452402 -11.380952 6.8816719
-24.031094 23.568707 6.9252157
-24.082033 23.910326 6.9820642
-4.6345739 24.406404 5.1104956
-4.4707637 24.358276 5.0945697
-4.2991738 24.260836 5.0685644
-3.9892037 24.239283 5.0534453
-4.157505 26.266844 5.4709396
-4.1387253 27.229221 5.6660795
-3.3103144 22.716152 4.7222314
-3.1561227 22.630297 4.7002583
-3.0069892 22.572536 4.6843324
-3.1626668 24.907991 5.1651263
-2.8974178 23.996336 4.9722042
-3.2707555 28.56003 5.9140363
-2.1220746 23.651506 4.8849154
-2.1016588 25.157471 5.1933494
-2.0995517 27.13862 5.5997562
-1.821156 25.579981 5.275598
-1.6579378 25.49489 5.2558422
-1.602828 27.226446 5.6108437
-1.0337746 22.200363 4.5716434
-0.89706171 22.194544 4.5692239
-0.76616138 22.354296 4.6010756
-0.61584926 21.891552 4.5049167
-0.49120086 22.335573 4.5956326
0.11194345 43.739307 8.9997864
0.35939395 41.33231 8.5046797
0.58745056 28.016724 5.7650609
1.1670616 43.049763 8.8610926
1.4296904 42.996758 8.851819
1.182752 30.024157 6.1817489
1.3650382 29.97426 6.1730804
1.4389468 24.876379 5.126018
1.6319146 25.497547 5.2560439
1.7880596 25.483147 5.2552376
1.9440894 25.467791 5.2544312
2.5233643 30.582132 6.3131862
2.6474469 29.849955 6.1652184
2.8881016 30.439655 6.2906079
3.0746243 30.419411 6.2902045
3.2595448 30.38439 6.2869792
3.4592834 30.481579 6.3113718
3.3778925 28.218107 5.846705
3.0162537 23.951084 4.9659548
3.7679415 28.507591 5.9158506
3.9594438 28.604242 5.9408479
4.1535358 28.708336 5.9676595
4.4011011 29.155905 6.0662374
4.6238842 29.407982 6.1244969
4.749547 29.044603 6.0547466
3.05705 18.000805 3.7554021
3.1669335 17.978813 3.7547972
3.2796516 17.972532 3.7576196
3.390594 17.955921 3.758426
3.9979837 20.482292 4.2926416
4.1485529 20.581236 4.3186469
4.233077 20.354973 4.2765141
4.3591247 20.334362 4.2777238
3.9911115 18.075878 3.8074124
3.7331762 16.428303 3.4649098
3.8089423 16.298265 3.4423316
4.348774 18.106018 3.8299906
4.6134486 18.701874 3.9620326
4.0921865 16.161777 3.4288249
4.8293047 18.592659 3.9511468
4.9632092 18.637449 3.9670725
5.2499828 19.238792 4.1019368
7.6772952 27.468729 5.8676705
4.9357519 17.250948 3.6904898
4.9694033 16.974054 3.6376731
5.0664363 16.919786 3.6326332
5.1434932 16.801281 3.6138854
5.0768557 16.227228 3.4969628
5.1644001 16.158453 3.488899
5.7269239 17.546429 3.796325
5.8558426 17.575077 3.8102348
5.8658218 17.251343 3.7477417
6.3885489 18.417088 4.0096083
9.2579317 26.169081 5.7106314
16.351862 45.334221 9.91642
16.610117 45.179714 9.9047279
6.4479089 17.211882 3.7803993
6.5401263 17.13722 3.7727389
10.118051 26.031631 5.745708
8.1677532 20.273663 4.4960465
8.1894369 19.973042 4.4404078
8.4068756 20.150211 4.4912086
8.5510216 20.146935 4.5020943
7.9322147 18.069201 4.0589976
7.9115944 17.725924 3.9926744
7.9214635 17.45941 3.9434862
8.6162052 18.685062 4.2323661
9.0266075 19.26333 4.3758984
9.1909504 19.304861 4.3980737
8.9804258 18.568272 4.2426472
8.2365036 16.766886 3.8422878
8.4026289 16.843119 3.8715184
9.5995378 18.950291 4.3696494
8.6257105 16.771835 3.8791788
9.0602818 17.354156 4.0267434
9.1606321 17.286985 4.0241227
9.7239676 18.081005 4.2228913
9.739007 17.845608 4.1817665
9.3861771 16.950922 3.9854171
12.2926 21.881746 5.1631107
9.6114273 16.86595 3.9928761
9.7510061 16.869408 4.0077939
12.644742 21.568966 5.1433549
10.050387 16.905075 4.0452895
10.101838 16.756689 4.0245256
10.595256 17.333706 4.1787429
12.914864 20.840036 5.0435672
13.511442 21.506838 5.224999
13.804674 21.67716 5.2868872
13.889085 21.517162 5.2685428
12.856153 19.65127 4.8306875
12.863367 19.401402 4.7885547
12.962504 19.292839 4.7812977
13.189232 19.372437 4.8210111
13.348453 19.35 4.8357272
16.126089 23.072245 5.7910657
15.585279 22.009644 5.5481491
15.862195 22.111771 5.5983453
15.940569 21.935583 5.5783877
16.313511 22.161556 5.6612415
13.677503 18.343813 4.7069106
16.120024 21.074883 5.4584413
12.476049 16.105167 4.1904349
16.076954 20.492481 5.3582506
16.29866 20.514618 5.3901019
16.397827 20.381411 5.3814335
16.508966 20.263706 5.3769984
16.012177 19.409504 5.1762142
14.94355 17.889414 4.7950058
16.121384 19.060484 5.1354928
16.253962 18.979805 5.1405325
16.184031 18.66511 5.0820713
15.309582 17.439268 4.7736373
15.495031 17.433586 4.7980299
17.706133 19.67679 5.4455395
13.602923 14.93168 4.1547532
16.576307 17.972689 5.0296574
18.18631 19.477121 5.4820271
18.212626 19.266939 5.4542079
15.654882 16.358923 4.6577225
16.990192 17.323591 4.9915566
16.377764 16.495459 4.7817006
16.449507 16.365641 4.7732339
17.378838 17.079321 5.0125222
17.378593 16.870712 4.9824853
17.074574 16.373283 4.8663688
17.018272 16.120024 4.8220191
17.008863 15.914249 4.7915788
23.603802 21.814602 6.6125484
23.802315 21.728792 6.6306915
23.990477 21.632185 6.6460123
18.261776 16.264639 5.0306654
22.229527 19.555149 6.091033
18.720993 16.266085 5.1018271
18.992891 16.298893 5.1485963
18.899017 16.018024 5.096384
24.941685 20.877846 6.6919751
25.083662 20.736271 6.6958055
25.180836 20.557812 6.6879435
25.041908 20.189596 6.6179914
25.109381 19.991028 6.6032753
25.27392 19.869879 6.6143627
25.603489 19.875992 6.6685905
27.118795 20.786898 7.0300431
25.48308 19.286041 6.5750527
26.289284 19.393423 6.7212057
25.684904 18.705313 6.5371532
26.435713 18.759991 6.6691957
26.725973 18.477062 6.6847181
38.238754 26.09104 9.5251322
38.488342 25.574837 9.5084
38.548706 25.27536 9.4848137
38.518856 24.919178 9.4396582
38.799004 24.764044 9.4709044
7.4804778 4.7103519 1.816905
36.031425 22.380114 8.727437
38.130772 23.361057 9.2011757
8.5866833 5.1169963 2.0547822
8.8146801 5.1798325 2.1017528
8.8446016 5.1246672 2.1013496
8.0985279 4.6262617 1.9170957
8.7813644 4.9450974 2.0717158
8.8286705 4.9006295 2.0757475
7.9700656 4.3602996 1.8673027
7.5862813 4.0900683 1.7713455
7.6380496 4.0576873 1.7775948
7.4935827 3.9221785 1.7382846
7.5444951 3.8900394 1.7445339
7.618 3.8689537 1.7560246
7.6021757 3.8024216 1.746953
7.6016397 3.7440195 1.74151
7.6103683 3.6904685 1.7382846
9.0595293 4.3247104 2.063652
7.353673 3.4551876 1.6697437
7.7481313 3.5826459 1.7544118
7.4133501 3.3727987 1.6737756
7.4473162 3.3332493 1.6767994
7.2713046 3.2010679 1.632651
9.6395302 4.1731544 2.1594079
9.550498 4.0652122 2.1338058
8.6247091 3.6088188 1.9217322
8.6675253 3.5643983 1.9263688
8.7019463 3.5162854 1.9291911
8.5868025 3.4086208 1.8989525
7.3956585 2.8834083 1.6312399
8.7084818 3.3338051 1.9166924
8.4225388 3.1652308 1.8493611
8.3103895 3.065027 1.8205336
8.0416794 2.9099989 1.7576373
9.399662 3.3362887 2.0503471
9.3626032 3.2585902 2.0378485
8.3033838 2.8329587 1.8031968
8.3271122 2.7841308 1.804608
14.91748 4.8858819 3.2282422
15.479734 4.9650669 3.3433504
14.952952 4.6951189 3.2232025
7.9594369 2.4457426 1.7112714
14.959728 4.4963274 3.212518
14.989855 4.4052801 3.2131228
15.521197 4.4581494 3.3211756
15.596356 4.3763247 3.3314567
15.640863 4.2854624 3.3352869
16.185112 4.2217484 3.440114
15.358182 3.8053968 3.2540457
14.740963 3.365741 3.1095052
14.864609 3.298141 3.1312771
74.386345 -5.2842598 13.859572
72.147957 -5.5703979 13.448567
72.153564 -6.0164161 13.456243
72.220078 -6.4684119 13.475797
72.302338 -6.9232306 13.498823
72.329903 -7.3740177 13.512164
72.243217 -7.8133531 13.504671
13.61367 -1.5575074 2.5447686
13.603857 -1.6410099 2.5447686
13.719353 -1.7404056 2.5683434
13.825364 -1.8401127 2.5902734
13.915084 -1.9390154 2.6092794
13.401877 -1.95143 2.5151629
13.408119 -2.0364296 2.5186353
13.495395 -2.1344767 2.5374584
13.681892 -2.2500987 2.5751052
13.689149 -2.3376467 2.5791256
13.666802 -2.4202266 2.5776637
13.647827 -2.5033298 2.5769327
13.688234 -2.5976532 2.587532
14.093649 -2.7642651 2.6673939
13.512712 -2.7365589 2.5604851
13.519726 -2.824445 2.5650539
13.530975 -2.9135544 2.5705364
13.493647 -2.9922681 2.5668814
11.834988 -2.7008364 2.2541955
13.672232 -3.2083819 2.6081829
13.592073 -3.2776954 2.5966697
14.790401 -3.6627777 2.8300419
14.825774 -3.7682316 2.8411896
12.812106 -3.3403449 2.4588759
12.21862 -3.2658432 2.3486774
12.101629 -3.3142707 2.3300369
11.981668 -3.3605895 2.3108482
11.980667 -3.4397409 2.3146858
11.9716 -3.5167899 2.3170617
11.952621 -3.5910282 2.3176098
13.8796 -4.2628708 2.6966341
13.83442 -4.3420672 2.6929791
11.297479 -3.6222546 2.2030253
12.775643 -4.182713 2.4965224
11.836842 -3.9559827 2.3176098
11.934247 -4.0701041 2.3415501
12.089194 -4.2059178 2.3770037
12.090958 -4.2898769 2.3824863
10.494518 -3.7962162 2.0721762
10.507006 -3.8737998 2.0793035
10.632139 -3.994199 2.1089091
12.745095 -4.8772726 2.5343518
12.581182 -4.9032664 2.5076702
10.788939 -4.2813201 2.1553276
10.705946 -4.3246121 2.1439972
10.70467 -4.4006867 2.1491141
12.589488 -5.2659307 2.5343518
12.414 -5.2822657 2.5054772
12.41113 -5.371222 2.511508
12.284349 -5.4060931 2.492502
12.434028 -5.5632691 2.529783
12.439036 -5.6573653 2.5378239
13.886456 -6.4186897 2.8413723
12.375794 -5.8129292 2.5392861
9.7879467 -4.6710954 2.0136962
12.453045 -6.0368323 2.5701709
10.182386 -5.0136242 2.1074469
9.9166374 -4.9586215 2.0586526
13.619751 -6.9147811 2.8369863
9.9817591 -5.1452494 2.0851514
9.7600908 -5.1070437 2.0453119
9.9091835 -5.2627425 2.083324
12.465361 -6.7184949 2.6299303
12.398025 -6.7807031 2.6244476
12.406047 -6.8843141 2.6350472
12.644587 -7.1184902 2.6949892
9.2564354 -5.2863445 1.9791563
9.3012438 -5.3878813 1.9957865
9.3629551 -5.5006223 2.0162547
11.935638 -7.1106834 2.5802221
11.460066 -6.9230165 2.4864712
12.548398 -7.6858816 2.7330015
12.435852 -7.722281 2.7187469
12.68611 -7.9859338 2.7841716
9.084527 -5.7970982 2.0009036
12.673841 -8.1970701 2.8033602
12.667708 -8.3037853 2.8132288
9.8828611 -6.5655265 2.2032082
9.89785 -6.6633754 2.2156353
12.653229 -8.6313896 2.8448446
12.570105 -8.6881847 2.8380828
10.013517 -7.0124817 2.2700949
12.503435 -8.8707962 2.847403
14.315367 -10.288804 3.2746735
12.874513 -9.3736477 2.957967
14.371604 -10.599077 3.3170714
13.184648 -9.8492346 3.0568349
12.808777 -9.6914902 2.9833694
5.4266014 -4.1590371 1.268623
13.331225 -10.346425 3.1345038
12.988436 -10.208716 3.068531
5.2906637 -4.211688 1.2547339
5.2754388 -4.2527089 1.2572925
5.2561002 -4.2905927 1.2589372
5.2986403 -4.379756 1.2755675
5.2241645 -4.3724365 1.2640543
12.378846 -10.489202 3.013706
5.2253337 -4.4835863 1.2775778
12.563171 -10.913032 3.0910094
12.43691 -10.937972 3.0763893
12.484845 -11.11672 3.1050811
12.55515 -11.318186 3.1398036
11.726573 -10.702455 2.9488294
5.6626353 -5.2326393 1.4309053
5.3460832 -5.0013347 1.3585361
5.0775685 -4.8089395 1.2976803
11.358898 -10.889725 2.9226961
12.348065 -11.984209 3.1962736
10.794495 -10.60593 2.8106704
4.7579575 -4.7331223 1.2452309
5.8553534 -5.8964739 1.542383
5.7818828 -5.894393 1.5325145
5.7038693 -5.886692 1.5213667
10.684357 -11.162165 2.8698814
10.589996 -11.200366 2.862937
11.274044 -12.071282 3.0679827
5.3143482 -5.7611513 1.4546628
4.1113877 -4.512526 1.1324739
5.2925816 -5.8807368 1.4683691
10.864002 -12.220154 3.0370979
4.8443961 -5.5175118 1.3625567
10.631412 -12.258228 3.0138886
10.56751 -12.336671 3.0171781
10.412235 -12.30746 2.9943345
10.374977 -12.417136 3.0054822
4.4870124 -5.4383035 1.3082799
11.278329 -13.839881 3.3163404
4.0420709 -5.0234513 1.1962539
11.367621 -14.304356 3.3940094
4.8699503 -6.2065105 1.4641658
4.5378923 -5.8570352 1.3749837
4.6548138 -6.0846567 1.4217678
4.3732243 -5.7899051 1.3464746
3.7298157 -5.0017509 1.1575108
3.3049691 -4.4893694 1.0339715
3.2623301 -4.4888873 1.0292201
3.1286817 -4.3610477 0.99541128
3.0205977 -4.2654381 0.96927798
2.9904249 -4.2782512 0.96799868
3.6263909 -5.2562141 1.1847405
4.205615 -6.1762862 1.3866798
3.4393144 -5.1183572 1.1439873
2.7263954 -4.1119275 0.91481835
3.5501428 -5.4258919 1.2030157
3.50985 -5.4368362 1.2006398
2.7796671 -4.3645668 0.95959216
2.7622509 -4.3965235 0.96288168
3.904937 -6.3001995 1.3755319
3.8108137 -6.2334538 1.3557949
3.6282966 -6.0176177 1.3038938
3.5676842 -6.0000525 1.2953045
3.5521886 -6.0582972 1.3031628
3.5154409 -6.0808301 1.3033456
3.4556649 -6.0629969 1.294939
3.3943143 -6.0412316 1.2858015
2.9646235 -5.3532863 1.1352153
3.1267643 -5.7286291 1.2108738
3.9575076 -7.3572373 1.5506067
3.9818246 -7.5125475 1.578202
3.0813251 -5.9011159 1.2351797
3.0464079 -5.922534 1.2357279
2.9149029 -5.7534423 1.1966194
3.7001088 -7.4153528 1.5381798
2.8774695 -5.8567214 1.2106911
2.7155852 -5.6140747 1.1569625
2.6244354 -5.5116906 1.1324739
2.6293776 -5.6104784 1.1494697
2.6620822 -6.0630898 1.2286006
7.9968681 -18.517735 3.7470829
7.8585019 -18.508537 3.7353868
7.6607146 -18.354988 3.6948164
7.4923487 -18.266117 3.6675866
2.6869199 -6.668046 1.3340476
7.1666489 -18.101648 3.6165993
7.0301447 -18.080223 3.6036239
2.8765526 -7.5356612 1.4970609
6.6966343 -17.868692 3.5447783
2.844615 -7.7355595 1.5297732
6.3894157 -17.707233 3.4968977
6.2412796 -17.634886 3.4749677
6.0839577 -17.53167 3.4471896
5.9702539 -17.550987 3.4437175
2.5860894 -7.7594848 1.5180773
5.6436357 -17.283676 3.3773789
5.5198097 -17.26273 3.3665967
5.3917551 -17.225903 3.3528905
5.2234712 -17.054672 3.3132336
5.1096973 -17.056265 3.3073857
2.2525733 -7.6918478 1.4875579
2.2242768 -7.7716875 1.5003504
2.1135266 -7.5598445 1.4568559
2.0645108 -7.5631857 1.4550283
2.0828741 -7.818913 1.5018125
1.9695648 -7.580339 1.4535663
4.1977849 -16.569933 3.1750743
4.0840178 -16.5467 3.1657541
3.9479465 -16.428057 3.1383417
3.835429 -16.402189 3.1288385
3.717273 -16.348721 3.1142185
3.5999186 -16.294422 3.0995986
3.4773898 -16.211424 3.0796788
3.3662331 -16.176628 3.0690792
3.2527187 -16.126625 3.0557384
3.1363633 -16.057508 3.0389254
3.0206139 -15.985641 3.0217469
2.9063954 -15.915862 3.0051167
2.7989516 -15.878208 2.9947
2.6904323 -15.830143 2.9824555
2.5811791 -15.772614 2.9685667
2.4756384 -15.732797 2.9581499
2.375972 -15.727276 2.9543121
2.2747755 -15.70945 2.9482813
2.1752369 -15.700713 2.944078
2.074086 -15.677702 2.9373162
1.9486982 -15.458955 2.8940043
1.8397652 -15.35348 2.8720744
1.7423036 -15.336151 2.8667746
1.6417632 -15.286924 2.8556268
1.5424869 -15.24291 2.8455756
1.4427894 -15.187491 2.833514
1.3433954 -15.126527 2.8205388
1.2452089 -15.069817 2.8084772
1.149794 -15.038943 2.8013501
1.0542532 -14.99962 2.7927608
0.95829403 -14.944976 2.7814302
0.86435479 -14.912296 2.774303
0.76591408 -14.783789 2.749449
0.065200806 -1.4419893 0.26605469
0.055729914 -1.426644 0.26313069
0.046778154 -1.4210633 0.26203418
0.037843369 -1.4134613 0.2605722
0.028795922 -1.3959738 0.25728267
0.020185625 -1.3931751 0.25673443
0.011523676 -1.3804922 0.25435868
0.0029806716 -1.3539917 0.24942441
-0.0053105382 -1.3490688 0.24851066
-0.013268934 -1.3155849 0.24229714
-0.021063376 -1.2977841 0.23900764
-0.028382448 -1.2681426 0.23352513
-0.036795214 -1.2905484 0.23772839
-0.043339133 -1.2500123 0.23023562
-0.050573289 -1.2389168 0.22822538
-0.058174189 -1.2385831 0.22822538
-0.066082455 -1.2440938 0.22932188
-0.073772445 -1.2446463 0.22950463
-0.081789896 -1.2500567 0.23060113
-0.090085469 -1.2583575 0.23224588
-0.10052913 -1.2930698 0.23882489
-0.10756283 -1.2816513 0.23681463
-0.11647722 -1.2927182 0.23900764
-0.12234552 -1.2704481 0.23498714
-0.13223238 -1.2902133 0.23882489
-0.14109784 -1.2981749 0.24046965
-0.14693831 -1.2787255 0.2369974
-0.15537012 -1.2826803 0.23791113
-0.17028734 -1.3372977 0.24832791
-0.18315749 -1.3713123 0.25490692
-0.1968582 -1.4081392 0.26203418
-0.20450339 -1.4000945 0.26075494
-0.21663226 -1.4221418 0.26514095
-0.22704323 -1.4314678 0.26715121
-0.24124512 -1.4630324 0.27336469
-0.25021759 -1.4615246 0.27336469
-0.25832367 -1.4551212 0.27245095
-0.26565135 -1.4448054 0.27080619
-0.2728622 -1.4344549 0.26916143
-0.28222623 -1.435648 0.26970971
-0.29083481 -1.4329257 0.26952696
-0.30042562 -1.4349637 0.27025795
-0.31108689 -1.4417436 0.27190271
-0.32162979 -1.4474865 0.27336469
-0.33334827 -1.4579467 0.27574044
-0.34520712 -1.468317 0.27811623
-0.36204469 -1.4986675 0.28432971
-4.0911746 -16.520624 3.1613681
-4.2859335 -16.863018 3.2319098
-4.4966998 -17.248346 3.3110406
-4.729104 -17.694395 3.4022331
-4.9757156 -18.169518 3.4994562
-5.2315149 -18.65362 3.5988724
-5.4980493 -19.151312 3.7013953
-5.7922149 -19.719051 3.8179901
-6.1037297 -20.317778 3.9411638
-6.4228034 -20.913399 4.0643377
-6.7750192 -21.587456 4.2034106
-7.1189327 -22.205523 4.3322496
-7.5327673 -23.009836 4.4981866
-7.9551725 -23.80521 4.6632104
-8.6373272 -25.328579 4.9720583
-8.949234 -25.725468 5.0606923
-9.39781 -26.490101 5.2224264
-10.245308 -28.326345 5.5968819
-10.760664 -29.190044 5.7805457
-17.639839 -46.962246 9.3226128
-17.916069 -46.822826 9.3165817
-17.489103 -44.879879 8.9510813
-17.862047 -45.018463 9.0004244
-18.100752 -44.815945 8.981966
-18.564524 -45.164165 9.0744381
-18.919439 -45.236252 9.1120844
-19.51919 -45.877441 9.2652292
-18.474388 -42.692574 8.6446095
-19.02545 -43.236233 8.7781992
-3.5927892 -8.0293512 1.6328444
-3.6700704 -8.0689077 1.6454542
-3.5895846 -7.7651138 1.5878878
-4.6452203 -9.8893967 2.0286815
-4.6778693 -9.8021441 2.0166202
-4.3783255 -8.8919287 1.8400832
-4.439837 -8.8789663 1.8430073
-4.1066079 -8.0879793 1.6838317
-3.4275684 -6.5499396 1.371877
-4.6315012 -8.7204437 1.8331388
-3.6620719 -6.7938595 1.4323673
-5.0428953 -9.2201929 1.9511955
-4.3576374 -7.8522544 1.6670188
-4.6714649 -8.2974377 1.7677141
-5.0328364 -8.8124723 1.8841261
-5.1124368 -8.8256655 1.8936291
-5.4886713 -9.3426094 2.0118685
-4.6211071 -7.756278 1.6759735
-4.5766058 -7.5754561 1.6428957
-4.6204338 -7.5430398 1.641982
-4.2413702 -6.8296409 1.4921267
-1.2984856 -2.0616109 0.45063251
-1.3010634 -2.0378573 0.44716027
-1.3039328 -2.0149755 0.44387075
-1.2790843 -1.9502 0.431261
-1.2589312 -1.8939968 0.42047873
-1.2677839 -1.8821585 0.41956496
-1.2743226 -1.8670342 0.4179202
-1.2851957 -1.8583713 0.41773745
-1.2982659 -1.8528664 0.41828573
-1.3101794 -1.8456674 0.41846848
-1.3266433 -1.8447789 0.42011321
-1.3431456 -1.8437576 0.42175797
-1.3614357 -1.8449768 0.42395097
-1.4039136 -1.8783354 0.43363675
-1.4219375 -1.8783103 0.43564701
-1.4328378 -1.8687696 0.43546423
-1.4406608 -1.8552825 0.43436775
-1.4580926 -1.8541378 0.43619525
-1.4706665 -1.8466947 0.43656075
-1.4702477 -1.8230919 0.43308848
-1.468352 -1.7980407 0.42925075
-1.4730937 -1.7814188 0.42742324
-1.4802111 -1.7678225 0.42632672
-1.4910305 -1.7587068 0.42632672
-1.5017935 -1.749525 0.42632672
-1.5144342 -1.742504 0.426875
-1.5302916 -1.7390851 0.42833698
-1.5422411 -1.7311312 0.42870247
-1.5765316 -1.7479252 0.43528149
-1.6528376 -1.8101141 0.45337379
-7.9507155 -8.6046104 2.1754301
-5.2585554 -5.6210876 1.4285295
-6.7537565 -7.1314383 1.8234529
-6.847733 -7.1423831 1.8369765
-6.9612684 -7.1721978 1.855617
-4.9236345 -5.0106339 1.3035283
-7.8058457 -7.8474522 2.0551803
-6.534749 -6.4892845 1.7095995
-8.0033207 -7.8509083 2.0816791
-6.6866097 -6.4790778 1.7284229
-7.9328732 -7.5930161 2.0389156
-8.0300331 -7.5921578 2.0518909
-7.8788815 -7.358192 2.0016346
-6.9686098 -6.4283638 1.7600386
-6.9904823 -6.3695908 1.7556527
-8.1883602 -7.3697824 2.0454946
-6.2025905 -5.5137839 1.5403727
-7.8814788 -6.9203696 1.9473578
-8.0515394 -6.9826818 1.9787908
-8.4884615 -7.2708697 2.0752831
-5.5967402 -4.7343955 1.3603637
-6.1326666 -5.1236053 1.4831719
-5.8720469 -4.8449559 1.4128129
-8.9890022 -7.3249559 2.1531346
-8.8675747 -7.1358991 2.1134777
-5.8501673 -4.6485753 1.3866798
-8.990427 -6.9660468 2.1118331
-6.6687036 -5.1016998 1.558465
-5.7506819 -4.3435922 1.3373371
-8.2194986 -6.1298618 1.9036804
-9.299593 -6.8470807 2.1443627
-5.9887066 -4.3526249 1.3738872
-6.0720139 -4.3564949 1.3868625
-6.7348328 -4.7698154 1.5317835
-6.7615552 -4.7267108 1.5312352
-7.5324545 -5.1971951 1.6988173
-6.7897968 -4.623457 1.5246562
-6.7739754 -4.552093 1.5147877
-6.8009596 -4.5098991 1.5146049
-6.1810813 -4.0443778 1.3707805
-6.2140403 -4.0117083 1.3726079
-6.5610938 -4.1789923 1.4436978
-6.6681886 -4.1899242 1.4616073
-6.622745 -4.104897 1.4460735
-6.7417507 -4.1216278 1.4665416
-7.3234124 -4.4157987 1.5873395
-7.025043 -4.1772928 1.5169806
-7.2439022 -4.2475095 1.5586478
-7.6383586 -4.4160852 1.6377786
-7.692832 -4.3225002 1.6379614
-7.7639308 -4.2999892 1.6474644
-47.974201 -21.775173 9.7908192
-23.906271 23.777491 6.2651997
-23.800802 23.964886 6.2759819
-3.9430163 25.055367 4.7123704
-3.6953323 24.457903 4.595593
-3.6142516 24.95689 4.6851406
-3.4576766 24.95425 4.6805716
-5.9803362 45.194344 8.4717274
-5.7018089 45.221409 8.4700823
-5.422473 45.240902 8.4673414
-2.6667414 24.826672 4.6390872
-2.5257459 24.955053 4.6601038
-3.5081539 42.440987 7.9136076
-1.9352807 25.306553 4.715477
-1.4868942 23.18264 4.3158021
-1.470053 25.353592 4.718401
-1.3118111 25.311079 4.7088981
-1.1586351 25.365795 4.71767
-0.93123394 23.558931 4.3803129
-0.72270364 21.650076 4.0243154
-0.58834666 21.599068 4.014081
-0.49612468 23.510155 4.3687997
-0.38543841 25.752142 4.7851048
-0.20577024 23.309984 4.3307877
-0.069096662 25.646786 4.7650023
0.088444918 25.697851 4.7745051
0.24520215 25.600479 4.7565956
0.38667271 24.603661 4.5716524
0.91451472 41.868855 7.7822104
0.72817218 26.013239 4.8349957
0.88750464 26.000422 4.8335338
1.0457977 25.964031 4.8278685
1.2030853 25.913914 4.8198276
1.5714351 29.890209 5.5614281
1.7528495 29.846634 5.5552149
1.654862 25.501808 4.7480063
1.8047593 25.398989 4.7308278
1.9621598 25.408022 4.7346659
2.1109169 25.310265 4.7187667
2.249428 25.109804 4.6838613
3.0998588 32.369106 6.0420618
3.2426775 31.802723 5.9399042
3.3907151 31.34726 5.8585801
3.3298783 29.11245 5.444468
3.4551313 28.6493 5.3616819
3.6455729 28.743628 5.3834295
3.8081279 28.617413 5.364058
4.0345144 28.958668 5.4325891
4.1593041 28.570473 5.3644233
4.6496234 29.40292 5.5310917
2.9620895 18.012577 3.3909025
3.06445 17.946575 3.3819478
4.6825638 26.445793 4.9899678
3.2842741 17.906651 3.3817651
4.5113997 23.775434 4.4959936
4.6607924 23.765636 4.4994659
5.403327 26.684267 5.0584993
3.4943945 16.727381 3.1741607
3.6008971 16.723886 3.177633
5.8714499 26.480463 5.0394931
3.811321 16.702402 3.1822016
4.2314897 18.033096 3.4407935
4.0233717 16.684958 3.1880498
4.6497684 18.776688 3.59339
4.7612605 18.733511 3.5906487
4.8471031 18.592632 3.5692668
4.9920597 18.678421 3.5915625
4.8923707 17.865128 3.4407935
4.9036784 17.484514 3.3731759
4.8283124 16.818111 3.2501848
5.4262295 18.472931 3.5765769
4.6773953 15.569299 3.0195539
5.3428373 17.3965 3.3804858
9.5924158 30.565594 5.9525142
5.8416295 18.220917 3.5544641
5.8903141 17.99225 3.5168176
6.0009131 17.956701 3.5170002
6.1119328 17.922335 3.5175486
6.2046676 17.835279 3.5078628
6.241344 17.592098 3.4674749
9.5799017 26.486486 5.2332087
9.7265978 26.384775 5.224802
9.8838139 26.31263 5.2224264
6.6810336 17.459341 3.4725919
6.7841096 17.40794 3.4705818
6.8980465 17.384264 3.4742367
7.0167346 17.371695 3.4802675
7.143003 17.376509 3.4899533
8.4123592 19.439203 3.9349504
8.5433559 19.414217 3.9404328
8.0280371 17.652225 3.6023448
8.229003 17.803436 3.6434636
8.9303017 19.013605 3.9024208
9.2275848 19.337339 3.9804552
9.1543789 18.884892 3.8987658
8.474925 16.949932 3.5202899
8.5983496 16.936184 3.5283308
9.3529434 18.145922 3.7924051
8.9431753 17.092478 3.5835214
9.7469063 18.353666 3.8605709
11.735624 21.458813 4.5440574
9.5121155 17.142096 3.6418188
9.5471897 16.959179 3.61532
10.384074 17.676622 3.8084872
10.512466 17.64636 3.8157971
14.556005 23.441967 5.1268477
11.090577 17.618526 3.8675153
13.954609 21.576729 4.7741399
12.902123 19.683342 4.3724546
12.96608 19.518635 4.3534484
13.048268 19.383247 4.3410215
13.199641 19.35074 4.3518038
12.427131 17.98016 4.0604997
13.415809 19.158312 4.3452249
12.752075 17.974653 4.0943084
13.552078 18.614035 4.277607
13.661952 18.524992 4.2763281
15.712243 21.033848 4.8779421
15.941073 20.802771 4.8693528
16.052744 20.684372 4.8646011
16.065147 20.440159 4.8302441
17.776333 22.054916 5.2631798
21.148819 25.912292 6.2149434
16.043358 19.412239 4.6789269
16.128098 19.272717 4.6690583
16.195204 19.113386 4.6544385
16.081724 18.74502 4.5886483
16.230608 18.685333 4.5983338
16.152775 18.366858 4.54424
16.376308 18.392229 4.5753074
15.41654 17.101795 4.277607
16.752106 18.131008 4.5862722
16.877815 18.043674 4.5902929
16.962524 17.912647 4.5833483
16.378151 17.084301 4.3969431
15.858282 16.140726 4.2037759
16.176105 16.263397 4.2615252
16.251875 16.140282 4.2553115
18.390753 18.041807 4.7865667
16.542616 16.03063 4.2796173
18.637758 17.840601 4.7935114
23.381067 21.837786 5.9446559
17.21575 15.882496 4.3516212
22.293497 20.315485 5.6041918
22.411154 20.172392 5.6025472
24.788277 21.767475 6.1297817
24.904291 21.600151 6.1255784
18.57937 15.915435 4.5451536
18.672173 15.797323 4.5440574
24.19618 20.217674 5.8587632
24.670109 20.357937 5.9431934
24.560589 20.015499 5.8870893
24.989304 20.110992 5.9601893
25.751635 20.208889 6.0824494
25.876703 20.051702 6.0828147
25.946936 19.85252 6.0705705
25.778793 19.474257 6.0031357
26.233543 19.316761 6.0533919
39.693672 26.326031 8.8512993
40.64996 26.602594 9.028019
40.265224 25.650633 8.8719501
36.134018 22.400211 7.9002671
7.6409163 4.6714506 1.66245
7.1626086 4.3188205 1.5524342
7.4340253 4.4205332 1.6054318
7.3566961 4.3136597 1.5829536
7.7838979 4.5002441 1.669029
7.8156347 4.4548326 1.6699427
8.9570303 5.032969 1.9075181
8.820899 4.8854918 1.8720646
8.8998976 4.85813 1.8824813
7.8481488 4.2216253 1.6542262
8.33255 4.416532 1.7507184
7.7372727 4.0403395 1.6202346
7.7750316 3.9995356 1.6229758
7.6819115 3.8922002 1.5984874
7.7364383 3.860358 1.6048836
7.8270388 3.8457716 1.6187726
8.1071405 3.9218543 1.6717702
7.5683017 3.6039984 1.5559065
7.5600066 3.5433037 1.549693
7.6512389 3.5289736 1.5639476
7.4632602 3.3868713 1.521184
9.0423536 4.0369096 1.8384385
7.9165378 3.4760988 1.6048836
8.7364988 3.7724447 1.7666177
6.9450517 2.9483073 1.4002032
8.3856478 3.4994545 1.6867558
8.6143513 3.5330098 1.7284229
8.6586637 3.4892752 1.7329916
9.0574379 3.5855644 1.8084675
7.8898926 3.0674059 1.5712576
8.675499 3.3117716 1.7238541
8.5787373 3.2146549 1.7006447
8.6121416 3.1670475 1.7033861
8.4325838 3.0423918 1.6640947
7.9561749 2.8154123 1.566506
7.9584389 2.7613833 1.5635821
9.6813326 3.2929294 1.8985634
9.7200089 3.2396824 1.9022183
8.2630606 2.6977491 1.6134728
9.7075291 3.1036882 1.8921671
8.072238 2.5262403 1.5699782
9.4149294 2.8832557 1.8280218
9.0171127 2.7009904 1.7474289
8.1970215 2.3460486 1.5825881
8.2339859 2.3020635 1.586974
15.776167 4.2033424 3.0325291
14.710242 3.8227797 2.8229146
14.455966 3.4739323 2.7613277
14.648371 3.4252448 2.79404
14.462996 3.288425 2.7547486
76.945793 -4.96556 12.956395
72.099396 -5.5420208 12.150751
72.137741 -5.9904308 12.163181
72.202766 -6.4421496 12.180584
72.193291 -6.8880539 12.185887
72.191856 -7.3351808 12.193014
13.386792 -1.4430766 2.2607796
72.164017 -8.2282419 12.20445
72.262955 -8.6890078 12.229974
13.899004 -1.7576666 2.3524315
13.840055 -1.8365589 2.3443105
13.386043 -1.8599573 2.269232
13.458308 -1.9542459 2.2834854
13.579644 -2.0570242 2.3061912
13.571637 -2.141077 2.3070199
13.562138 -2.2249494 2.3076828
13.618226 -2.320049 2.3196158
14.240793 -2.5161324 2.4283388
13.989363 -2.5603197 2.3880649
13.812544 -2.6156476 2.3605525
14.375949 -2.8138263 2.4598286
14.384745 -2.9992898 2.4674525
14.434526 -3.1022093 2.4792197
61.401955 -13.591565 10.566978
14.229025 -3.2412155 2.4505475
14.839704 -3.4762452 2.5594361
14.783578 -3.5589249 2.5534694
14.812201 -3.6621134 2.5622535
14.773203 -3.7488067 2.5594361
12.806149 -3.417433 2.2254777
12.794451 -3.4985471 2.2271352
11.893386 -3.3307102 2.0736635
13.361054 -3.8303165 2.3338692
13.386508 -3.9266613 2.3424873
13.165691 -3.9497797 2.3080144
13.13838 -4.0296211 2.3075171
13.174574 -4.1293335 2.31829
13.735988 -4.3980494 2.421875
11.44789 -3.7430022 2.0221195
10.930798 -3.6483157 1.9346108
10.905406 -3.7143633 1.9341136
12.201463 -4.2395506 2.1687961
12.283046 -4.3525476 2.1880214
10.691428 -3.8625269 1.9084245
10.549072 -3.8844359 1.8872102
10.512114 -3.9442403 1.88489
12.692988 -4.8516207 2.2816622
12.560973 -4.8897009 2.2632656
10.990549 -4.3561888 1.9848288
10.813629 -4.3630266 1.9576482
12.644906 -5.192379 2.2952526
12.537284 -5.2383122 2.2814965
15.345641 -6.5226259 2.8002505
15.299898 -6.6143141 2.7992561
63.627304 -27.972042 11.678901
12.226688 -5.4647365 2.2486808
12.42457 -5.6449018 2.2914407
12.074546 -5.5755019 2.2331016
12.056178 -5.6570253 2.2360849
12.442295 -5.9316316 2.3144779
9.6888428 -4.6921053 1.8071598
9.9226875 -4.8807459 1.8563833
9.6243582 -4.8075643 1.8059995
11.208557 -5.6851401 2.1101253
13.810711 -7.1119156 2.6086597
11.629112 -6.0790195 2.203269
9.3736763 -4.9734383 1.7813048
11.657832 -6.2773757 2.2231574
14.062985 -7.6841989 2.6911962
11.496261 -6.373579 2.2070811
9.4378958 -5.3083444 1.8177668
9.2946529 -5.3031077 1.7963868
11.568188 -6.6947579 2.244206
9.207613 -5.4042888 1.7922435
9.1344509 -5.436976 1.7844539
9.0975418 -5.4908838 1.7837909
9.0695667 -5.5502048 1.7849511
9.1442785 -5.6733403 1.8064967
9.1552076 -5.7582197 1.8156123
9.1829004 -5.8545794 1.8282082
13.102612 -8.4672184 2.6197639
13.038037 -8.5393505 2.6172779
12.213878 -8.1070738 2.4616518
10.004476 -6.7293172 2.0242741
9.9727764 -6.7972422 2.026263
14.544838 -10.044828 2.9686384
12.900856 -9.0268631 2.6441271
12.706043 -9.007184 2.6154549
12.833967 -9.216711 2.6534083
14.155984 -10.298384 2.9399662
12.932659 -9.5303011 2.6978257
13.978753 -10.43416 2.9295249
13.542383 -10.238423 2.8511317
15.013953 -11.496456 3.1759744
13.319091 -10.328898 2.8305802
14.807372 -11.629277 3.1622183
13.008415 -10.34608 2.7913008
13.028404 -10.49313 2.809366
5.3803821 -4.3879404 1.1647666
12.972414 -10.713131 2.8254426
5.5250945 -4.6200156 1.2083551
12.118206 -10.260389 2.6665015
13.172827 -11.292849 2.9139457
12.493341 -10.844028 2.7782078
12.618426 -11.08909 2.8211334
11.788342 -10.488486 2.6497622
11.52886 -10.38505 2.6056764
12.529489 -11.426463 2.8478169
11.271579 -10.406666 2.5761755
5.2386146 -4.8963828 1.2030516
11.051337 -10.45744 2.5549612
11.123693 -10.656036 2.5867825
11.026951 -10.693881 2.5794902
11.08357 -10.881556 2.6083281
10.734715 -10.669193 2.5415366
5.6401772 -5.6748433 1.3426014
10.593307 -10.790269 2.5392163
5.6518106 -5.8278761 1.362324
10.534454 -10.997077 2.5572815
10.46339 -11.057927 2.5564528
10.699041 -11.446854 2.6311998
10.389787 -11.253608 2.572032
10.648137 -11.676386 2.6537399
5.3727527 -5.9645419 1.3470762
10.133688 -11.389895 2.5600989
4.0577521 -4.6173401 1.0310174
10.745578 -12.380305 2.7530158
5.4545321 -6.3626423 1.4064097
10.001498 -11.812782 2.5992126
10.003474 -11.9632 2.6187696
5.3992872 -6.5380054 1.4229834
9.7998209 -12.016274 2.6038532
11.212311 -13.921822 3.0021172
3.6961684 -4.647253 0.99588138
3.8241205 -4.8691711 1.0384755
3.5161843 -4.53406 0.96223694
3.7472932 -4.8938088 1.0338349
3.7017326 -4.896256 1.0295258
3.1891036 -4.272408 0.89395368
3.5799429 -4.8579526 1.0121235
3.5303433 -4.8527131 1.0064884
3.5890856 -4.997642 1.0320119
3.1203625 -4.4016809 0.90472651
4.2403975 -6.0602312 1.2410051
3.6035211 -5.2178512 1.0636674
3.5914311 -5.2692003 1.069634
2.7912464 -4.1496143 0.83843207
4.1151805 -6.2831511 1.2602305
3.3743298 -5.2215686 1.0427847
3.5786684 -5.6130495 1.116703
4.632535 -7.3654304 1.460274
3.3026009 -5.3230186 1.05074
3.519012 -5.7503109 1.1309563
3.631947 -6.0174913 1.1791855
3.5853724 -6.023562 1.1760366
3.5633204 -6.0709634 1.1810086
3.5176053 -6.0782027 1.1781911
3.4748688 -6.0902495 1.176368
3.4828765 -6.1922541 1.1919472
3.330539 -6.00737 1.1523362
2.9820104 -5.4573827 1.0431162
4.0254583 -7.5869517 1.4413801
2.9500346 -5.6433172 1.0681423
3.6223466 -7.0343208 1.3276851
3.2998726 -6.5058379 1.2239343
3.3581612 -6.722702 1.2608935
2.6831238 -5.4547329 1.0195817
2.7665126 -5.7125144 1.0646619
2.5697289 -5.3902164 1.0015165
3.5201559 -7.502141 1.3906648
2.2743642 -4.9253278 0.90969861
2.347707 -5.1672463 0.95179558
2.035898 -4.554915 0.83644325
1.9126669 -4.3506503 0.79666656
1.8847619 -4.3595886 0.79616934
1.8271171 -4.2984633 0.78291047
1.8014681 -4.3114133 0.78324193
1.7686121 -4.3068771 0.78042442
1.7336659 -4.2966137 0.77661246
1.7119935 -4.3190889 0.77876705
1.6886792 -4.3377833 0.78025866
1.6602708 -4.3434567 0.77942997
1.6273532 -4.3369427 0.77644676
1.6027561 -4.3523989 0.77744114
1.5753499 -4.3602962 0.77710968
1.5452724 -4.3605847 0.77545232
1.5126615 -4.3532166 0.7724691
1.4856043 -4.3614826 0.77230334
1.4659953 -4.3920317 0.7761153
1.4365671 -4.393445 0.77478939
1.4074775 -4.3956027 0.77362925
1.3801851 -4.4032149 0.77346349
1.3508283 -4.404058 0.77213758
1.3234968 -4.4113188 0.77197188
1.2958493 -4.4174643 0.77164042
1.269807 -4.4291239 0.77230334
1.2420746 -4.4349327 0.77197188
1.2127583 -4.4348607 0.77064598
1.1867949 -4.4469824 0.77147466
1.1577476 -4.4475002 0.77031451
1.1272835 -4.4420938 0.76815993
1.0985861 -4.4431829 0.76716554
1.0689948 -4.4402523 0.76550817
1.0437537 -4.4553695 0.76699978
1.0159585 -4.4597669 0.76666832
0.98686999 -4.4582138 0.76534241
0.95887476 -4.4612932 0.76484519
0.93148273 -4.4670925 0.76484519
0.90425098 -4.4736905 0.76501095
0.87792033 -4.4849615 0.7660054
0.85313654 -4.5047979 0.76849139
0.82352692 -4.4992776 0.76666832
0.79264474 -4.4857941 0.76351935
0.76427752 -4.4857125 0.76269066
0.73897409 -4.503942 0.76501095
0.71117091 -4.5074172 0.76484519
0.6821714 -4.5029206 0.76335359
0.65297061 -4.4962864 0.76153052
0.62482685 -4.4963012 0.76086754
0.59670746 -4.4961395 0.76020461
0.56848991 -4.4948244 0.75937593
0.54089952 -4.4982281 0.75937593
0.51429385 -4.5102806 0.76086754
0.48703232 -4.5172734 0.76153052
0.45850846 -4.5123277 0.76020461
0.42781651 -4.4836416 0.75490105
0.40581653 -4.5480652 0.76534241
0.37839192 -4.5563664 0.76633686
0.35027638 -4.5566359 0.7660054
0.32161567 -4.5488625 0.76434803
0.29407918 -4.5566545 0.76534241
0.26686117 -4.5711722 0.767497
0.23490219 -4.4978757 0.75490105
0.064724706 -1.4019936 0.23382667
0.054981235 -1.3737882 0.22902031
0.046251494 -1.3652292 0.22752869
0.035615511 -1.2836663 0.21377259
0.027611462 -1.277945 0.21277818
0.01951278 -1.2613275 0.20996065
0.011773053 -1.2614235 0.20996065
0.0040479158 -1.2664028 0.21078934
-0.0037226616 -1.2664038 0.21078934
-0.011574957 -1.2752323 0.21228096
-0.019399418 -1.2751372 0.21228096
-0.027032383 -1.2661207 0.21078934
-0.034855135 -1.2679025 0.21112081
-0.042600892 -1.2666793 0.21095508
-0.049664162 -1.2486571 0.20797183
-0.057370223 -1.249314 0.20813756
-0.065086223 -1.2499233 0.2083033
-0.072581969 -1.2465469 0.2078061
-0.080864377 -1.2559192 0.20946345
-0.089194968 -1.2642529 0.21095508
-0.096799433 -1.2617153 0.21062361
-0.10560034 -1.2738738 0.21277818
-0.1134147 -1.2732019 0.21277818
-0.12150579 -1.2754271 0.21327539
-0.1268371 -1.2501297 0.20913199
-0.13122839 -1.2189327 0.20399415
-0.14038099 -1.2328019 0.20648021
-0.14641215 -1.2191888 0.20432563
-0.15215786 -1.2045702 0.20200533
-0.16460593 -1.2417402 0.20846903
-0.16855717 -1.2143338 0.20399415
-0.17402083 -1.1996136 0.20167385
-0.21121605 -1.3954822 0.23515256
-0.22192627 -1.4077977 0.23747286
-0.23008119 -1.4034899 0.23697565
-0.2477984 -1.4555206 0.24609114
-0.2548371 -1.4432905 0.24426804
-0.26670653 -1.4581906 0.24708556
-0.27344677 -1.4448992 0.24509671
-0.27946573 -1.4286771 0.24261068
-0.28998506 -1.4356351 0.2441023
-0.2981846 -1.4309325 0.24360509
-0.3077879 -1.4329326 0.24426804
-0.32019773 -1.4473858 0.24708556
-0.32972983 -1.4482784 0.24758276
-0.34018463 -1.4529492 0.24874291
-0.35001668 -1.4546696 0.24940586
-0.35704213 -1.4448358 0.24807997
-4.2773705 -16.856047 2.9205751
-4.4994678 -17.285671 2.9997969
-4.7275014 -17.715092 3.0793502
-4.9794393 -18.209887 3.1706707
-5.2160792 -18.625319 3.2485669
-5.4936028 -19.162699 3.3481743
-5.7834635 -19.716278 3.4510963
-6.1010046 -20.335957 3.5661173
-6.4165292 -20.920399 3.675503
-6.771009 -21.6024 3.8026228
-7.119957 -22.23667 3.9219527
-7.5379262 -23.053974 4.074264
-7.9502592 -23.819248 4.218123
-8.4018278 -24.667114 4.3773956
-8.9084339 -25.637922 4.5593739
-9.4186926 -26.579235 4.7370429
-10.220294 -28.288746 5.0529361
-10.744342 -29.177757 5.2234783
-16.539852 -44.079994 7.9103928
-16.874094 -44.145329 7.9405565
-17.200457 -44.184322 7.9664116
-18.065746 -45.577801 8.2375555
-18.121449 -44.911888 8.1371193
-18.394434 -44.794376 8.1361256
-19.700048 -47.148407 8.5856018
-19.538385 -45.966583 8.3920221
-19.373938 -44.813908 8.203083
-19.749374 -44.185646 8.1318159
-20.012369 -44.046574 8.1286669
-20.309544 -43.982044 8.1396055
-20.729424 -44.177101 8.1991053
-20.857927 -43.750862 8.1435833
-21.064945 -43.496025 8.1200485
-4.7201262 -9.5961571 1.7952267
-4.7167788 -9.4426212 1.771858
-4.5988612 -9.0669794 1.7065579
-4.648088 -9.0263166 1.7042376
-3.7407606 -7.156198 1.3550316
-4.4113746 -8.314373 1.5797697
-4.3776793 -8.1299896 1.5497715
-5.7529612 -10.528691 2.0143299
-5.7495542 -10.370722 1.9907954
-4.6232772 -8.2199392 1.5829188
-5.1213012 -8.976016 1.734733
-4.3528252 -7.5215816 1.4584509
-4.8272104 -8.2244501 1.6006525
-5.8147802 -9.7691603 1.9085902
-4.1842651 -6.9327636 1.3588434
-5.295907 -8.6540365 1.7030774
-4.8554997 -7.8261356 1.5457939
-1.2931435 -2.0562892 0.40619224
-1.2946029 -2.0308535 0.40271178
-1.2829529 -1.9855998 0.39525366
-1.2556679 -1.9174677 0.3831549
-1.2619557 -1.9015105 0.38149756
-1.2647927 -1.8806392 0.37884578
-1.2724204 -1.867139 0.37768561
-1.2832925 -1.858485 0.37751988
-1.2946719 -1.8505758 0.37751988
-1.3094244 -1.8474241 0.37851429
-1.3299395 -1.8521709 0.38116607
-1.3447601 -1.8487605 0.38216048
-1.3952763 -1.8936647 0.39326483
-1.4050997 -1.8826971 0.39276761
-1.4160306 -1.8732535 0.39260188
-1.4280976 -1.8653126 0.39276761
-1.4407247 -1.8580735 0.39309907
-1.4520985 -1.8491983 0.39309907
-1.4689425 -1.8471999 0.39459071
-1.4783932 -1.8358479 0.39409348
-1.4615817 -1.7923518 0.38663536
-1.4669001 -1.7765067 0.38514376
-1.4765078 -1.7659594 0.38481227
-1.4892275 -1.7591243 0.38530949
-1.5025606 -1.7529484 0.38597244
-1.5178134 -1.748909 0.38713259
-1.5304689 -1.7417852 0.38762978
-1.5437496 -1.7353086 0.38829273
-1.5570083 -1.7287346 0.38895568
-1.5908446 -1.7446514 0.39475644
-1.667749 -1.8065892 0.41116431
-4.7515221 -5.0215178 1.1597944
-5.0749102 -5.2977715 1.2308952
-7.4615445 -7.6940212 1.7992043
-7.4692326 -7.6079822 1.7897575
-7.4782333 -7.5242381 1.7808077
-5.1334481 -5.1021142 1.2143216
-5.1695833 -5.0753565 1.2154818
-7.8059025 -7.5699911 1.8253907
-6.4734735 -6.2012548 1.5045255
-8.0543699 -7.6213908 1.8615211
-7.9230251 -7.4054995 1.8205843
-7.8436861 -7.2416854 1.7920778
-6.9093533 -6.301003 1.5694941
-7.7363191 -6.9686627 1.7478262
-7.5785279 -6.7427649 1.7027459
-5.9581685 -5.2360096 1.3309999
-5.9618826 -5.1747885 1.3247019
-5.9111629 -5.0675082 1.3064709
-5.8969865 -4.992909 1.2965267
-6.5743542 -5.4975009 1.4382311
-6.2574143 -5.1675773 1.3618268
-6.1850662 -5.0443211 1.3392867
-6.7842641 -5.4640112 1.4619313
-6.4271121 -5.1116786 1.3780689
-6.4273324 -5.0477834 1.3714395
-6.4363632 -4.9913297 1.3667989
-6.4817457 -4.9631338 1.3699478
-7.0352125 -5.3187528 1.4801624
-6.4354715 -4.8035865 1.3475734
-9.4038754 -6.9297266 1.9611286
-6.9277654 -5.0398426 1.4377339
-8.7576685 -6.2891979 1.8099773
-6.1628251 -4.3687501 1.2675229
-6.2460775 -4.3704286 1.2791244
-6.6127863 -4.5668221 1.3485678
-6.8867841 -4.6938896 1.3986201
-7.7787585 -5.2322006 1.5734718
-7.2823901 -4.8337102 1.4669034
-7.072793 -4.5705662 1.4132049
-6.9942656 -4.4592247 1.3919908
-7.0440345 -4.4304004 1.3964657
-7.2060041 -4.470798 1.4231491
-7.0457191 -4.3117123 1.3861899
-7.1151028 -4.2943873 1.3946425
-7.1209803 -4.2385435 1.3906648
-7.3331146 -4.3040886 1.4269611
-47.143833 -26.897058 9.1197691
-47.408573 -21.188158 8.7249861
-31.388731 -11.339337 5.6068263
-24.014816 23.577414 5.6538954
-23.913761 23.76812 5.6643367
-23.561701 23.707359 5.6152787
-23.495241 23.932413 5.6343384
-4.3665652 24.716433 4.2161345
-4.2096925 24.712624 4.2109966
-4.0662799 24.788593 4.219615
-3.9952333 25.327415 4.3071237
-3.8255751 25.257849 4.291213
-3.6922021 25.430164 4.3165703
-6.4766765 46.619366 7.9080725
-3.3840072 25.504841 4.3218741
-5.7184215 45.226784 7.6593022
-5.4355111 45.216961 7.6518445
-2.7263412 23.916702 4.0434375
-2.5781662 23.920235 4.0412827
-2.5219307 24.827442 4.191937
-2.3933275 25.091806 4.2340341
-2.2430015 25.147274 4.2409949
-3.433785 41.365791 6.9738178
-3.1878369 41.489326 6.99122
-1.811717 25.636812 4.3172336
-1.6570443 25.688778 4.3241944
-1.1830556 25.696209 4.3210454
-1.0310632 25.845865 4.345077
-0.87342107 25.880287 4.3498836
-0.70097518 25.391275 4.2668495
-0.54444468 25.361578 4.2612147
-0.63793856 41.623493 6.9940376
-0.37876159 41.216396 6.9250913
-0.081467487 26.659182 4.4783287
0.12617262 40.931953 6.877028
0.37564132 40.747974 6.8463669
0.62631041 40.7873 6.8534932
0.52986312 24.65563 4.1425476
0.68478811 24.78401 4.1647563
1.0604411 23.021566 3.8710718
1.5701715 30.070921 5.0585709
1.840171 31.525648 5.3051863
1.6426002 25.4555 4.284915
1.7996655 25.457733 4.2870693
1.9566686 25.457026 4.2888927
2.1415615 25.790482 4.3472314
2.533251 28.39362 4.7887526
2.8752778 30.136765 5.085752
3.0069046 29.594641 4.9972486
3.0699375 28.476507 4.8114586
3.3141003 29.066584 4.9145465
3.5939906 29.890678 5.0575767
3.7699041 29.809361 5.0476327
3.8368826 28.912672 4.8996301
4.125926 29.69248 5.0360308
4.1824679 28.801926 4.8891888
4.7508464 31.36154 5.328721
3.8272309 24.258711 4.1253109
4.5769906 27.897741 4.7491417
3.080476 18.081417 3.0805104
3.2440436 18.360312 3.1313913
5.0016561 27.32762 4.6669364
3.4516759 18.227068 3.1156464
3.5573878 18.174576 3.110343
3.6530125 18.07411 3.0969183
5.4038734 25.916515 4.4471707
3.8660386 17.988392 3.0901232
4.0792851 18.429394 3.1701736
4.16469 18.282864 3.1492908
3.9609826 16.90888 2.9165974
3.8354516 15.932192 2.7520213
4.1795444 16.904951 2.9245527
4.1425004 16.324583 2.8284256
4.8549743 18.651367 3.2369654
4.9367771 18.499266 3.2157512
4.4487844 16.269348 2.8325691
4.4253893 15.802066 2.7558334
6.5551705 22.865511 3.9955397
7.7346463 26.367788 4.6160555
8.1289539 27.095331 4.7521248
8.1432343 26.549963 4.6651134
8.2605648 26.354578 4.6395903
5.7675743 18.013096 3.1766374
8.5848866 26.255911 4.640419
5.8145866 17.420858 3.0844882
6.0221653 17.680775 3.1370263
9.1460209 26.321669 4.6810241
6.136898 17.318316 3.085814
16.142101 44.679394 7.9818249
6.4920864 17.630379 3.1554232
6.6545348 17.735172 3.1814437
6.7530193 17.667294 3.1766374
6.7997622 17.467459 3.1481307
20.827497 52.545307 9.4971504
7.007699 17.368067 3.145479
7.1313672 17.366705 3.1531029
7.8445954 18.774876 3.4176178
7.9831805 18.78175 3.4277277
8.1455898 18.528898 3.3995523
8.7396154 19.55356 3.5974414
9.1194773 19.749249 3.6537917
9.1714411 19.23794 3.5797076
9.3073635 19.21858 3.5866685
8.5425434 17.101164 3.2106133
8.7860718 17.061678 3.2232091
9.0034418 17.223314 3.2641461
9.3303576 17.58502 3.3435335
10.91978 20.279036 3.8687515
11.134797 20.37781 3.9005728
10.206192 18.409056 3.5354562
10.208243 18.149252 3.4975026
12.612035 22.104345 4.2749705
11.845924 20.468843 3.9725022
10.570535 18.009306 3.5074468
13.343626 22.417574 4.3823676
12.267566 20.325005 3.9877501
10.466797 17.103434 3.3678968
10.532551 16.97604 3.3554666
11.190449 17.79178 3.5303183
11.533741 18.090321 3.6035736
10.971702 16.978077 3.3952434
11.043251 16.860939 3.3852992
12.834464 19.335829 3.8982525
13.044784 19.393366 3.9259305
13.176865 19.332518 3.929908
12.178313 17.404678 3.5679402
14.808593 20.889629 4.3013229
13.516757 18.821489 3.8922861
13.608202 18.705502 3.8854907
15.752819 21.376438 4.4605951
16.116251 21.31682 4.4891019
16.158611 21.102432 4.4647384
15.948144 20.564928 4.3715949
16.059408 20.448071 4.3676171
14.95377 18.801659 4.0353165
17.541363 21.779381 4.6977634
21.176949 25.965511 5.629035
16.045853 19.429602 4.2328739
16.140728 19.302032 4.2265759
16.191948 19.123606 4.2091732
16.180611 18.874155 4.1760263
16.477411 18.749731 4.1929312
15.046915 16.70406 3.7762706
16.324005 17.899683 4.0692921
16.492399 17.862944 4.0838771
18.621267 19.922031 4.5809197
18.435425 19.482197 4.5056753
15.836708 16.531595 3.8453827
15.966682 16.463844 3.8523436
16.032856 16.330379 3.8440568
17.214485 17.320042 4.1019421
16.203371 16.103901 3.8372617
18.370138 18.034632 4.3243599
18.430893 17.873516 4.3127584
16.912464 16.003019 3.9110141
17.0723 15.956856 3.9252675
17.082212 15.770859 3.9052134
17.184488 15.671063 3.9065392
24.524237 22.09021 5.5450068
16.903963 15.03948 3.8004682
23.008909 19.970541 5.1182361
18.668633 16.003672 4.1304488
24.868176 21.054806 5.4740715
18.738029 15.668363 4.1029367
24.860218 20.274385 5.3892145
25.183847 20.282291 5.4323063
25.146507 19.99909 5.3976674
25.263317 19.840157 5.3965073
25.319117 19.634007 5.382585
24.984186 19.129957 5.2862926
25.027147 18.920395 5.2707133
25.697563 19.180563 5.3870602
26.008482 19.16527 5.4274998
26.222086 19.07552 5.4475536
37.148235 25.318476 7.5532312
37.460003 25.195738 7.5850525
37.839027 25.114838 7.6304646
38.306736 25.088045 7.6936097
38.872231 24.447996 7.715487
39.018993 24.207458 7.7149897
39.21558 23.997444 7.7246022
8.9430485 5.3976049 1.7534612
37.597858 22.378033 7.3511992
7.8076973 4.5826254 1.5194418
7.8817601 4.5613046 1.5283916
7.90446 4.5099254 1.5273972
7.6560678 4.3061585 1.4741958
8.8613834 4.9127278 1.7007571
8.6975079 4.7523456 1.6636323
38.056911 20.49148 7.262033
8.8257351 4.682693 1.6770569
8.5894871 4.4900298 1.6268388
8.6273966 4.4426589 1.6288277
8.6413012 4.382947 1.6263416
8.4245348 4.2082171 1.5805985
8.5165663 4.1890898 1.5930287
8.5429974 4.1371841 1.5931944
8.1747541 3.897121 1.5199391
8.5074167 3.9918237 1.5772837
8.1789865 3.7766674 1.5119836
7.4531922 3.3862219 1.3737597
7.5638633 3.3806646 1.3903334
7.1222334 3.1310019 1.3054764
7.2970076 3.1545463 1.3339831
8.5941238 3.6528397 1.5673395
8.5417595 3.5688646 1.5537492
8.6346531 3.5456035 1.5666766
8.6086903 3.4733686 1.5580584
13.893138 5.506494 2.5095494
8.4144812 3.2755311 1.5154642
7.9885697 3.0534344 1.4352479
14.093706 5.2879395 2.5277803
9.5338926 3.5105867 1.7053977
14.889338 5.3789525 2.6585462
8.0728846 2.8050077 1.4342535
8.4446802 2.8762345 1.4972332
8.0140896 2.6748223 1.4178456
8.0322256 2.6262114 1.418177
8.0491276 2.5771778 1.4183428
14.985175 4.6966238 2.6371663
8.2328854 2.5250502 1.445192
14.285068 4.2854114 2.5044117
10.256172 3.008359 1.7942322
15.436251 4.4250107 2.6966655
15.58887 4.0575213 2.7051182
14.680533 3.7250788 2.5433595
14.735663 3.6429772 2.5489945
14.581323 3.5100276 2.5184991
14.881039 3.485713 2.5665627
27.692617 6.3075266 4.7711844
31.834555 7.0457201 5.4775519
15.467175 3.1258559 2.6499279
15.665215 2.9662695 2.6774402
77.057335 -5.0800004 11.470602
