# .PCD v0.7 - Point Cloud Data file format
VERSION 0.7
FIELDS x y z
SIZE 4 4 4
TYPE F F F
COUNT 1 1 1
WIDTH 1542
HEIGHT 1
VIEWPOINT 0 0 0 1 0 0 0
POINTS 1542
DATA ascii
14.024392 -9.3978424 4.808692
8.5086384 -5.777585 2.9281805
13.931778 -9.5855894 4.816916
13.869544 -9.6686926 4.8158193
9.2058296 -6.5868025 3.2231412
9.1699123 -6.6465516 3.224786
9.1739187 -6.7357035 3.2406855
11.063906 -8.2283783 3.9268255
8.0013552 -6.0272627 2.8519733
9.1959429 -7.0160093 3.293592
8.0112581 -6.190268 2.8824012
9.4416313 -7.3885159 3.4139338
8.0379477 -6.369945 2.9199567
8.2274675 -6.6027336 3.0035655
9.7130146 -7.8934269 3.5641553
8.4569635 -6.9592462 3.1184247
9.4284983 -7.8562717 3.4948013
8.8170862 -7.4389367 3.2848198
8.4561262 -7.2236714 3.166671
8.0501451 -6.9627442 3.0304298
8.7886353 -7.6962738 3.3264871
8.7757874 -7.7806802 3.3396454
7.7710485 -6.9754777 2.9731374
10.358547 -9.4135628 3.986311
11.094652 -10.207527 4.2938814
8.3858614 -7.8108277 3.2631638
7.5072632 -7.0789766 2.9377749
7.3976026 -7.0618215 2.9117329
7.4011569 -7.1525245 2.9303737
7.3722534 -7.2125983 2.9364045
7.4604139 -7.388988 2.9895849
8.1144152 -8.1359854 3.2719359
8.2533178 -8.3774452 3.3486915
8.8248396 -9.0682087 3.6033554
8.7050524 -9.0556278 3.5770392
7.8003941 -8.2148132 3.2256083
8.8176136 -9.4009628 3.6705167
9.0630274 -9.7822256 3.7977116
7.8932781 -8.6251783 3.3292284
9.8715696 -10.920765 4.1927285
8.2403049 -9.2292948 3.5233104
8.1453562 -9.2364044 3.5068629
8.0897923 -9.2876596 3.507411
7.9956484 -9.2941093 3.4912376
7.9808135 -9.3928308 3.5098782
7.9780478 -9.5071888 3.5342755
7.4286432 -8.9635887 3.3149738
8.3169909 -10.161794 3.7395966
7.4770751 -9.250783 3.3870692
7.7933197 -9.7640057 3.5575762
7.6392064 -9.6923027 3.5142641
9.3291931 -12.140074 4.3607688
9.2667341 -12.213177 4.3665252
8.3613501 -11.161462 3.9717822
6.5586476 -9.0993633 3.1938097
7.7665763 -10.915861 3.8152556
8.0448866 -11.455191 3.9865851
6.9614611 -10.042916 3.4797242
6.8964496 -10.080679 3.4780793
6.7720442 -10.030347 3.4462807
7.2137275 -10.827228 3.7050567
7.1027799 -10.803784 3.68203
7.0504856 -10.868947 3.6894314
6.1132808 -9.5519896 3.229172
6.8944993 -10.919683 3.677644
5.4638019 -8.7724247 2.9424353
5.4108791 -8.8074236 2.9429834
5.7599077 -9.5058546 3.1647522
5.994494 -10.031385 3.3275838
5.9455233 -10.08952 3.3347111
6.7323704 -11.586802 3.8163521
6.8074236 -11.883243 3.9002352
5.972549 -10.575749 3.4586165
5.8168025 -10.449183 3.4054358
5.6734762 -10.340503 3.3585601
6.559484 -12.131322 3.9276478
5.8622437 -11.002619 3.550175
5.6667848 -10.794852 3.4717746
5.6282725 -10.883236 3.4890444
5.5544043 -10.903854 3.4846585
5.2152858 -10.39533 3.3116844
6.1664486 -12.481799 3.9649291
5.5374265 -11.3839 3.6050003
5.0330262 -10.510384 3.3182633
5.0164118 -10.642847 3.3503363
5.5017629 -11.860778 3.7234232
5.4081192 -11.84882 3.7091684
5.2868609 -11.773871 3.6754508
5.2246203 -11.828961 3.6825783
4.0792603 -9.5511427 2.9569638
4.4727426 -10.838834 3.3388228
4.3562837 -10.743086 3.3009934
4.3244495 -10.855382 3.3273096
4.2479491 -10.856635 3.319634
4.2036729 -10.940847 3.3374522
4.1442676 -10.98713 3.3437572
3.6841869 -13.068261 3.8667915
3.5536478 -12.907962 3.8127885
3.647572 -13.574076 4.0030327
3.3274317 -12.692916 3.7368553
3.1839702 -12.783185 3.7516582
3.124743 -12.881921 3.7749591
3.059562 -12.959818 3.7922289
2.9866557 -13.007402 3.8007269
2.9208207 -13.088371 3.8190935
2.889138 -13.330677 3.8846099
2.4950686 -15.045519 4.3437729
2.351043 -14.736702 4.2502952
2.195025 -14.323082 4.1269383
2.0476699 -13.931905 4.0104342
1.905334 -13.540426 3.8942044
1.7646778 -13.123912 3.7711213
1.640458 -12.793956 3.6732578
1.5217528 -12.474438 3.5786841
1.4079167 -12.161598 3.4863033
1.2982924 -11.850713 3.3947449
1.192834 -11.541821 3.3040087
1.1171575 -11.499149 3.2897542
1.0466661 -11.506745 3.2900283
0.97856027 -11.542657 3.2985263
0.90869695 -11.560907 3.3020899
0.83857691 -11.577776 3.3053794
0.76980984 -11.617249 3.315248
0.70007074 -11.647673 3.3226495
0.62931389 -11.665193 3.3264871
0.55846018 -11.684204 3.3308733
0.48703673 -11.694137 3.332792
0.41571707 -11.709399 3.3363557
0.34462342 -11.737684 3.3437572
0.27295282 -11.75496 3.3481431
0.20096831 -11.765068 3.3506103
0.12919588 -11.804545 3.3615754
0.056941923 -11.842621 3.3722663
-0.015715074 -11.836016 3.3703475
-0.088504605 -11.857815 3.3766525
-0.16149677 -11.874357 3.3815868
-0.23490418 -11.901027 3.3895364
-0.30844581 -11.91955 3.395293
-0.38213119 -11.934734 3.4002273
-0.45638138 -11.959073 3.407903
-0.53149813 -11.995439 3.419142
-0.60630274 -12.015964 3.4259953
-0.68246645 -12.055224 3.4383311
-0.75907457 -12.093041 3.4503925
-0.83498162 -12.1131 3.45752
-0.9094345 -12.109667 3.4580681
-0.98605841 -12.132615 3.4662919
-1.063836 -12.164658 3.477257
-1.1411471 -12.186626 3.4854808
-1.21829 -12.203319 3.4923341
-1.2967963 -12.230041 3.5022025
-1.3757833 -12.257215 3.5123453
-1.4557184 -12.288652 3.5238585
-1.5351388 -12.311935 3.533179
-1.6134014 -12.323262 3.5392098
-1.6930369 -12.342667 3.5477078
-1.7720155 -12.354893 3.5542867
-1.8556216 -12.396098 3.5693638
-1.9362423 -12.413935 3.5778618
-2.0179222 -12.435994 3.5877302
-2.1009045 -12.463207 3.5992436
-2.1833024 -12.484185 3.6091123
-2.2670655 -12.510298 3.6206255
-2.350167 -12.530179 3.6304941
-2.4328656 -12.545734 3.6392663
-2.5184875 -12.573947 3.651876
-2.6053257 -12.605346 3.6655824
-2.6994586 -12.668131 3.6886091
-2.7839427 -12.682327 3.6976552
-2.8684907 -12.695024 3.7064273
-2.9541698 -12.710905 3.716296
-3.0437267 -12.741179 3.7305505
-3.1319325 -12.763358 3.7426121
-3.2193501 -12.780272 3.7533031
-3.3123868 -12.817074 3.7700248
-3.4077203 -12.859721 3.7886653
-3.4923592 -12.859916 3.7949703
-3.5838296 -12.883644 3.8084025
-3.6870492 -12.946504 3.8336222
-3.7801416 -12.970724 3.8476026
-3.8703728 -12.983228 3.8582938
-3.969311 -13.022709 3.8772085
-4.0668764 -13.055036 3.8942044
-4.1638207 -13.082986 3.9101036
-4.2621527 -13.112981 3.9268255
-4.3622198 -13.145911 3.9446437
-4.4569898 -13.160798 3.9572535
-4.5577598 -13.191377 3.9747977
-4.658752 -13.220304 3.9920676
-4.7576685 -13.241247 4.0071445
-4.8692541 -13.294885 4.0323644
-4.9675522 -13.309806 4.0460706
-5.0665584 -13.324919 4.060051
-5.1600313 -13.324071 4.0693717
-5.2910824 -13.417408 4.1077495
-5.3905091 -13.427528 4.1209073
-5.4866199 -13.42803 4.1313243
-5.5866318 -13.436735 4.1444821
-5.6809621 -13.430546 4.1532545
-5.7910099 -13.459923 4.1732655
-5.8950768 -13.473476 4.1886168
-6.0093007 -13.508223 4.2108212
-14.989775 -33.145557 10.365796
-30.538042 -29.355261 12.070867
-29.34222 -26.851812 11.334013
-32.302479 -27.106415 12.016589
-32.409695 -26.859221 11.994933
-33.759792 -19.065088 11.048099
-35.563423 -19.229008 11.520693
-35.670555 -19.005007 11.517404
-35.901451 -18.846123 11.554411
-39.091549 -19.912685 12.501794
-39.623878 -19.878582 12.632827
-40.029636 -19.775644 12.723289
-42.676231 -18.536686 13.259207
-43.220592 -18.145981 13.358167
-43.457359 -17.932531 13.397093
-43.509533 -17.642418 13.379549
-43.365917 -17.27511 13.302519
-23.687527 -9.1009722 7.2297826
-23.536865 -8.877737 7.1670074
-23.488081 -8.6950903 7.135757
-22.591883 -8.206068 6.8479233
-22.763201 -8.1105433 6.8846564
-23.211094 -8.109971 7.0049982
-22.182301 -7.5981183 6.6801577
-22.127306 -7.427897 6.6497297
-22.277525 -7.3265371 6.6812539
-24.070448 -7.7528305 7.2048368
-24.065285 -7.5885067 7.1892114
-23.885338 -7.3709421 7.1217761
-25.94175 -7.8315225 7.7207441
-22.618774 -6.3765297 6.6952348
-22.655621 -6.2371135 6.6946864
-22.609877 -6.0755229 6.6700149
-24.017937 -6.2961187 7.0740781
-23.156055 -5.9185839 6.8092713
-22.523773 -5.6099763 6.6129966
-24.899864 -6.0397534 7.2999587
-22.592793 -5.3335943 6.6135449
-23.9167 -5.4914188 6.991292
-24.845379 -5.5443797 7.252809
-22.74917 -4.9302745 6.6316371
-23.767227 -4.8463316 6.9106984
-23.531141 -4.4981523 6.8254452
-22.345934 -4.1296415 6.4740143
-22.309315 -3.9814696 6.4561958
-22.231915 -3.8270514 6.4268641
-22.297672 -3.6976461 6.4391999
-22.333237 -3.5628817 6.4430375
-22.425972 -3.4367054 6.4635973
-24.926176 -3.6634431 7.1779723
-22.472172 -3.1620495 6.4652419
-22.410135 -3.0132108 6.4419413
-24.995108 -3.204747 7.1796169
-22.236362 -2.7124767 6.3819075
-22.20966 -2.4330103 6.3651857
-22.126598 -2.2866061 6.3372245
-25.680851 -2.4947231 7.3512206
-25.591282 -2.3276074 7.3213406
-25.541836 -2.1651773 7.3032484
-23.358171 -1.8358023 6.6752234
-26.53046 -1.9213836 7.5787463
-22.413593 -1.4850689 6.3994513
-23.411047 -1.4069281 6.6818023
-25.422419 -1.3712932 7.2536316
-24.783947 -1.0320148 7.067225
-24.92277 -0.57852679 7.1025872
-24.235455 -0.41380918 6.9057641
-25.176094 -0.27535439 7.1733122
-24.464703 -0.11745518 6.9701838
-27.37142 0.204512 7.7988701
-27.385998 0.37267858 7.8035302
-24.761169 0.48891848 7.0559859
-24.437565 0.63255221 6.9647017
-24.765799 0.79313952 7.0595493
-24.620163 0.93972844 7.019527
-24.695597 1.0943967 7.0428276
-24.563555 1.2396035 7.0071912
-24.669746 1.3967692 7.0398121
-24.46203 1.53564 6.983068
-24.488605 1.688221 6.993485
-50.38166 4.4065504 14.412459
-50.339108 5.0260081 14.416845
-50.39817 5.3444228 14.442887
-48.095367 6.5976992 13.834326
-47.502075 7.4095292 13.700552
-47.286747 7.6734366 13.651757
-46.996952 7.9226718 13.581855
-46.895351 8.2017784 13.566777
-3.5505025 1.0346205 1.0506843
-3.552382 1.0588593 1.0531515
-3.543978 1.0800756 1.0526032
-3.4922938 1.0877848 1.039171
-28.704817 9.1358681 8.583148
-28.659195 9.3153925 8.5864372
-28.770357 9.547101 8.6371508
-28.215721 9.5556374 8.4880257
-27.771156 9.5954208 8.3717957
-28.596102 10.07729 8.6390696
-27.497458 9.880209 8.3251944
-29.344522 11.78063 9.009963
-28.824783 11.777856 8.8723516
-29.23238 12.154245 9.0206547
-28.516882 12.062506 8.8224602
-26.590679 11.82937 8.2922993
-26.93305 12.580551 8.4699335
-28.393085 13.689479 8.9814539
-26.771198 13.110545 8.4935083
-50.463055 26.267818 16.212927
-31.680548 24.791998 11.463401
-31.498436 24.962624 11.45271
-31.349174 25.159037 11.454354
-31.314369 25.448566 11.498488
-28.140409 26.211302 10.958459
-27.97765 26.382156 10.957911
-27.931412 26.664227 11.00369
-27.360661 26.442137 10.842503
-27.367691 26.77564 10.910213
-27.176949 27.249741 10.966682
-26.486376 27.217285 10.821943
-26.438173 27.503395 10.871012
-26.216602 27.610004 10.849356
-15.75525 21.578602 7.612464
-15.622551 21.674868 7.612464
-15.567314 21.880022 7.6508417
-7.6502442 29.183687 8.5963058
-7.2961874 29.294033 8.6017885
-7.1224265 29.363485 8.60919
-6.9414582 29.403828 8.608367
-6.75144 29.404623 8.5963058
21.592962 36.935604 12.19203
21.802023 36.773464 12.182436
22.0882 36.740376 12.216153
22.285686 36.55899 12.201077
22.550037 36.487007 12.223006
22.882763 36.522354 12.28167
28.909172 28.831932 11.63473
28.903303 28.47448 11.561812
29.056797 28.276474 11.553589
29.190235 28.059666 11.537963
29.50761 28.018427 11.595256
29.525356 27.692762 11.535222
29.670027 27.488203 11.525627
2.7246354 1.8154591 0.92979431
2.7710817 1.8219519 0.94185591
2.7846291 1.8064845 0.94267827
2.7932312 1.7878093 0.94185591
2.8017089 1.7690963 0.94103348
2.8198581 1.7564478 0.94350064
2.8404152 1.7451532 0.94679016
2.8609397 1.7336721 0.95007968
2.8566639 1.7072057 0.94514543
2.8448868 0.95514983 0.85194224
2.9128158 0.95810586 0.87058288
2.9204707 0.94080484 0.87113112
2.9206853 0.92113221 0.86948633
2.90239 0.89582092 0.86235905
2.8802123 0.8696574 0.85413522
2.8827271 0.85115159 0.85331285
2.8999074 0.83691341 0.85687649
2.9142442 0.82171357 0.85961777
2.9164498 0.80305094 0.8587954
2.9203935 0.78489119 0.85852128
2.8488729 0.74696112 0.83604282
2.8068154 0.71755964 0.82233649
2.8037 0.69846445 0.82014346
2.9004576 0.70369047 0.84728205
2.9393518 0.69405556 0.85742474
2.8685706 0.65879059 0.83549458
17.982853 -4.7591701 4.9081693
18.05316 -4.8964982 4.9354839
17.986444 -4.997086 4.925528
18.31349 -5.2091837 5.0238099
18.27747 -5.3203745 5.0227885
18.083239 -5.384419 4.9783707
18.021187 -5.4865451 4.9704571
17.293673 -5.4978604 4.7879338
18.821133 -6.110795 5.2213941
18.180305 -6.0263176 5.0536771
18.164968 -6.1451917 5.059804
17.412193 -6.0098763 4.860177
16.278744 -5.7307343 4.5533342
16.215063 -5.8203859 4.5454206
16.238066 -5.9413624 4.5620136
15.748326 -5.8720083 4.4343753
15.965082 -6.0646539 4.5058527
15.465878 -5.9838901 4.3751512
14.878324 -5.8617978 4.2189212
14.454402 -5.7975082 4.1086416
14.437356 -5.8937626 4.1140027
14.39467 -5.9796419 4.1122155
14.021946 -5.925972 4.015976
14.250919 -6.1260557 4.0923042
14.157249 -6.1889858 4.0762215
14.021819 -6.232543 4.048141
14.134864 -6.3869328 4.0920486
13.772063 -6.3250594 3.9981067
13.80922 -6.4450159 4.0203161
13.61216 -6.4550633 3.9743659
13.394597 -6.4528685 3.9222896
13.313931 -6.5149632 3.9102914
13.177595 -6.5487757 3.8819559
12.66758 -6.3925676 3.7430851
12.61521 -6.4635615 3.7392559
12.575313 -6.5408454 3.7392559
12.923132 -6.822804 3.8551517
13.13585 -7.0384951 3.9314795
13.304775 -7.2344198 3.9952989
13.12722 -7.2425961 3.9552202
13.054691 -7.3074241 3.9467962
12.946548 -7.3515844 3.9276505
12.943926 -7.4554939 3.9406695
10.229677 -5.9761958 3.1248043
14.798861 -8.7673712 4.5382729
9.5671024 -5.7477889 2.9435575
9.5390863 -5.8109102 2.9458549
9.4645872 -5.8454552 2.933857
14.390752 -9.0099115 4.4795594
13.868239 -8.8017092 4.3335409
13.670855 -8.7945786 4.2886119
9.3579683 -6.1018414 2.9463656
14.012839 -9.2596273 4.4313121
10.362154 -6.9392142 3.2894578
9.776124 -6.6340613 3.1161249
9.5320663 -6.5542421 3.0510292
9.8574104 -6.8673735 3.1687119
9.8032379 -6.9193654 3.1648827
9.738574 -6.9636416 3.1577349
9.0786161 -6.5763512 2.9565766
13.840962 -10.155678 4.5293384
7.9868317 -5.9363799 2.6242061
13.8443 -10.421868 4.5719695
13.713966 -10.456206 4.5500154
9.5384169 -7.3658266 3.1786675
8.1997614 -6.4129071 2.7452073
8.3073063 -6.5795479 2.7947309
9.0436897 -7.2534323 3.0576663
9.321002 -7.5702648 3.1671801
9.2138853 -7.5775728 3.1465027
8.9420815 -7.4465084 3.0691538
9.0507183 -7.6314878 3.1225066
7.7454982 -6.6128125 2.6857278
9.1575508 -7.9158463 3.1927078
9.2033978 -8.0546608 3.225894
8.4134636 -7.4550614 2.9647455
8.3898735 -7.5265589 2.9726591
8.8059216 -7.9977989 3.137568
8.6584578 -7.9613757 3.1023397
10.650569 -9.914156 3.8385587
11.360775 -10.706043 4.1183424
9.5661497 -9.1264687 3.4875529
8.365881 -8.080122 3.0676222
10.95991 -10.715979 4.0438013
8.268157 -8.1842165 3.068388
10.06807 -10.088677 3.7599332
7.5982642 -7.7080832 2.8544657
8.2321367 -8.4541597 3.1122956
8.2015572 -8.5268087 3.1204646
8.6286144 -9.0816193 3.3042638
8.6183853 -9.1830349 3.321878
8.5053444 -9.1747684 3.2999241
8.4658661 -9.2453222 3.3065615
9.5738878 -10.584884 3.765039
7.8892384 -8.8308392 3.1232724
8.1643839 -9.2524223 3.2547402
8.1138105 -9.3096333 3.257293
8.0735674 -9.3790264 3.2641854
8.0283937 -9.44312 3.2692909
8.0567284 -9.5951223 3.3047745
8.1816349 -9.8661547 3.380847
8.077446 -9.8630629 3.3627224
9.6025629 -11.872975 4.0284848
8.9647264 -11.224566 3.7895455
9.6441565 -12.228292 4.1086416
7.5791364 -9.9827394 3.3060508
8.514123 -11.358119 3.7446167
8.4270144 -11.386832 3.7369585
6.8151174 -9.3281765 3.0469446
6.4851203 -8.9918547 2.9239011
7.8094077 -10.969 3.5518825
7.0898118 -10.088824 3.2524426
6.9506207 -10.020916 3.2167039
6.9053893 -10.08731 3.2243621
6.8736777 -10.174355 3.2386577
6.6775603 -10.016032 3.1750937
7.1808939 -10.915421 3.4464531
7.1832776 -11.066324 3.4801497
7.6440258 -11.935769 3.7390006
7.4430752 -11.780559 3.6759472
7.481636 -12.004059 3.7313423
6.8771224 -11.186565 3.4638121
6.0904255 -10.044671 3.0982554
6.1046062 -10.208811 3.1373127
7.3375397 -12.44306 3.8107336
6.7307792 -11.575969 3.5322263
6.5134277 -11.36206 3.454622
6.4112377 -11.344573 3.4372633
6.3259797 -11.355826 3.428839
5.772181 -10.513032 3.1633511
6.0559196 -11.191956 3.3565958
5.6509247 -10.598431 3.1679461
5.3780231 -10.23747 3.0500081
5.3333282 -10.305481 3.0604744
5.2462792 -10.291497 3.0466895
5.2307596 -10.41854 3.07477
5.4474449 -11.018126 3.2419763
5.3856616 -11.063514 3.2455502
5.3866291 -11.240213 3.2876709
5.3126087 -11.26256 3.2846076
4.7967405 -10.332928 3.0045688
5.4922085 -12.023419 3.4867868
5.2276745 -11.632706 3.3639987
4.6424818 -10.502593 3.0285647
4.6928382 -10.795113 3.1046374
4.0377755 -9.4465952 2.7092133
4.5090647 -10.730664 3.0699196
4.4438758 -10.759916 3.0704303
4.3784981 -10.788774 3.0709407
4.3168726 -10.827111 3.0742593
4.2401314 -10.827288 3.0668564
4.1718812 -10.848588 3.0655799
4.1315365 -10.943631 3.0852363
4.0636377 -10.966963 3.0847256
4.0250158 -11.070744 3.1069348
3.6796224 -13.036868 3.5733259
3.5908234 -13.02751 3.5646465
3.5956707 -13.699033 3.7361927
3.3194909 -12.970568 3.5317156
3.2651165 -13.092009 3.5592856
3.1931694 -13.146559 3.5687308
3.1135559 -13.170609 3.5700073
3.0300837 -13.178159 3.5669439
2.9535964 -13.216318 3.5723047
2.8943961 -13.335292 3.5996194
2.6998196 -15.653943 4.1908407
2.5333335 -15.246734 4.077498
2.3678272 -14.812309 3.9572625
2.2024646 -14.342041 3.827837
2.060019 -13.98606 3.7293
1.9178398 -13.599207 3.6228497
1.7802293 -13.209233 3.5158885
1.6531509 -12.862211 3.4206703
1.5331006 -12.536214 3.3313231
1.4158878 -12.198675 3.2391682
1.3035102 -11.86595 3.148545
1.1976643 -11.555399 3.0640483
1.1226103 -11.520188 3.0528162
1.0521665 -11.529749 3.053582
0.98263168 -11.550439 3.057411
0.91295874 -11.571671 3.0614955
0.84299201 -11.59152 3.0653245
0.77165908 -11.59358 3.0645587
0.70126629 -11.610644 3.0678773
0.63158435 -11.643692 3.0755358
0.56101173 -11.665697 3.0803859
0.48986813 -11.679545 3.083194
0.41913012 -11.708421 3.0900865
0.3484008 -11.748463 3.1000423
0.27635261 -11.752313 3.1005528
0.20420285 -11.751854 3.1000423
0.13228767 -11.770288 3.1046374
0.060288772 -11.814386 3.1161249
-0.01223693 -11.848374 3.1250594
-0.085067511 -11.866446 3.1299098
-0.15810752 -11.883103 3.1345048
-0.23128019 -11.895443 3.1380787
-0.30507889 -11.925696 3.1465027
-0.37882918 -11.941961 3.1513529
-0.45293662 -11.961634 3.1572244
-0.52768183 -11.989539 3.1653931
-0.60273808 -12.016011 3.1733067
-0.67770457 -12.034289 3.1791782
-0.75321919 -12.056925 3.186326
-0.82883853 -12.076191 3.1927078
-0.90623599 -12.115231 3.2044506
-0.98250598 -12.133534 3.2108326
-1.0599575 -12.161954 3.2200224
-1.1370763 -12.182176 3.2271702
-1.2141001 -12.198061 3.2332969
-1.2905489 -12.205766 3.2373812
-1.3725131 -12.261035 3.2542295
-1.4536161 -12.302312 3.267504
-1.5320565 -12.317148 3.273886
-1.6091063 -12.319021 3.2769492
-1.684533 -12.307959 3.2766941
-1.7683741 -12.355775 3.2922659
-1.8484383 -12.37338 3.2999241
-1.927893 -12.384734 3.3060508
-2.0117288 -12.421348 3.3190699
-2.0978501 -12.467885 3.334897
-2.1778028 -12.47478 3.3402579
-2.2629087 -12.508755 3.3530219
-2.3506482 -12.553556 3.368849
-2.4320405 -12.561679 3.3749757
-2.5157058 -12.579703 3.3839104
-2.6033955 -12.615165 3.3976953
-2.6894019 -12.639619 3.4086721
-2.7787037 -12.676713 3.423223
-2.8657954 -12.700924 3.4344552
-2.9515405 -12.717008 3.4436452
-3.0384877 -12.736277 3.4538562
-3.1280828 -12.764348 3.46662
-3.217665 -12.789922 3.4788735
-3.3137178 -12.838281 3.4975085
-3.4015808 -12.85229 3.506954
-3.4948013 -12.884366 3.5215046
-3.5872493 -12.911123 3.5347791
-3.6796274 -12.935369 3.5475428
-3.7729783 -12.960822 3.5608172
-3.8698139 -12.995807 3.5768998
-3.9644046 -13.020842 3.5904293
-4.064044 -13.059973 3.6080434
-4.1581607 -13.07902 3.6202967
-4.2580376 -13.113955 3.637145
-4.3429856 -13.101348 3.6409743
-4.4583001 -13.177948 3.6698205
-4.5532689 -13.191473 3.681308
-4.6495333 -13.207064 3.6935613
-4.7572651 -13.252909 3.714494
-4.858757 -13.278857 3.7300661
-4.9604087 -13.303152 3.7453825
-5.0687199 -13.342966 3.7652941
-5.1714263 -13.365719 3.7806108
-5.2707038 -13.377816 3.7931194
-5.3922768 -13.443936 3.8211999
-5.5024347 -13.47863 3.840601
-5.6095119 -13.503547 3.8574491
-5.7189832 -13.532106 3.8755739
-5.8251967 -13.550946 3.8911457
-5.9450221 -13.599113 3.9153969
-6.05584 -13.624227 3.9332664
-6.1759467 -13.667874 3.9567518
-6.2972188 -13.711436 3.9804926
-6.4200749 -13.755774 4.0047441
-6.53584 -13.782519 4.0241451
-6.6462998 -13.796165 4.0399723
-6.7716193 -13.838498 4.0644789
-6.8852301 -13.8547 4.0815825
-6.9966798 -13.864848 4.0971541
-7.106308 -13.869845 4.1114497
-7.2376738 -13.915193 4.1379986
-7.3856602 -13.989371 4.1734819
-7.5275202 -14.048618 4.2048812
-7.6408277 -14.052283 4.2199426
-30.324551 -38.778446 12.994068
-30.709724 -29.905924 11.314345
-30.846657 -29.672691 11.297498
-30.979082 -29.436239 11.279628
-32.379524 -30.019529 11.65463
-29.707939 -25.894089 10.401731
-34.480808 -19.209904 10.418068
-35.359928 -19.416353 10.647562
-36.095398 -18.682285 10.727719
-38.771076 -19.766548 11.486913
-39.010006 -19.587721 11.521886
-39.030655 -19.299135 11.492785
-39.190937 -19.080023 11.505293
-42.560398 -19.12855 12.316564
-42.823849 -18.618708 12.325753
-43.059086 -18.407665 12.360726
-43.130219 -18.125881 12.348984
-43.50708 -17.659243 12.393912
-43.232925 -17.239746 12.285419
-23.773022 -9.1429768 6.7216573
-24.032194 -9.0737848 6.7790942
-23.289602 -8.6304798 6.5544505
-22.377129 -8.1365023 6.2833467
-22.395668 -7.9880018 6.2746673
-22.47529 -7.8612881 6.2833467
-22.319151 -7.6532917 6.2264199
-23.578207 -7.9237189 6.5641513
-22.271797 -7.3328609 6.1876178
-22.237234 -7.1705441 6.1656637
-22.327835 -7.048811 6.1786828
-22.377132 -6.9136753 6.18047
-22.451525 -6.7860336 6.1894045
-22.484396 -6.6456795 6.1871071
-22.524752 -6.5075922 6.1871071
-23.981079 -6.1379976 6.5324969
-23.357853 -5.8259873 6.3527818
-24.738579 -6.0094228 6.7183385
-24.738291 -5.8488393 6.7083826
-22.52075 -5.1787806 6.0980153
-22.561539 -5.0426078 6.1005683
-22.921808 -4.9756689 6.1896601
-23.791052 -4.7075796 6.4000082
-26.366335 -5.0493212 7.084661
-22.643438 -4.19239 6.0768275
-21.929214 -3.9211159 5.8784771
-22.391531 -3.7208316 5.989778
-22.194349 -3.5482562 5.9310641
-22.589365 -3.469409 6.0308776
-22.650402 -3.3366573 6.0415993
-22.726936 -3.2055831 6.0566607
-22.758633 -3.0677526 6.059979
-22.780865 -2.9285438 6.0610003
-22.649649 -2.7705073 6.0214324
-25.958521 -3.0138125 6.896522
-22.751139 -2.4999585 6.0398121
-22.694885 -2.3529325 6.0209217
-22.59823 -2.2028439 5.9915648
-25.744471 -2.3502636 6.8222361
-25.647619 -2.1828218 6.7928796
-23.772312 -1.876317 6.2927918
-22.559767 -1.3632711 5.963995
-22.569637 -1.2249261 5.9645057
-25.004622 -1.2033304 6.6062717
-22.617746 -0.94933057 5.9736953
-22.585461 -0.80918145 5.9637399
-25.289272 -0.75080007 6.6767282
-26.666941 -0.62799805 7.0394769
-27.092749 -0.47172806 7.1510329
-24.383501 -0.12520988 6.4347258
-27.086206 0.027030421 7.1482248
-24.591074 0.17549993 6.4896102
-24.439684 0.3244001 6.4500422
-25.156446 0.48829219 6.6399684
-24.462858 0.62502819 6.4577007
-24.354193 0.77181321 6.430131
-25.222424 0.95425248 6.6609011
-25.292828 1.2679076 6.6831102
-25.493084 1.4348072 6.7382503
-49.886932 3.7293165 13.204927
-50.060669 4.051332 13.257259
-49.992489 4.3547316 13.246027
-47.424568 5.89675 12.614471
-46.94022 8.4897137 12.591241
-3.5510902 1.0343001 0.9733296
-3.5279968 1.0511038 0.96873462
-3.5187061 1.0718867 0.96796876
-3.5314505 1.0994889 0.9733296
-27.892185 9.2451496 7.7550182
-29.665796 10.03542 8.265317
-27.716311 9.565917 7.7381701
-28.331987 9.9733562 7.9270749
-27.517662 9.8769026 7.715961
-25.588367 10.262615 7.2758636
-29.026815 11.848818 8.2745075
-27.047562 11.823387 7.7905021
-26.906473 11.958891 7.7708454
-28.753036 13.418692 8.37432
-26.769127 12.693483 7.8188376
-26.818787 12.919176 7.8563633
-26.780697 13.103887 7.8686166
-26.782911 13.309267 7.8931231
-49.831177 27.490688 15.022755
-31.749405 24.515598 10.587572
-31.547352 24.670044 10.570469
-31.398373 25.180532 10.623311
-31.231268 25.362963 10.619226
-31.08103 25.559031 10.621268
-20.941105 19.017967 7.4655342
-27.790127 26.510899 10.137263
-28.225967 27.596134 10.419089
-27.034931 26.75812 10.039747
-26.354023 27.396807 10.033621
-26.056215 27.422024 9.9840975
-15.983622 21.875874 7.150012
-15.81855 21.931189 7.1362271
-15.666861 22.00421 7.1285686
-15.628288 22.237566 7.172987
-7.4931827 29.275116 7.9753227
-7.3115406 29.313038 7.9732804
-7.1068892 29.255878 7.9457102
-6.953054 29.408081 7.9753227
21.181618 36.26107 11.084341
22.629021 36.643471 11.367699
22.467741 35.402981 11.067492
28.782312 28.375063 10.667984
29.03138 28.271452 10.695809
28.948578 27.846786 10.602123
29.596897 27.779272 10.713934
29.506639 26.690138 10.501544
2.5824084 1.767157 0.82297146
2.7462201 1.8546681 0.87172937
2.7752461 1.8495831 0.87734544
2.7881582 1.8335825 0.87785602
2.7239366 1.7674786 0.85411525
2.7388012 1.7533389 0.85539162
2.7552295 1.7401164 0.85717857
2.7642138 1.7221549 0.856668
2.8323834 1.7406102 0.87453741
2.8471439 1.7257049 0.87581378
2.8609982 1.7101878 0.87683487
2.8739364 1.6940743 0.87760073
2.8658888 1.6657155 0.8719846
2.8481281 0.95646429 0.79004073
2.9246571 0.96225512 0.80969703
2.9268255 0.94310462 0.80867594
2.9307132 0.924546 0.80816537
2.9252455 0.90312076 0.80510205
2.8927863 0.87368435 0.79463571
2.8962381 0.85536993 0.79412514
2.917223 0.84214544 0.79846483
2.9167523 0.82265371 0.79693317
2.9217451 0.80474138 0.79693317
2.9238269 0.78604501 0.79616737
2.9248543 0.7671079 0.79514623
2.9332528 0.75010598 0.79616737
2.8843274 0.71875465 0.78161657
2.9018366 0.70423883 0.78519046
2.9277444 0.6915375 0.79106182
2.9309902 0.67334348 0.79080653
2.934123 0.65513569 0.79055125
2.9494259 0.6395815 0.79361457
2.9040978 0.61110687 0.78034019
63.215263 12.509761 17.010853
63.379227 11.735888 17.014936
63.766541 10.19588 17.046591
63.838413 9.8060389 17.049398
63.913639 9.4165449 17.053738
63.883095 9.0119095 17.030508
64.084747 8.6396561 17.06982
64.334106 8.2716789 17.122408
64.485374 7.8892231 17.149467
64.428848 7.4813547 17.121897
64.676323 7.1081753 17.17576
64.691795 6.7084022 17.168613
64.951225 5.9306479 17.21686
64.973106 3.1279614 17.171165
64.952438 2.727612 17.160955
66.509827 1.1591105 17.559698
64.923744 -0.13226105 15.883797
65.120827 -0.53225118 15.932522
65.75132 -1.3444715 16.089632
65.899132 -1.7520713 16.128138
65.947334 -2.1583579 16.142874
66.03476 -2.5669243 16.167831
66.087631 -2.975203 16.184944
66.108879 -3.3827384 16.194927
66.45829 -3.8096025 16.285961
66.532547 -4.2235885 16.310205
66.680763 -4.64396 16.353226
66.992439 -5.4925241 16.444973
67.579514 -6.376442 16.607075
69.112053 -7.3777666 17.004723
68.877274 -7.7804298 16.958374
69.545776 -9.1553144 17.161596
69.680748 -9.6084042 17.209133
69.704117 -10.047833 17.229811
69.940842 -10.52042 17.30397
69.648285 -11.352126 17.264751
68.799667 -12.517961 17.108591
68.84948 -12.963957 17.140442
18.178497 -4.9504147 4.6072645
18.137487 -5.0589924 4.60465
17.83898 -5.0939059 4.5366716
18.209232 -5.3206897 4.6391144
17.746275 -5.3038111 4.5293036
17.757057 -5.4259419 4.5404749
17.902376 -5.5906792 4.5863481
17.718748 -5.6528878 4.5480809
17.770544 -5.7897873 4.5704231
18.495081 -6.151639 4.7665143
17.307243 -5.8747282 4.4694066
17.110245 -5.9251876 4.4278116
17.138596 -6.05303 4.4446874
15.360168 -5.5311408 3.9918957
17.156034 -6.2970309 4.4689312
16.668549 -6.2344165 4.3517523
16.806978 -6.4040194 4.3981009
15.354726 -5.9587951 4.0273108
15.257348 -6.0289803 4.0113859
14.98757 -6.028955 3.950063
14.902651 -6.1012974 3.9374657
14.635393 -6.0969958 3.8766181
14.590553 -6.18365 3.8747165
14.483653 -6.2434511 3.8564148
14.550936 -6.378612 3.8846993
14.515072 -6.4693565 3.8856502
14.084039 -6.3811111 3.7805929
14.40371 -6.6327715 3.8773313
14.368019 -6.7234964 3.8787572
14.293159 -6.795681 3.8697252
15.319151 -7.3990865 4.1599398
13.1195 -6.436213 3.5728555
12.769382 -6.3619509 3.4880016
12.813313 -6.4822774 3.5108194
12.849332 -6.5998316 3.5317359
12.9998 -6.7782493 3.5845022
12.88499 -6.8192649 3.5642989
13.951052 -7.4934235 3.872102
12.722726 -6.9345665 3.5426695
12.718186 -7.0336561 3.5533652
12.421505 -6.9694438 3.4822972
12.316038 -7.009973 3.4647086
13.269628 -7.6609254 3.7463663
12.731177 -7.4545822 3.6070824
12.888983 -7.6535711 3.6650777
12.846772 -7.7355189 3.6665039
12.820621 -7.8273602 3.6726837
14.752897 -9.1318369 4.2426543
13.975847 -8.769908 4.0344415
13.375933 -8.5082855 3.8761427
10.866215 -7.0058618 3.1607082
13.308733 -8.6967621 3.8873141
10.69034 -7.0796824 3.1345627
14.530991 -9.7520218 4.2792583
10.11431 -6.8782263 2.9900498
10.34146 -7.1258955 3.0701499
13.920543 -9.7186823 4.1513829
13.832099 -9.783721 4.1428266
9.9187765 -7.107399 2.9829192
9.9134979 -7.1960859 2.9945657
9.5616131 -7.0306358 2.9011552
9.9077978 -7.379281 3.0199981
8.7286501 -6.5846844 2.6725013
8.3875389 -6.490375 2.5921636
8.414072 -6.5938449 2.6128423
8.3103037 -6.5952301 2.5931144
12.364959 -9.9374628 3.8787572
8.2829876 -6.740859 2.6102276
8.3171797 -6.8539476 2.634234
12.106114 -10.101767 3.8552263
8.0269222 -6.7818465 2.5683949
10.379559 -8.8793497 3.339448
9.3336935 -8.0843334 3.0185721
11.251333 -9.8668146 3.6588979
11.412844 -10.13301 3.7316298
10.626627 -9.5521889 3.4934685
11.957171 -10.881623 3.9531529
11.913753 -10.976506 3.9609966
8.3912401 -7.8267732 2.8048925
10.542256 -9.9548168 3.5450463
8.6273689 -8.2473125 2.9175556
8.4635267 -8.1906614 2.8790505
8.1050482 -7.9406171 2.7735178
7.9175525 -7.8527098 2.7257431
7.8287797 -7.8605375 2.7117195
7.8076491 -7.9361234 2.7212269
7.7208982 -7.9448709 2.7079165
10.242893 -10.670333 3.6163521
8.2022743 -8.6501312 2.9139903
8.1590042 -8.7109299 2.9175556
7.5994549 -8.213954 2.7352505
8.502964 -9.3044376 3.0813212
8.4509211 -9.3622036 3.0832226
9.0487728 -10.149058 3.3242362
8.0163479 -9.1029024 2.9650927
8.0935717 -9.3050957 3.0147691
8.0154371 -9.330267 3.0069253
7.9486103 -9.3681631 3.0033603
7.6907187 -9.1777697 2.927063
8.5898151 -10.379456 3.2938123
9.5039215 -11.628578 3.6719706
7.4308057 -9.2066631 2.8921232
9.1734352 -11.509614 3.5985255
8.5529709 -10.867265 3.381043
8.1928806 -10.542191 3.2641015
8.6129227 -11.224166 3.4590039
7.7584591 -10.240111 3.1407425
7.95439 -10.63365 3.2465129
8.5018053 -11.51207 3.4989352
7.8438997 -10.758718 3.2550695
7.8810058 -10.950132 3.2983284
7.7956667 -10.972943 3.2907224
7.0645456 -10.074171 3.0078762
6.9528465 -10.045445 2.9864845
6.8603969 -10.043001 2.9731741
6.7888722 -10.07041 2.9688957
6.2884831 -9.4527521 2.7751818
6.6898336 -10.191127 2.980067
7.1293378 -11.007316 3.2061062
6.9717035 -10.91007 3.1652243
6.9864717 -11.082471 3.2027786
6.8839726 -11.069865 3.1868536
6.7112985 -10.941329 3.1378903
6.5610795 -10.845172 3.0986722
6.688005 -11.209716 3.1911321
5.8842254 -10.001434 2.8365047
6.4583101 -11.132984 3.1464472
5.7461004 -10.046752 2.8291364
6.4237704 -11.393317 3.1975496
6.2659779 -11.274596 3.1533399
6.1532841 -11.233603 3.1312351
6.087008 -11.276276 3.1326613
6.0473528 -11.369156 3.1481109
5.9905543 -11.430998 3.1550038
6.1377459 -11.888739 3.2709944
5.3567176 -10.533921 2.8887956
6.0083537 -11.997036 3.2802641
5.1888108 -10.521329 2.8676414
4.8645053 -10.01821 2.7221777
4.8134155 -10.069779 2.7281199
5.6314874 -11.969484 3.2339156
5.2938914 -11.433516 3.0801327
5.2119589 -11.440148 3.0732398
5.1078982 -11.39657 3.0530365
5.0703945 -11.501468 3.0727644
4.9390697 -11.392445 3.0354478
4.0261889 -9.4451036 2.5094488
4.4021087 -10.50526 2.7842138
4.8735304 -11.833506 3.1286206
4.8201413 -11.910908 3.1412179
4.2758155 -10.755105 2.8291364
4.2146888 -10.793806 2.832464
4.1389914 -10.794976 2.8260465
4.0607009 -10.788351 2.8177276
3.9883702 -10.796662 2.8134491
3.9111254 -10.790795 2.8056054
9.161046 -25.768484 6.6891551
9.0174694 -25.866402 6.700089
8.8513622 -25.900105 6.694622
8.6938171 -25.958534 6.6958103
8.5413399 -26.032616 6.7012773
8.3796625 -26.078985 6.699851
8.2209444 -26.134544 6.7010398
8.0598602 -26.182638 6.7005644
7.8940134 -26.214859 6.6962857
3.6419761 -12.953115 3.2895341
3.6876438 -13.7615 3.483248
3.4648492 -13.952428 3.5148602
3.1146474 -14.002915 3.5072544
2.8955803 -13.405571 3.3529961
2.9674804 -14.158918 3.5369649
3.2287581 -16.954453 4.2203121
3.0893219 -16.781933 4.1725368
2.8812432 -16.209545 4.0256472
2.6919611 -15.703233 3.895633
2.5113773 -15.209603 3.7691841
2.3358896 -14.707653 3.6410713
2.1798408 -14.290563 3.5343504
2.0313902 -13.888467 3.4316702
1.8866118 -13.475482 3.3266129
1.7521307 -13.099771 3.2310634
1.625036 -12.744129 3.1407425
1.506232 -12.419256 3.0582657
1.3958073 -12.131051 2.9850583
1.2921302 -11.87094 2.9189818
1.1793029 -11.489239 2.8231943
1.1093435 -11.50206 2.8246205
1.0392711 -11.514454 2.8260465
0.96957654 -11.532229 2.8288987
0.90098512 -11.566046 2.8357916
0.83243203 -11.605267 2.8441107
0.76241499 -11.628572 2.8486266
0.69162488 -11.642727 2.8510034
0.62068981 -11.656451 2.8533804
0.55016053 -11.681386 2.8586094
0.47883207 -11.693276 2.8607485
0.40734461 -11.70376 2.8626502
0.33672008 -11.74779 2.8728707
0.26508966 -11.770028 2.877862
0.1930718 -11.784059 2.8809519
0.12110046 -11.818046 2.8890333
0.048671544 -11.839936 2.8942623
-0.024047205 -11.874008 2.9025815
-0.097047247 -11.891121 2.9068596
-0.17027208 -11.908755 2.9113758
-0.2431013 -11.895832 2.9085236
-0.31650129 -11.909654 2.9123266
-0.39103326 -11.952145 2.92326
-0.46606085 -11.993197 2.9339559
-0.53999043 -11.997875 2.9358573
-0.61364752 -11.995306 2.936095
-0.69051766 -12.04853 2.9501185
-0.76603311 -12.069271 2.9562984
-0.84223396 -12.095351 2.9639044
-0.91834301 -12.115138 2.9700842
-0.99480593 -12.135413 2.9765017
-1.0718081 -12.158109 2.9836323
-1.1483048 -12.171612 2.9886236
-1.2254936 -12.189465 2.9948034
-1.3036662 -12.213589 3.0026472
-1.3822899 -12.238177 3.0107284
-1.4613793 -12.263223 3.0190475
-1.541674 -12.294504 3.0290303
-1.6212664 -12.316593 3.0368738
-1.7003915 -12.332395 3.0432913
-1.7830977 -12.37076 3.0554135
-1.8669164 -12.412416 3.0684862
-1.9475539 -12.429516 3.0756166
-2.0281584 -12.444176 3.0822718
-2.1122591 -12.477467 3.0936809
-2.194828 -12.498713 3.1022375
-2.2761724 -12.510813 3.108655
-2.3590057 -12.529066 3.1167364
-2.4482729 -12.578237 3.1326613
-2.5307658 -12.589642 3.1393166
-2.6168444 -12.616675 3.1500123
-2.7025373 -12.639326 3.1597574
-2.7900689 -12.668038 3.1711664
-2.8806314 -12.707519 3.1854277
-2.9684744 -12.732173 3.1961234
-3.0587654 -12.764727 3.2089584
-3.1472454 -12.787219 3.2194166
-3.2382579 -12.81758 3.2320139
-3.3256178 -12.831319 3.2405708
-3.4150143 -12.851038 3.2507911
-3.5078399 -12.881389 3.2638638
-3.6082132 -12.936344 3.283354
-3.7003231 -12.958794 3.2947631
-3.7895751 -12.96941 3.3033197
-3.8799305 -12.982208 3.3125894
-3.9864819 -13.046407 3.3351696
-4.0820942 -13.071768 3.3480048
-4.1710815 -13.074236 3.3551352
-4.2701826 -13.106581 3.3701096
-4.367384 -13.130826 3.3831823
-4.4600477 -13.139653 3.392452
-4.5691943 -13.194647 3.4138436
-4.6710958 -13.225896 3.4292934
-4.7775011 -13.267355 3.4475951
-4.8755536 -13.283384 3.4594793
-4.9862318 -13.33146 3.4799204
-5.0869608 -13.350535 3.4929931
-5.1912742 -13.377027 3.5082049
-5.2964597 -13.40364 3.5236545
-5.4057918 -13.438477 3.541481
-5.5242147 -13.493148 3.5647743
-5.6248336 -13.502037 3.5761831
-5.7329702 -13.52719 3.592108
-5.8646979 -13.605042 3.6222942
-5.981215 -13.644418 3.6424975
-6.0841994 -13.650933 3.654144
-6.1822772 -13.645196 3.6627009
-6.3130164 -13.709351 3.6902723
-6.4340696 -13.749537 3.7116642
-6.5683656 -13.815067 3.7401865
-6.679625 -13.829608 3.7551606
-6.7985816 -13.858126 3.7741754
-6.9307013 -13.910915 3.8000832
-7.0545139 -13.9444 3.8209996
-7.1696777 -13.958742 3.8369246
-7.310431 -14.020425 3.8661599
-7.4490285 -14.074892 3.8937316
-7.5499587 -14.056304 3.9013374
-7.741591 -14.203317 3.9552922
-7.8469296 -14.188698 3.9645619
-7.9799461 -14.222452 3.9876175
-8.1088667 -14.246664 4.008296
-8.2476101 -14.285809 4.0334907
-8.3964634 -14.339709 4.0632014
-8.4971867 -14.309635 4.0693812
-8.6755228 -14.407844 4.1124024
-8.7789497 -14.37921 4.1195331
-8.9191599 -14.409317 4.1437769
-9.0538721 -14.428368 4.1651688
-9.2214766 -14.497118 4.2012973
-13.616594 -20.837418 6.0880475
-13.692169 -20.674919 6.064992
-13.863699 -20.657459 6.0847201
-14.12074 -20.763971 6.1415272
-14.335512 -20.80411 6.1793189
-14.572435 -20.872658 6.2261434
-14.747352 -20.849463 6.2461085
-30.76552 -29.53264 10.43247
-32.36058 -29.938936 10.78472
-38.225117 -21.861763 10.772361
-37.468414 -21.124952 10.522316
-35.110291 -19.231483 9.7928572
-36.22937 -18.703573 9.9739742
-38.716694 -19.687719 10.625471
-38.796814 -19.429781 10.614538
-38.979771 -19.223154 10.632127
-43.066544 -18.670502 11.483042
-42.424347 -18.083675 11.28196
-25.032017 -9.9515171 6.588614
-25.058224 -9.7843103 6.5795822
-23.555994 -9.0315781 6.1702871
-23.977325 -9.0247622 6.2660742
-24.301043 -8.9767599 6.3361917
-23.951113 -8.6808586 6.2308969
-22.293367 -7.9256196 5.7866621
-22.592894 -7.8762918 5.851788
-22.138895 -7.4146018 5.7101269
-22.277187 -7.3092046 5.7341332
-23.728203 -7.6243291 6.0956535
-22.311464 -7.018374 5.7203474
-22.122948 -6.8101845 5.6611638
-22.335455 -6.7258453 5.7048979
-24.957766 -7.0171084 6.3409452
-22.065723 -6.0581584 5.5962753
-22.086531 -5.9183774 5.5922351
-22.134647 -5.7859392 5.595325
-24.291327 -6.190691 6.1310687
-24.606955 -6.1105838 6.2011862
-24.658148 -5.9629083 6.2047515
-22.360744 -5.2623458 5.6181426
-24.723783 -5.658565 6.2033253
-40.440178 -8.7346497 10.120864
-23.590706 -4.9441118 5.8950467
-40.622375 -8.2535877 10.140354
-22.573593 -4.4424949 5.6266994
-22.834665 -4.2034822 5.678515
-26.396622 -4.6918826 6.5574775
-26.439274 -4.5322895 6.5610428
-23.62311 -3.9004998 5.8558288
-22.99522 -3.6520331 5.6944399
-23.103617 -3.5240498 5.7158318
-23.047003 -3.2265315 5.6915874
-22.155586 -2.9632497 5.4667368
-22.31403 -2.845186 5.5014391
-25.143864 -3.0493181 6.1947684
-22.093473 -2.5419469 5.4389277
-25.400522 -2.7646012 6.2491989
-21.834091 -2.2409835 5.3678594
-25.712925 -2.479728 6.3181276
-25.717981 -2.3210368 6.3157506
-24.303076 -2.0430968 5.9649262
-25.599266 -1.9939492 6.280098
-22.569786 -1.6187392 5.5340018
-22.764421 -1.4923582 5.5794001
-22.699459 -1.3482738 5.5613356
-22.84795 -1.2164543 5.5958004
-22.737581 -1.0707114 5.56704
-22.723341 -0.93034172 5.5620489
-22.788809 -0.79299027 5.5767851
-22.800709 -0.51336426 5.5777359
-22.786919 -0.37318176 5.5736952
-24.344788 -0.24927847 5.9544683
-24.49836 -0.10052162 5.991785
-25.462084 0.051764928 6.2275691
-23.636196 0.19307451 5.7809577
-24.858334 0.3556152 6.0804415
-23.83987 0.48736253 5.8318224
-23.805361 0.63280588 5.8242164
-25.741703 0.84238136 6.2993503
-23.614298 0.91783065 5.7797689
-23.615015 1.0630138 5.7814326
-23.608047 1.2078929 5.7814326
-45.936367 3.4825232 11.269837
-51.63681 5.8328905 12.712829
-50.132053 5.9746599 12.35107
-47.989254 6.3174634 11.841234
-46.06168 6.351469 11.374895
-46.119904 6.6481142 11.399138
-46.224243 6.9529376 11.435267
-46.017574 7.2108698 11.39486
-45.692528 7.447464 11.325457
-47.563713 8.35289 11.813901
-47.393066 8.6230173 11.784428
-47.625633 8.967576 11.855734
-47.769936 9.2986069 11.905647
-3.5768876 1.0450114 0.90887213
-3.5434186 1.0588726 0.90197921
-3.5312815 1.0788915 0.90055311
-3.4216778 1.068398 0.87416995
-27.457626 9.1327553 7.0777717
-30.091471 10.214312 7.7730031
-30.140209 10.437535 7.8020005
-28.231903 9.9710979 7.3235388
-28.114443 10.124063 7.3090401
-26.523525 9.7354193 6.9106784
-26.59157 9.945962 6.9441924
-25.896299 10.233119 6.8106127
-25.766338 10.364997 6.7930241
-28.855658 11.813977 7.6268263
-26.215107 11.110425 6.9641581
-27.468149 12.041227 7.3358984
-27.248247 12.144691 7.2969179
-28.674688 13.204612 7.7219005
-28.567612 13.368368 7.7150078
-27.034981 12.853951 7.3221126
-26.876883 12.981569 7.3007212
-28.045498 13.758885 7.6410871
-27.944027 13.922481 7.6365714
-27.845942 14.087541 7.6332436
-50.281487 26.217926 13.872973
-48.414696 26.389156 13.489586
-31.765757 24.271166 9.7793093
-31.503746 24.689108 9.791194
-31.320297 25.171818 9.8294611
-31.115532 25.323055 9.8137741
-30.930334 25.489408 9.8045044
-30.938171 25.816248 9.8570328
-28.831776 25.284279 9.3807106
-21.214987 18.836142 6.9392009
-21.097567 18.964663 6.9387255
-20.965 19.079374 6.9334965
-20.863968 19.222792 6.9389629
-27.463718 25.616814 9.1869965
-27.337799 25.814856 9.1976919
-28.266483 27.693634 9.6801949
-27.281569 27.392851 9.4572449
-26.126593 26.557085 9.1130762
-25.92795 26.680672 9.1007166
-25.932587 27.015146 9.1603756
-26.478792 27.925137 9.4137487
-26.0772 27.841785 9.3315096
-16.321358 21.542292 6.6104813
-16.27207 21.75326 6.6444702
-16.055195 21.740175 6.6102433
-15.860395 22.037264 6.6409049
-15.751318 22.171383 6.6520762
-15.342739 22.460766 6.6530271
-7.277544 29.306372 7.3860502
-7.0962172 29.34481 7.384624
-6.906014 29.345251 7.3739285
-6.7249579 29.383286 7.3729777
-1.9800456 33.337307 8.1689873
-1.777365 33.38472 8.1777821
-1.3696151 33.454483 8.1901417
3.2205939 50.733418 12.4364
3.5351346 50.760178 12.448047
3.8468204 50.741405 12.448997
9.339036 42.401093 10.621193
9.6078339 42.381828 10.630939
10.144404 42.332523 10.649002
10.420675 42.337395 10.666116
10.945772 42.230774 10.672296
25.591631 61.429394 16.28097
25.954807 61.23991 16.27265
26.321619 61.059875 16.267422
26.623632 60.732643 16.22345
26.894547 60.341015 16.162601
18.911257 41.739063 11.209941
19.177164 41.644295 11.215883
19.470205 41.606781 11.23775
27.854685 58.584698 15.870486
28.157862 58.297226 15.839111
28.454712 58.000397 15.805597
28.680111 57.563885 15.734292
28.91482 57.153671 15.670354
29.21526 56.87841 15.643733
29.506226 56.587833 15.61331
29.779276 56.26664 15.574804
30.08765 56.015259 15.556027
20.431307 37.484249 10.443404
31.974392 56.986061 15.986477
21.21102 36.739372 10.377803
21.18475 36.179367 10.256107
21.133568 35.589348 10.125381
21.992125 35.528812 10.221642
22.827892 35.887337 10.404661
23.214518 36.005383 10.480007
24.121759 36.423168 10.687032
24.361034 36.298668 10.694162
24.584393 36.150116 10.694638
25.997499 31.944244 10.075229
26.257263 31.862085 10.099948
26.523216 31.785395 10.127044
26.615564 31.501114 10.088301
28.358456 28.243242 9.7907181
28.435661 27.974699 9.7579174
28.703604 27.893791 9.7909565
29.033285 27.869835 9.8449106
29.101542 27.594257 9.8104467
29.580826 27.706007 9.9145527
29.594833 27.380178 9.8627377
29.652571 27.097818 9.8263712
30.069874 26.809465 9.8548937
2.7469184 1.9014037 0.81451082
2.8122723 1.9212215 0.83043575
2.8320622 1.9093591 0.83281261
2.7725554 1.8446018 0.81189626
2.7960019 1.8355504 0.81546158
2.8096576 1.819944 0.81617463
2.8142238 1.7984859 0.81427312
2.8235626 1.7801483 0.81379777
2.8426809 1.7679191 0.81617463
2.7897196 1.7113374 0.79787278
2.7918568 1.6891601 0.79549593
2.8522186 1.701858 0.80975711
2.9002812 1.7064894 0.82045293
2.9275017 1.6984094 0.8252067
2.8805315 1.6476231 0.809044
2.8678386 0.94110513 0.7355991
2.9040768 0.93329638 0.74344271
2.8800981 0.90613288 0.73583674
2.8865323 0.88872969 0.73607445
2.9105327 0.87660295 0.74082816
2.906539 0.85598415 0.7384513
2.9490745 0.84887922 0.74795878
2.9542277 0.83076811 0.74795878
2.9508395 0.8103112 0.74581957
2.9501264 0.79068148 0.74439347
2.9511635 0.77158237 0.74344271
2.9492533 0.75178069 0.74177891
2.946269 0.73179752 0.73987746
2.9365418 0.71028125 0.73631215
2.9408448 0.69224954 0.73631215
2.9478774 0.67484194 0.7370252
2.9510148 0.6565305 0.7367875
2.9502404 0.63738573 0.7355991
2.9398353 0.61628282 0.73203379
2.9692624 0.60345459 0.7384513
3.0691686 0.60416728 0.76245761
59.702408 11.369111 14.86864
59.934402 11.03264 14.909284
60.043045 10.672161 14.919743
60.154308 10.311584 14.931389
60.335285 9.9619102 14.960862
60.471062 9.603549 14.979639
60.629673 9.2477026 15.004596
60.73045 8.8821182 15.015767
60.886734 8.5237255 15.0412
60.981216 8.1557646 15.051896
61.161152 7.7981458 15.084221
61.269562 7.4302044 15.099433
61.573399 6.7014198 15.152912
61.707088 6.3331051 15.175967
61.913986 5.970675 15.217563
62.146168 5.224196 15.257731
62.389137 4.8592935 15.309785
62.507885 4.482851 15.331889
62.760048 4.1140294 15.38727
62.952827 3.7388833 15.428628
63.279156 3.3687551 15.503262
63.463577 2.988184 15.543668
63.66803 2.60639 15.589541
63.740101 2.2176738 15.603564
64.014664 1.8340403 15.66774
64.411209 1.4499183 15.762339
64.490196 0.66006035 15.778502
64.89225 0.26597875 15.87619
61.328381 -0.14588796 13.762035
61.450245 -0.52324277 13.789847
62.054665 -0.90919715 13.9265
62.21571 -1.2934268 13.964168
62.2066 -1.6751508 13.964168
62.387264 -2.0631626 14.00731
62.481651 -2.4501674 14.031618
62.622375 -2.8406186 14.066876
62.684643 -3.2289739 14.085052
62.855553 -3.6246026 14.128195
62.893475 -4.0141234 14.141992
63.187893 -4.4223638 14.214041
63.042816 -4.8011041 14.187761
63.413788 -5.2208982 14.278206
64.053131 -5.6694221 14.42975
64.545685 -6.5122204 14.557644
64.978638 -7.3624606 14.674587
64.699715 -7.7332339 14.622028
65.022797 -8.1768227 14.706122
66.231842 -8.7419939 14.991472
66.110268 -9.1390028 14.976361
66.008522 -9.5380564 14.966288
66.341438 -10.002097 15.055419
66.374245 -10.423958 15.077099
67.06015 -10.953707 15.247915
68.384941 -12.466528 15.598744
68.393448 -12.902173 15.618454
69.970291 -15.887162 16.101337
70.087181 -16.366558 16.151051
71.503906 -17.62541 16.526188
71.407654 -18.067169 16.529253
17.457958 -4.5318317 4.0454555
72.559105 -19.308922 16.849424
16.935061 -4.6186643 3.9370527
18.272818 -5.1041107 4.2554712
18.05353 -5.1624894 4.2116723
17.500835 -5.1208358 4.089911
17.332607 -5.187284 4.0579381
18.081406 -5.5324574 4.2412367
18.021975 -5.635437 4.2353239
16.320526 -5.213613 3.8426661
18.034021 -5.8830991 4.2548141
17.638391 -5.8740382 4.1698442
17.966011 -6.1058445 4.2561283
16.262335 -5.6384559 3.8604047
15.669041 -5.5407081 3.7274747
17.066685 -6.1529293 4.0691066
15.520187 -5.7032976 3.7084222
15.957324 -5.9752989 3.8216426
15.911243 -6.0696216 3.8194525
13.808201 -5.3647633 3.3221154
13.614427 -5.3858647 3.2833533
13.539488 -5.4525356 3.2732797
13.472371 -5.5218196 3.2651768
13.371594 -5.5765915 3.2489712
13.354193 -5.6657734 3.2531321
13.313801 -5.7452869 3.2518182
16.611061 -7.2891793 4.0686688
16.581171 -7.3977232 4.0723915
14.379666 -6.5217071 3.5411103
14.721302 -6.7858453 3.6354969
14.708547 -6.8897028 3.6427238
16.346169 -7.7793584 4.0603471
13.205925 -6.3847017 3.2894852
13.092054 -6.4290576 3.2708707
12.906537 -6.4365544 3.2342985
12.801513 -6.4825692 3.2178738
12.945465 -6.6555676 3.2643008
12.833451 -6.6978588 3.2463431
12.842123 -6.8029666 3.2590449
12.986633 -6.9818878 3.3065667
12.962394 -7.0717201 3.3113847
14.874558 -8.2336235 3.8131018
12.693422 -7.1285 3.2647388
12.619769 -7.1893477 3.2570739
12.37688 -7.1519346 3.2056103
12.922049 -7.5730591 3.3589065
12.680737 -7.5365615 3.3080997
12.645956 -7.6212773 3.3111656
12.606448 -7.7033062 3.3131366
12.512493 -7.751739 3.3008728
12.441557 -7.813839 3.2947412
12.615618 -8.0315018 3.3538697
10.891911 -7.0285373 2.9066823
14.231818 -9.3076906 3.8139777
13.099225 -8.6822519 3.5244665
13.443416 -9.0295696 3.6319931
13.023154 -8.8637552 3.5330074
13.002258 -8.9667616 3.5422051
13.736447 -9.597928 3.758353
13.999045 -9.9097748 3.846827
13.915854 -10.109491 3.8577766
13.876352 -10.211457 3.8641276
13.796224 -10.28358 3.8593097
13.708724 -10.349814 3.8525207
13.704645 -10.479369 3.8693833
13.599198 -10.5316 3.8577766
8.4538755 -6.6306391 2.4086881
35.318512 -28.050209 10.120152
9.0529232 -7.3735442 2.6178281
9.6315632 -7.9435778 2.7993748
10.780222 -9.0025177 3.1495476
10.718075 -9.0628242 3.1475766
10.957273 -9.3809605 3.2347364
10.886233 -9.4365139 3.2307947
9.3268929 -8.1857309 2.7825122
10.673329 -9.4838495 3.2018874
9.1466675 -8.2284441 2.7586417
11.103696 -10.112752 3.3681042
11.164107 -10.293788 3.4055524
8.9722605 -8.3754377 2.7520719
8.4051142 -7.9431443 2.5928626
8.8384867 -8.4559078 2.7426553
8.2565403 -7.9968176 2.577095
8.511097 -8.345149 2.6725769
8.5816183 -8.5181856 2.7111199
8.2992954 -8.3396959 2.6379757
7.7308254 -7.8644495 2.4724157
9.5728617 -9.8583488 3.0814402
9.5567732 -9.9633732 3.0958939
7.6894531 -8.1159048 2.5065787
7.7561941 -8.2875967 2.5449028
8.1172009 -8.7806578 2.6811175
8.1473923 -8.9225216 2.7091489
7.9153805 -8.776001 2.6498013
8.3118496 -9.3299904 2.8017838
8.1990089 -9.3178225 2.7829502
8.1269588 -9.351017 2.7779133
8.0541754 -9.3829393 2.7726574
7.9996066 -9.4359035 2.7737525
7.9628572 -9.5102453 2.7811983
7.7289972 -9.3468866 2.7194417
7.4560947 -9.130393 2.6430125
7.3441892 -9.1068573 2.6230841
8.3683872 -10.508003 3.0122378
