# .PCD v0.7 - Point Cloud Data file format
VERSION 0.7
FIELDS x y z
SIZE 4 4 4
TYPE F F F
COUNT 1 1 1
WIDTH 1480
HEIGHT 1
VIEWPOINT 0 0 0 1 0 0 0
POINTS 1480
DATA ascii
-12.276413 -5.7471547 1.7757453
-12.071899 -5.561368 1.7411634
-12.243064 -5.5494084 1.7609245
-12.361102 -5.5117331 1.773015
-12.35746 -5.4194565 1.7676848
-12.12727 -5.1420035 1.7255625
-13.305352 -5.5454249 1.8884614
-13.264807 -5.4332399 1.8779308
-11.104118 -4.4688945 1.5678639
-13.15621 -5.2011576 1.8533595
-12.098131 -4.697247 1.7000811
-13.046348 -4.8820143 1.8248879
-13.349696 -4.9023547 1.8631099
-11.183657 -4.0292616 1.5570734
-12.120602 -4.2829676 1.6839602
-12.438959 -4.3097882 1.7245225
-11.635223 -3.9515333 1.6095963
-13.533306 -4.5036974 1.8685702
-12.535977 -4.0865502 1.7272526
-12.546647 -4.0050321 1.7253025
-12.571932 -3.9282672 1.7254325
-12.087568 -3.6956749 1.6557487
-18.539288 -5.5439672 2.5356364
-12.538376 -3.6658669 1.7112617
-19.298067 -5.5137944 2.6300216
-20.020103 -5.5874467 2.7237568
-12.833321 -3.4970143 1.7424634
-19.372334 -5.1512766 2.6267715
-19.361345 -5.0213609 2.6210511
-18.819836 -4.7578764 2.5436969
-13.138634 -3.2360249 1.7726251
-12.016651 -2.8816106 1.6186967
-12.017691 -2.8039939 1.6164865
-18.761715 -4.256196 2.5209458
-19.412014 -4.278645 2.6048002
-18.813503 -4.0258474 2.5210757
-18.966969 -3.9371355 2.5383666
-18.976191 -3.817749 2.5364165
-19.094633 -3.7198203 2.5491571
-12.472906 -2.3505697 1.662639
-19.280287 -3.5109754 2.5680082
-34.687901 -6.0969124 4.6163993
-19.162577 -3.2471128 2.5468171
-58.951515 -9.617238 7.8303041
-59.00256 -9.254261 7.8293939
-42.407089 -2.9595473 5.5723414
-42.350235 -2.6945648 5.5625906
-41.757195 -2.3996763 5.4826365
-41.6632 -2.1378758 5.4684658
-42.054893 -1.8993264 5.5182586
-42.0509 -1.6406668 5.5163083
-40.818478 -1.341805 5.3534093
-41.969738 -1.1218916 5.5034375
-41.616982 -0.85696143 5.4563751
-53.646259 -0.77533543 7.0332308
-53.716438 -0.44670576 7.0419412
-53.716183 -0.11709516 7.0416813
-53.731758 0.21256617 7.0437613
-53.774055 0.54270446 7.0496116
-53.814323 0.87336987 7.0554619
-53.78714 1.2030863 7.0527315
-53.853077 1.5352145 7.0624824
-53.858498 1.8661714 7.0645623
-53.906467 2.1990712 7.0724926
-39.042774 2.553668 5.1286273
-39.061977 2.7957304 5.1333075
-38.839458 3.0194488 5.1063962
-38.894302 3.2639253 5.1161466
-39.032536 3.5168402 5.1370778
-42.134178 4.5795956 5.5555706
-39.186638 4.5026636 5.1703596
-39.020466 4.7263317 5.1521587
-39.120564 4.982203 5.1693196
-42.490383 5.9421325 5.6239543
-41.154873 6.7889628 5.4675555
-41.24535 7.0641208 5.4852366
-41.167259 7.5718856 5.4867969
-42.326054 9.4077234 5.6836276
-42.656227 10.031975 5.7440805
-42.580608 10.845048 5.7598114
-41.115536 10.740967 5.5703912
-40.5173 10.850689 5.4982371
-42.637672 11.699395 5.7956934
-42.595631 11.969378 5.7998538
-1.6671097 0.51272315 0.22710113
-1.6223143 0.50985771 0.22138083
-1.6654124 0.53465843 0.22775118
-1.8467721 0.61800438 0.25375259
-1.8438835 0.62964475 0.25388259
-1.8184506 0.63344288 0.25089243
-1.8369523 0.65255666 0.25401261
-1.8431683 0.66753066 0.25544268
-1.8018322 0.66509002 0.25024238
-1.7116457 0.69216228 0.24049187
-1.6642741 0.68491197 0.23438154
-1.6499803 0.69089723 0.23295146
-1.6331898 0.70754474 0.23178139
-1.6877937 0.7435413 0.24023186
-1.6768657 0.7510457 0.2393218
-1.6632024 0.75721133 0.23802173
-1.6504266 0.76365411 0.23685166
-1.6152037 0.75941944 0.23243143
-1.6015673 0.76504111 0.23113136
-1.5807871 0.76706052 0.22879124
-1.5440352 0.76096261 0.22411098
-1.5260379 0.76376426 0.22216088
-1.5001098 0.76233029 0.21904071
-1.4769009 0.76197147 0.21631056
-1.4563886 0.76273721 0.21397042
-1.4175384 0.75350487 0.20890015
-1.3997997 0.7551257 0.20695004
-1.3742678 0.75227171 0.20382987
-1.3514247 0.75057787 0.20109972
-1.3234721 0.74571133 0.19758953
-1.3162893 0.75234157 0.19719951
-1.2910628 0.74846643 0.19407934
-1.2744808 0.74933702 0.19225925
-1.2562342 0.74901676 0.19017914
-1.2439787 0.7520929 0.18900907
-1.2291975 0.753492 0.18744899
-1.2144462 0.75473827 0.1858889
-1.2030816 0.75794673 0.18484885
-1.183368 0.75570661 0.18250872
-1.1687213 0.75648677 0.18094863
-1.1507943 0.75493991 0.17886852
-1.132105 0.75265282 0.17665841
-1.1110209 0.74850285 0.17405826
-1.0933064 0.74635941 0.17197815
-1.081368 0.74797624 0.17080808
-1.0450945 0.73240024 0.16573781
-1.0405809 0.73879904 0.16573781
-1.0247604 0.73706299 0.16391771
-1.0114045 0.73691291 0.16248763
-1.0044708 0.74133813 0.1620976
-0.99672705 0.7451123 0.16157758
-0.98028052 0.74223435 0.15962748
-0.9788546 0.75064921 0.1601475
-0.96483451 0.74934149 0.15858743
-0.95008844 0.74727726 0.15689732
-0.94470984 0.7524749 0.15676732
-0.95705134 0.77195489 0.15962748
-0.94615418 0.77279407 0.15858743
-0.91923994 0.76025587 0.15481721
-0.91455781 0.7658819 0.15481721
-0.90076751 0.76378274 0.15325713
-0.87274617 0.74926955 0.14922692
-0.85541272 0.7435503 0.14701679
-0.84041536 0.73961258 0.14519669
-0.83364087 0.74277616 0.14480667
-0.8202343 0.73990619 0.14324659
-0.81421483 0.74358761 0.14298657
-0.81036478 0.74924278 0.14311658
-0.80575228 0.75420094 0.14311658
-0.79103523 0.74958104 0.14129648
-0.77855176 0.74686885 0.1398664
-0.74977487 0.72814113 0.13544616
-0.74317223 0.73064226 0.13505614
-0.73867512 0.73518848 0.13505614
-0.72716695 0.73266834 0.13375607
-0.72335166 0.7378245 0.13388608
-0.71812123 0.74153662 0.13375607
-0.71013147 0.74234593 0.13310604
-0.70352066 0.7445268 0.13271601
-0.69690984 0.74665463 0.13232599
-0.68626785 0.74435478 0.13115592
-0.67434561 0.74048632 0.12972586
-0.67111528 0.74608463 0.12998587
-0.66652477 0.75018847 0.12998587
-0.65733224 0.7490465 0.12907581
-0.65272379 0.75306571 0.12907581
-0.63971031 0.74726313 0.12738572
-0.63575315 0.75193155 0.12751573
-0.61969101 0.74211681 0.12517561
-0.61638713 0.74743533 0.12543562
-0.61053741 0.7496655 0.12517561
-0.60281986 0.74953377 0.12452557
-0.59636003 0.75088876 0.12413555
-0.590518 0.7529732 0.12387554
-0.58224529 0.75187796 0.12309549
-0.57099789 0.74677086 0.12166542
-0.56819677 0.75263476 0.12205543
-0.563568 0.75610697 0.12205543
-0.5553931 0.75475842 0.1212754
-0.55016893 0.75734967 0.12114539
-0.54608923 0.76151711 0.1212754
-0.53797024 0.75999713 0.12049535
-0.53102601 0.76003212 0.11997532
-0.52747798 0.76490885 0.12023534
-0.51664007 0.75911313 0.11880526
-0.50755131 0.75568318 0.1177652
-0.50235742 0.75795662 0.1176352
-0.4938997 0.75521529 0.11672515
-0.48871908 0.75739831 0.11659514
-0.48459485 0.76121932 0.11672515
-0.48044211 0.76501817 0.11685515
-0.47782692 0.77132368 0.11737518
-0.47463554 0.77677959 0.1177652
-0.467814 0.77627999 0.11724517
-0.46608025 0.78425056 0.11802522
-0.45975602 0.78452897 0.1176352
-0.45542943 0.78819382 0.1177652
-0.44911286 0.78838855 0.11737518
-0.44184044 0.78680623 0.11672515
-0.43700439 0.7895025 0.11672515
-0.43167722 0.79129851 0.11659514
-0.42352867 0.78781843 0.11568509
-0.41868675 0.79040235 0.11568509
-0.41291195 0.79119825 0.11542508
-0.40487748 0.78754359 0.11451503
-0.39869443 0.787359 0.11412501
-0.39297122 0.78801572 0.11386499
-0.38769183 0.78952205 0.11373498
-0.3828401 0.79188603 0.11373498
-0.37882572 0.79601091 0.113995
-0.37309361 0.79652441 0.11373498
-0.36778435 0.79789811 0.11360498
-0.36370024 0.80194592 0.11386499
-0.35756144 0.80144572 0.11347497
-0.34984967 0.79726839 0.11256492
-0.34455851 0.79848957 0.11243492
-0.33887848 0.79876298 0.1121749
-0.33282673 0.79808164 0.11178488
-0.3275477 0.79919124 0.11165487
-0.32226762 0.80026621 0.11152487
-0.31698671 0.80130643 0.11139486
-0.31206402 0.80323637 0.11139486
-0.30712956 0.80513602 0.11139486
-0.30009866 0.80143356 0.11061481
-0.29415017 0.80046761 0.11022479
-0.28923306 0.80225742 0.11022479
-0.28331408 0.80121243 0.10983478
-0.27839261 0.80293572 0.10983478
-0.27441713 0.80744535 0.11022479
-0.26851836 0.80629158 0.10983478
-0.26510245 0.81263751 0.11048481
-0.26041272 0.81519336 0.11061481
-0.25481448 0.81488311 0.1103548
-0.25096917 0.82022399 0.11087483
-0.24593166 0.82174855 0.11087483
-0.2400502 0.82038701 0.11048481
-0.23446713 0.81993777 0.11022479
-0.22729944 0.81372082 0.10918473
-0.22308424 0.8179701 0.10957476
-0.21678714 0.81453246 0.10892472
-0.21203408 0.81680703 0.10905473
-0.20726126 0.81905395 0.10918473
-0.20246886 0.82127303 0.10931475
-0.1978882 0.82442826 0.10957476
-0.19260061 0.82466137 0.10944475
-0.1868789 0.82292676 0.10905473
-0.18118578 0.8211531 0.10866471
-0.17676625 0.82515812 0.10905473
-0.17109533 0.82331473 0.10866471
-0.16604035 0.82434911 0.10866471
-0.16116868 0.8263256 0.10879472
-0.15664624 0.83022201 0.10918473
-0.15190439 0.8331185 0.10944475
-0.14730452 0.83696449 0.10983478
-0.14200059 0.83687508 0.10970476
-0.13638403 0.83479488 0.10931475
-0.13064472 0.83169782 0.10879472
-0.12539145 0.83150333 0.10866471
-0.12028708 0.83225703 0.10866471
-0.11490703 0.83101499 0.1084047
-0.1099354 0.83268744 0.1085347
-0.10507108 0.83531386 0.10879472
-0.10017866 0.8379119 0.10905473
-0.094701149 0.8355552 0.10866471
-0.089256346 0.83316284 0.10827469
-0.084241807 0.83468139 0.1084047
-0.078745604 0.8312341 0.10788467
-0.07355655 0.83071387 0.10775466
-0.068295687 0.82917327 0.10749464
-0.063206688 0.82957673 0.10749464
-0.058322381 0.83291626 0.10788467
-0.053399466 0.836227 0.10827469
-0.048267469 0.83653891 0.10827469
-0.043184463 0.8378095 0.1084047
-0.038132407 0.84003967 0.10866471
-0.033054601 0.84223938 0.10892472
-0.027853528 0.84143537 0.10879472
-0.022743031 0.84357274 0.10905473
-0.01754613 0.84270507 0.10892472
-0.012389383 0.84378827 0.10905473
-0.0072612115 0.84979731 0.10983478
-0.0020403434 0.84685135 0.10944475
0.0031440987 0.84387344 0.10905473
0.0083219493 0.84383821 0.10905473
0.013435115 0.83980572 0.1085347
0.018543461 0.83772498 0.10827469
0.025209211 0.89111543 0.11529507
0.030676518 0.89094388 0.11529507
0.033919681 0.83625102 0.10814468
0.039003685 0.83503681 0.10801467
0.044074066 0.83379161 0.10788467
0.049306579 0.83548504 0.10814468
0.05449681 0.83615619 0.10827469
0.059697129 0.83679503 0.1084047
0.064830482 0.83641303 0.1084047
0.070127234 0.8379755 0.10866471
0.075000696 0.83456689 0.10827469
0.080215126 0.83507794 0.1084047
0.085539743 0.83654267 0.10866471
0.090349637 0.83304501 0.10827469
0.095798969 0.83542997 0.10866471
0.10128096 0.8377794 0.10905473
0.10604377 0.83419156 0.10866471
0.11155418 0.83647346 0.10905473
0.11709656 0.83871913 0.10944475
0.12181059 0.83504152 0.10905473
0.12678266 0.83329827 0.10892472
0.13204865 0.83348393 0.10905473
0.13667618 0.82972312 0.10866471
0.14193207 0.82984608 0.10879472
0.14719462 0.82993585 0.10892472
0.15156679 0.82511646 0.1084047
0.15644141 0.82319683 0.10827469
0.1614895 0.82222146 0.10827469
0.16653152 0.82121509 0.10827469
0.17177051 0.82114834 0.1084047
0.17764251 0.82395566 0.10892472
0.18420082 0.82962537 0.10983478
0.18972999 0.83041263 0.11009479
0.19482173 0.82923281 0.11009479
0.20037197 0.82994932 0.1103548
0.20450537 0.82485497 0.10983478
0.20882855 0.82070214 0.10944475
0.21411099 0.82036465 0.10957476
0.21888411 0.81807768 0.10944475
0.22442438 0.81863159 0.10970476
0.23105256 0.8229664 0.11048481
0.23554967 0.81962746 0.11022479
0.24225391 0.82387376 0.11100484
0.24673304 0.82047296 0.11074482
0.25176275 0.81894356 0.11074482
0.25767508 0.82022095 0.11113484
0.26209664 0.8167364 0.11087483
0.26772106 0.81699711 0.11113484
0.27367327 0.8181597 0.11152487
0.2783677 0.81552678 0.11139486
0.28434524 0.8166123 0.11178488
0.28968254 0.81578654 0.11191489
0.29535809 0.81585819 0.1121749
0.30207574 0.81868112 0.11282493
0.30779168 0.81866831 0.11308495
0.31564772 0.82417107 0.11412501
0.32105932 0.82314241 0.11425501
0.32720247 0.82392126 0.11464503
0.33411083 0.82649386 0.11529507
0.33804348 0.82167768 0.11490504
0.34461108 0.82324612 0.11542508
0.35121059 0.82476473 0.11594511
0.34995657 0.80803806 0.11386499
0.35690716 0.81041223 0.11451503
0.36025149 0.8045876 0.113995
0.3631269 0.79785025 0.11334496
0.37176374 0.80370539 0.11451503
0.37415633 0.79602575 0.11373498
0.38288087 0.80176669 0.11490504
0.39168978 0.80743021 0.11607511
0.39663672 0.80501163 0.11607511
0.40511963 0.80965567 0.11711517
0.41052926 0.80803853 0.11724517
0.41729841 0.80902874 0.1177652
0.42639568 0.81435764 0.11893526
0.43371192 0.81610322 0.11958531
0.4391821 0.81429929 0.11971531
0.44369408 0.81071949 0.11958531
0.4467341 0.80451483 0.11906528
0.45458314 0.80694115 0.11984532
0.45706522 0.79983288 0.11919528
0.46494871 0.80215973 0.11997532
0.47136989 0.80185568 0.12036534
0.47831264 0.80235457 0.12088537
0.48579234 0.80364668 0.12153541
0.49382406 0.80572236 0.12231545
0.50032896 0.80520332 0.12270547
0.51477563 0.81721723 0.1250456
0.51497632 0.80652308 0.12387554
0.52799869 0.81583232 0.12582564
0.53517056 0.81589311 0.12634566
0.54071575 0.81341964 0.12647568
0.55234599 0.8199532 0.12803575
0.55121607 0.80754179 0.12660569
0.56293064 0.81392872 0.12816577
0.57474411 0.82020199 0.12972586
0.57574707 0.8110013 0.1288158
0.58766139 0.81711137 0.13037589
0.59558403 0.81749654 0.13102593
0.6023556 0.81621975 0.13141595
0.62041587 0.82997739 0.13427611
0.62729287 0.82852614 0.13466612
0.63960671 0.83410192 0.13622621
0.6483624 0.83485961 0.13700625
0.66021699 0.83943719 0.13843633
0.67338753 0.8454513 0.14012642
0.68292075 0.84670514 0.14103647
0.69876796 0.85555178 0.14324659
0.70906067 0.85735971 0.14428665
0.71876502 0.85831332 0.14519669
0.72979027 0.86069208 0.14636676
0.74022561 0.86221552 0.14740682
0.7513575 0.86439127 0.14857687
0.76123333 0.8649742 0.14948693
0.77246398 0.8669486 0.15065698
0.78507584 0.87028974 0.15208706
0.78772599 0.86252815 0.15156704
0.8004092 0.86568546 0.15299712
0.81180513 0.86727178 0.15416718
0.81233644 0.85723722 0.15325713
0.82032722 0.85509825 0.15377715
2.049839 2.1102271 0.38414967
2.0398052 2.0742819 0.37985942
2.0280089 2.0371346 0.3753092
2.027097 2.0113847 0.37283906
2.0358596 1.9954388 0.37218902
2.0416534 1.9767028 0.37101895
2.0437114 1.9545447 0.36919886
2.0225086 1.9106493 0.36321852
1.9986709 1.8650596 0.35684818
2.0042443 1.8473854 0.35580814
2.0096762 1.8297131 0.35476807
2.0090685 1.8067404 0.35268795
2.0134444 1.7884533 0.35151789
2.0131998 1.7662578 0.3495678
2.0097613 1.7415358 0.34709767
2.0113695 1.7214355 0.34553757
2.016593 1.7045815 0.34462753
2.026253 1.6915404 0.3444975
2.0243526 1.6689849 0.34241739
2.0260971 1.6496465 0.34098732
2.0292261 1.6315924 0.33981726
2.0329866 1.6141788 0.33877721
2.0397315 1.5992274 0.33825716
2.0416651 1.5806127 0.3369571
2.045023 1.5632387 0.33591706
2.0403302 1.5399109 0.33357692
2.0409942 1.5208465 0.33214685
2.0478914 1.5065322 0.33175683
2.0554922 1.4927729 0.3314968
2.058166 1.4755116 0.33045676
2.0631337 1.4599917 0.32980672
2.0663631 1.4433311 0.32889667
2.0613019 1.421059 0.32668653
2.0609648 1.4022497 0.32525647
2.0662372 1.3873669 0.32473645
2.0623121 1.3664488 0.32278633
2.0631883 1.3488864 0.32161626
2.0664265 1.3329771 0.32083622
2.0653648 1.3144176 0.31940615
2.0700319 1.2996114 0.31888613
2.0754383 1.2853196 0.31849611
2.0832858 1.2725608 0.31849611
2.0893562 1.2587308 0.31823608
2.0944829 1.244368 0.31784606
2.0969455 1.2284862 0.31706601
2.0958579 1.2106378 0.31576595
2.0972152 1.194321 0.3148559
2.1019101 1.1799743 0.31446588
2.1091106 1.1670551 0.31446588
2.1162319 1.1540918 0.31446588
2.1232734 1.1410851 0.31446588
2.1258535 1.1257159 0.31381583
2.1265671 1.1094408 0.31290579
2.1253972 1.0922933 0.31173572
2.1249821 1.0756499 0.31069568
2.12888 1.061264 0.31030566
2.1317914 1.0464342 0.30978563
2.1390648 1.0337654 0.30991563
2.1480536 1.0218985 0.31030566
2.1479976 1.0057565 0.30939561
2.1523273 0.99172795 0.30913559
2.1511471 0.97522825 0.30809554
2.1516571 0.95958811 0.3073155
2.1538725 0.94477487 0.30679548
2.1596289 0.9315412 0.30679548
2.1680427 0.91943347 0.3071855
2.1773043 0.90763909 0.30770552
2.1874199 0.89614129 0.30835554
2.1937973 0.88307285 0.30848557
2.2000966 0.86995983 0.30861557
2.2063174 0.85680276 0.30874556
2.2087536 0.84218943 0.30835554
2.2138796 0.82862091 0.30835554
2.2179916 0.81467944 0.30822554
2.2210829 0.80038261 0.30796552
2.2259521 0.78673923 0.30796552
2.2363589 0.7750138 0.30874556
2.2476442 0.76350898 0.30965561
2.2569904 0.75126868 0.31030566
2.2672141 0.73924959 0.3110857
2.2745409 0.72622883 0.31147572
2.2865252 0.7146244 0.31251577
2.2908671 0.70058107 0.31251577
2.2932229 0.68594331 0.31225577
2.2964368 0.67158121 0.31212574
2.3014677 0.65775031 0.31225577
2.3054602 0.64361638 0.31225577
2.309366 0.62945819 0.31225577
2.3246834 0.61833388 0.31381583
2.3341923 0.6055516 0.31459588
2.3849661 0.60312539 0.32096624
2.4666045 0.60768592 0.3314968
2.5156033 0.60340589 0.33760715
2.6340172 0.59771496 0.35255796
2.7935274 0.61590058 0.37348908
3.1618104 0.67675471 0.42237175
3.4435577 0.71497363 0.45955375
4.0670686 0.81839657 0.54236823
4.8243122 0.93997329 0.64286369
17.224882 3.2460225 2.2966835
17.319586 3.1539488 2.306694
17.393299 3.0572298 2.3139744
17.461588 2.9588969 2.3206048
17.512686 2.8571267 2.3250251
17.632738 2.7657483 2.3386757
17.682713 2.662523 2.343096
17.724232 2.5576553 2.3464763
17.686552 2.4415324 2.3394558
17.689404 2.331409 2.3378956
17.303957 2.1726787 2.2851129
4.579123 0.54658085 0.60308152
4.6099772 0.52159363 0.60672176
4.5983028 0.4917168 0.60477161
4.5755835 0.46091023 0.60139143
4.5704288 0.43208009 0.60035139
4.5729933 0.40402836 0.60035139
4.570446 0.37555557 0.59970134
4.582551 0.34825569 0.60100144
4.5925145 0.32068333 0.60204148
4.604291 0.29312769 0.60334158
4.6030331 0.26470014 0.60295153
4.6105118 0.23675632 0.60373157
4.6445642 0.20993836 0.6080218
4.6536913 0.18174511 0.6090619
4.6170616 0.1519495 0.60412163
4.614933 0.12353739 0.60373157
4.6056914 0.095014296 0.60243154
4.6666636 0.067626335 0.61036193
5.9945807 0.050026309 0.78444141
6.0493569 0.0031153681 0.67504823
6.038331 -0.033942629 0.67382592
6.037015 -0.070980921 0.67371476
6.0523648 -0.10830473 0.6754927
6.0684762 -0.14584333 0.67738181
6.0525661 -0.18262811 0.67571497
17.395161 -0.63045579 1.9449508
52.589863 -2.2278352 5.8842268
52.550388 -2.5492752 5.8814487
52.545662 -2.8723211 5.8827825
52.450672 -3.1900365 5.8742261
52.385487 -3.5088198 5.8692255
51.065441 -4.050447 5.7264338
30.853502 -2.6381314 3.4610999
38.593666 -3.538451 4.3320742
38.219116 -3.7407334 4.2925148
38.182594 -3.9738338 4.2910705
38.159466 -4.208261 4.2912927
38.229668 -4.4535918 4.3021827
31.454584 -3.8602092 3.5421078
38.265774 -4.9344659 4.3127389
38.379547 -5.1887379 4.3290739
30.842896 -4.3628225 3.4816575
38.657085 -5.7101445 4.3679667
38.681236 -5.9564581 4.3747454
32.572746 -5.2207294 3.6872332
38.776779 -6.4592619 4.3941917
38.996906 -6.7421002 4.4237499
38.911762 -6.9735408 4.4188604
39.158451 -7.2660122 4.4518638
15.977427 -3.1683834 1.8199385
15.983974 -3.2717392 1.8229388
15.788215 -3.4340627 1.8052704
16.475767 -3.6895993 1.8865006
16.249445 -3.7437758 1.863165
15.968929 -3.7824907 1.8336066
15.590067 -3.7939415 1.7927136
15.550103 -3.8854339 1.7908245
15.502866 -3.9748518 1.7881577
15.470495 -4.0678792 1.7872686
49.696419 -13.392381 5.7536588
49.646835 -13.706316 5.7575479
13.626651 -3.8526461 1.5820262
34.150764 -9.8810282 3.9738169
47.442135 -14.042451 5.530859
47.386467 -14.342786 5.5345259
49.270443 -15.243628 5.7654376
49.176929 -15.545957 5.7655487
49.120338 -15.860234 5.7702155
49.064568 -16.175333 5.7752161
48.971931 -16.478619 5.7761054
48.936634 -16.801706 5.7839947
48.801666 -17.09082 5.7803278
48.727703 -17.401304 5.7841058
48.183907 -17.541206 5.7322121
51.774418 -19.208862 6.1733665
4.9695196 -1.8791705 0.5927068
5.0218892 -1.9342663 0.60037422
4.9951224 -1.9592394 0.59859627
4.977469 -1.9876413 0.59792954
5.003849 -2.0338571 0.6025967
4.981173 -2.0603447 0.60137433
4.9629407 -2.0885577 0.60070759
50.165585 -21.467737 6.099915
50.052963 -21.783869 6.1023593
48.934128 -21.655037 5.9820142
47.91486 -21.55653 5.8734479
49.852291 -22.796957 6.1280289
49.786278 -23.137178 6.1372519
49.67123 -23.455379 6.1406965
49.575657 -23.783358 6.1468081
49.466316 -24.105385 6.1514754
47.699085 -23.607492 5.9495668
47.511597 -23.87875 5.944344
47.350021 -24.1626 5.9425659
47.214111 -24.459536 5.9442329
47.116795 -24.776989 5.9510112
48.974277 -26.138584 6.2058139
33.156799 -17.958981 4.2149515
33.261974 -18.280794 4.2425098
48.726154 -27.17016 6.2367063
48.570946 -27.870419 6.2601528
32.525887 -18.930117 4.2066174
32.95002 -19.448586 4.2768469
3.7577109 -2.2498739 0.48836324
3.7472334 -2.274951 0.48880771
48.079979 -29.585218 6.3109355
32.483883 -20.264511 4.2796249
47.842655 -30.254807 6.3280482
3.4668813 -2.2230351 0.45913813
31.910383 -21.011879 4.2707348
47.019619 -31.375683 6.3191586
46.940655 -31.740974 6.3346047
31.075708 -21.573879 4.2286196
30.379665 -21.647945 4.1697249
30.024668 -21.673986 4.1391664
30.973656 -23.238039 4.3282962
26.709471 -20.296267 3.7495728
26.94042 -20.733732 3.7997999
26.519535 -20.670158 3.7582402
26.449152 -20.877438 3.7663522
25.096539 -20.570745 3.6270051
24.978258 -20.731329 3.6282275
24.923624 -20.945581 3.638895
25.109501 -21.366028 3.6851218
26.653191 -22.962955 3.9323685
25.195168 -21.977627 3.737016
24.971197 -22.053524 3.7237923
25.336229 -22.654114 3.7989109
3.6208632 -3.2785406 0.54481322
24.69438 -22.63163 3.7440166
11.013459 -10.47346 1.6980376
10.948988 -10.540839 1.6980376
10.876987 -10.600887 1.6969265
25.479561 -25.448578 4.0252666
25.343897 -25.625635 4.0286002
10.54827 -10.797808 1.686481
1.6385908 -1.6988997 0.26256326
1.6274501 -1.7082026 0.26245213
1.6196631 -1.7210505 0.26289663
1.6090726 -1.7309562 0.26289663
1.570182 -1.7100598 0.25822949
10.923079 -12.03759 1.8161604
9.9614725 -11.114229 1.6674792
9.8667374 -11.145379 1.6630342
10.606105 -12.129628 1.80027
10.226168 -11.840985 1.7480426
11.479383 -13.458017 1.9765095
9.9507456 -11.812058 1.725596
10.357753 -12.605898 1.8229388
11.042322 -13.608355 1.9581743
10.99404 -13.720057 1.9645083
10.151742 -12.992549 1.8422741
9.1356869 -11.841317 1.6709239
10.22401 -13.421293 1.8851672
10.132505 -13.47186 1.8835003
10.059726 -13.547342 1.8853894
9.1514158 -12.483532 1.7293741
7.7519732 -10.711934 1.4771271
10.715685 -14.999766 2.0598509
9.669816 -13.712985 1.8748329
10.442806 -15.003708 2.0426271
8.0157318 -11.668933 1.5815818
8.0822926 -11.921893 1.60914
8.6041908 -12.860834 1.7288185
9.8097134 -14.859039 1.9895108
7.5484757 -11.588178 1.5450226
9.5207739 -14.813607 1.9676198
7.4679708 -11.778133 1.5580239
7.6105976 -12.167489 1.6033617
7.4987435 -12.15391 1.5954721
8.0609751 -13.431133 1.7501539
6.9978719 -11.823784 1.5349106
6.8886204 -11.803843 1.5267986
7.2071576 -12.525506 1.6144739
5.9993324 -10.576207 1.3582265
5.9648848 -10.667464 1.3652272
5.9688811 -10.830063 1.3813399
7.0218863 -12.927402 1.6435878
6.9077253 -12.905409 1.6353649
5.5092974 -10.603788 1.3347797
7.5782719 -14.806748 1.8584979
8.0442686 -15.957797 1.9968449
6.3618832 -12.815702 1.5984724
6.6113453 -13.525909 1.6820362
5.0521441 -10.499146 1.3014431
5.9036655 -12.463609 1.5406889
5.7191515 -12.268114 1.5121305
4.9923043 -10.883022 1.3374467
6.3282557 -14.02126 1.7187064
6.2429104 -14.061643 1.7189286
5.9930491 -13.725365 1.6732575
5.8510771 -13.627643 1.6569226
6.0015769 -14.21812 1.7242625
5.6114159 -13.524931 1.6359205
4.5151486 -11.074463 1.335891
4.3155355 -10.77354 1.2963315
4.5484986 -11.559981 1.3876739
4.3499465 -11.257665 1.3481144
4.2536421 -11.212597 1.339558
4.1771321 -11.217997 1.3371133
4.8648343 -13.313757 1.583582
3.90131 -10.883921 1.2914422
5.1543479 -14.661575 1.7363747
3.792717 -11.004261 1.3001096
3.8208771 -11.310722 1.3335574
3.5365202 -10.684859 1.2571055
4.6099806 -14.21928 1.6700349
4.0207281 -12.666399 1.4845723
4.7813683 -16.0828 1.8747218
3.4365451 -11.825081 1.3755616
4.2276683 -14.886956 1.7290407
4.2340078 -15.26503 1.7699336
3.7944953 -14.013955 1.6220303
3.977813 -15.056414 1.7399306
4.3337188 -16.820499 1.9408393
3.0657821 -12.209586 1.4062312
2.9893909 -12.222376 1.4055645
2.9956119 -12.581758 1.4447906
2.8023934 -12.099361 1.3873404
3.4191861 -15.184868 1.7390417
2.6985211 -12.337687 1.4107872
2.6846993 -12.645652 1.4441239
2.6064551 -12.658966 1.4437904
2.52951 -12.678619 1.444235
2.46279 -12.751472 1.4507911
2.3666151 -12.670607 1.4399012
2.4462821 -13.557268 1.5390221
2.3052452 -13.24012 1.5013517
2.2089918 -13.164826 1.4912395
2.2560735 -13.96987 1.5809151
2.1378381 -13.774275 1.5572461
2.0644097 -13.861839 1.5656914
1.9641526 -13.76799 1.5536902
1.8608257 -13.641928 1.538133
1.7797803 -13.673784 1.5404667
1.6905882 -13.642038 1.5356884
1.5753555 -13.384681 1.5055743
0.4876484 -4.6364298 0.5199219
1.1764095 -13.569279 1.5215759
1.0527438 -13.075 1.4653481
0.98458916 -13.243748 1.4835721
0.88287878 -12.950107 1.4500133
0.87339902 -14.083068 1.576359
0.71263295 -12.758536 1.4274555
0.57246459 -13.143609 1.4696819
0.48652342 -13.005854 1.4539026
0.39579293 -12.659938 1.4148988
0.34614447 -13.775833 1.5394665
0.24729165 -13.025522 1.4553472
0.17065832 -13.282182 1.4839056
0.08849851 -13.185588 1.4730155
0.007963731 -13.779184 1.5393554
-0.02655746 -4.6977062 0.52392226
-0.055277392 -4.6885109 0.52292216
-0.25868976 -14.509317 1.6212523
-0.10223257 -4.2453623 0.47347286
-0.41719231 -13.855392 1.5485785
-0.48389778 -13.347056 1.4920174
-0.56435502 -13.310077 1.4882393
-0.6473614 -13.334157 1.4913507
-0.22823432 -4.1638188 0.46491647
-0.82330865 -13.528564 1.5141307
-0.89561182 -13.363612 1.49624
-1.0471803 -14.30938 1.6029172
-1.1024344 -13.892536 1.5569127
-1.1383086 -13.308227 1.4921286
-1.2230294 -13.334639 1.4959067
-1.3003738 -13.281386 1.4907951
-0.37906915 -3.4316683 0.38468638
-0.28077003 -2.4046338 0.26934171
-0.44027406 -3.2519376 0.36557338
-0.45952344 -3.2442548 0.36501777
-0.67305344 -4.0368285 0.45624897
-0.6996724 -4.043395 0.45747131
-0.61516142 -3.2021832 0.36323982
-0.62397492 -3.1437578 0.35701698
-0.93768734 -4.3087254 0.49169689
-0.74349731 -3.3175778 0.37879691
-0.89991993 -3.9037051 0.44658133
-0.82789606 -3.4929123 0.4000212
-0.68226314 -2.8012006 0.32101345
-0.64500135 -2.5790579 0.29589987
-0.66032046 -2.5731266 0.29567763
-0.67559099 -2.5671041 0.29545537
-0.69158834 -2.56387 0.2955665
-0.70862925 -2.564368 0.2961221
-0.72813523 -2.5733602 0.29767781
-0.73093015 -2.5239754 0.29245508
-0.68843615 -2.2722611 0.26411897
-0.68297994 -2.205333 0.25678492
-0.69769686 -2.2048912 0.25722939
-0.70938063 -2.1948943 0.25656265
-0.71941227 -2.1801181 0.25534031
-0.72897243 -2.1643598 0.25400686
-0.7412709 -2.1570263 0.25367349
-0.75514913 -2.1543131 0.25389573
-0.76634824 -2.1440237 0.25322899
-0.78186899 -2.145818 0.25400686
-0.79363805 -2.1372533 0.25356236
-1.3689564 -3.6197228 0.43135762
-1.3839991 -3.5927062 0.42913517
-1.5440412 -3.8661928 0.46413863
-1.5763388 -3.8778222 0.46669441
-1.0503832 -2.4951055 0.30134484
-1.2201638 -2.7105625 0.33101442
-1.1710603 -2.5593212 0.31334603
-1.7165513 -3.6921608 0.45391539
-1.7855271 -3.6626196 0.45424876
-1.798269 -3.6319995 0.45180407
-1.3175744 -2.620152 0.32656956
-1.7261627 -3.3812723 0.4231346
-1.4204842 -2.7405627 0.34379345
-1.9497664 -3.7064004 0.46691668
-2.0974083 -3.9284604 0.49658626
-1.2154261 -2.1783769 0.27756473
-1.2855287 -2.271219 0.29045489
-1.2989457 -2.2624264 0.29034376
-1.5767406 -2.7079318 0.34901619
-1.8979273 -3.2142849 0.41602278
-1.1341745 -1.8936281 0.24545045
-1.8253418 -3.0063915 0.3919093
-1.6718869 -2.7158201 0.35523903
-1.6869415 -2.7029805 0.35490566
-1.679593 -2.6547811 0.34990516
-1.6406118 -2.5582473 0.33845961
-1.5382472 -2.3664572 0.314235
-1.5959142 -2.4225469 0.32301363
-1.6132729 -2.3534088 0.31767979
-1.6033131 -2.3083615 0.31290153
-1.6134447 -2.2927904 0.31212369
-1.6372865 -2.2966061 0.31401277
-1.5838745 -2.1930435 0.30112261
-1.660067 -2.2691212 0.31301266
-11.623624 -15.295972 2.1467485
-11.671802 -15.165295 2.1384144
-11.719102 -14.846182 2.113523
-2.4230084 -3.0302613 0.43246883
-2.3896601 -2.9512219 0.4232457
-2.2880268 -2.7904663 0.40213254
-2.3628623 -2.8459659 0.41224462
-2.5113504 -2.9873841 0.43502465
-2.5058045 -2.9439137 0.43091312
-2.3467381 -2.722934 0.40057683
-2.8687551 -3.2075093 0.47980684
-2.9017208 -3.2045822 0.48202926
-2.8998427 -3.1632719 0.47847337
-2.8042898 -3.0215671 0.45958263
-2.7071111 -2.8811588 0.44069186
-2.6391366 -2.7744703 0.42680162
-2.7022886 -2.806195 0.43424681
-2.7358234 -2.772115 0.43413568
-2.7380333 -2.7405095 0.43180212
-2.6587012 -2.6286147 0.41668952
-2.7850423 -2.653975 0.4288018
-2.8150213 -2.6497808 0.43091312
-2.8312271 -2.6324584 0.43091312
-2.8583038 -2.6251221 0.43257996
-33.503384 -18.466679 4.2761798
-33.494678 -18.194817 4.2607341
-33.582035 -17.976292 4.2577338
-33.690823 -17.769434 4.2576227
-33.45089 -17.381372 4.2137294
-11.956029 -5.396039 1.4653481
-12.1079 -5.3754096 1.4799051
-12.251767 -5.3495374 1.493462
-12.238702 -5.2546549 1.4879059
-12.327478 -5.2034249 1.4947954
-12.413331 -5.1501589 1.5013517
-12.126296 -4.9440594 1.4629035
-11.030924 -4.418653 1.3273345
-13.78129 -5.4226556 1.6545889
-13.112572 -5.0667996 1.5704696
-11.357694 -4.2291589 1.3537816
-11.408632 -4.1686001 1.356782
-12.133752 -4.3493915 1.4399012
-13.837476 -4.8645911 1.6386985
-12.475594 -4.2999206 1.4741268
-12.057345 -4.0731411 1.4216772
-13.047262 -4.3185968 1.535355
-11.768931 -3.815439 1.3820066
-12.569783 -3.9900534 1.4732378
-12.630093 -3.9240584 1.4774605
-12.544587 -3.8132429 1.4646814
-12.567748 -3.7361991 1.4646814
-12.852871 -3.7352979 1.49524
-18.589516 -5.279314 2.1594164
-12.333692 -3.4208174 1.4297891
-13.103624 -3.5479634 1.5165755
-13.078067 -3.4550536 1.5111305
-13.253 -3.4144216 1.5289099
-19.20826 -4.8235245 2.2130883
-12.115775 -2.8846395 1.3912297
-19.748829 -4.5745659 2.2653158
-12.155109 -2.7368348 1.3917854
-13.786186 -3.0154212 1.5765812
-19.268766 -4.0911646 2.2011983
-33.022999 -6.8004818 3.7685745
-12.316072 -2.4571583 1.4028976
-12.531925 -2.4203753 1.4257886
-34.483864 -6.4420829 3.9211452
-58.76355 -10.605634 6.675416
-19.275099 -3.3563132 2.1863079
-19.656006 -3.2985187 2.2272007
-19.659651 -3.0515721 2.2232003
-58.971779 -8.7847567 6.6653037
-53.37579 -4.6294951 5.9892373
-53.465599 -4.3069286 5.9962378
-41.59523 -3.0938005 4.6624403
-53.358761 -3.6398785 5.9787917
-53.363224 -3.3113601 5.9769025
-53.341854 -2.9815927 5.9723468
-40.679943 -2.0233757 4.5528736
-40.332176 -1.7580574 4.5126476
-42.04837 -1.5744641 4.7035551
-53.481407 -1.674202 5.9815698
-40.301571 -0.76655388 4.5057583
-53.571732 -0.69038504 5.9892373
-53.624649 -0.36199814 5.9947934
-53.639771 -0.032965399 5.9963489
-53.645924 0.29620099 5.9971271
-53.666943 0.62563837 5.999794
-53.687931 0.9553802 6.0026832
-53.710865 1.2854981 6.0060167
-53.73077 1.6159035 6.0092392
-53.737724 1.9462061 6.0112395
-53.758526 2.2773275 6.0150175
-53.771336 2.6084888 6.0181289
-41.130936 2.248502 4.6045456
-42.027996 2.5562673 4.7066669
-39.156742 2.6229203 4.3867464
-38.99876 3.0934937 4.3729672
-39.050339 3.3388219 4.3809681
-38.729248 3.5508792 4.3472981
-41.812454 4.0923705 4.6962214
-42.303524 4.4026442 4.7543383
-42.040989 4.8975263 4.7312245
-38.181992 4.9236641 4.3032937
-40.500992 5.7287755 4.57232
-44.470104 9.3859482 5.0805922
-41.93729 9.1205444 4.7974534
-42.093891 9.4254656 4.8219004
-58.43922 13.840388 6.7137527
-58.031982 15.25725 6.7079744
-42.085045 11.341347 4.8722386
-41.978943 12.145836 4.8850174
-40.340801 11.940625 4.7027774
-1.6641693 0.51555878 0.19344535
-1.567163 0.49610561 0.18244426
-1.5877329 0.51334596 0.18522231
-1.7053651 0.56290525 0.19944593
-1.792303 0.60378408 0.21011366
-1.8082075 0.63394463 0.2128917
-1.836105 0.65639102 0.21666986
-1.8357784 0.66900462 0.21711434
-1.8325707 0.68060184 0.21722546
-1.8106973 0.68515712 0.21511415
-1.7990397 0.69339776 0.21422517
-1.7679195 0.69390315 0.21100263
-1.7682436 0.70657998 0.21155824
-1.7325706 0.70469725 0.20778009
-1.7015806 0.70430237 0.20455755
-1.6276073 0.68544209 0.19611228
-1.5374862 0.65866399 0.1856668
-1.6383437 0.72574109 0.19900145
-1.640204 0.73863423 0.1997793
-1.6130461 0.7383523 0.19700125
-1.6048802 0.74656063 0.19655676
-1.5733095 0.74366361 0.1932231
-1.5624446 0.75029433 0.19244525
-1.5372636 0.74985433 0.18988945
-1.5166012 0.75133806 0.18788925
-1.5137384 0.76152211 0.18811148
-1.4877921 0.75995493 0.18544456
-1.4583932 0.75626981 0.18233314
-1.4229391 0.74901521 0.17844388
-1.4113023 0.75398868 0.17755489
-1.3751903 0.74559534 0.17355451
-1.3479449 0.74157441 0.17066532
-1.3329533 0.74402344 0.16933186
-1.318848 0.74680591 0.16810952
-1.306483 0.75043273 0.16710943
-1.2906877 0.75193661 0.16566484
-1.2757794 0.75378031 0.16433138
-1.2626029 0.75649029 0.16322015
-1.2349985 0.75030184 0.16021986
-1.2134433 0.74744928 0.15799741
-1.2029318 0.75119883 0.15721956
-1.1764611 0.74475569 0.15433039
-1.1584823 0.74337947 0.15255244
-1.1447321 0.7445181 0.1513301
-1.1276917 0.74333006 0.14966327
-1.1156695 0.74527097 0.14866316
-1.0954336 0.74152577 0.14655185
-1.0826647 0.74261618 0.14544062
-1.0674748 0.74187773 0.14399604
-1.046645 0.73697907 0.1417736
-1.0340097 0.73762012 0.14066239
-1.0230179 0.73929751 0.1397734
-1.0160557 0.74380094 0.13944004
-1.0066812 0.74647224 0.13877331
-1.001287 0.75203866 0.13866219
-1.0053577 0.76478219 0.13988453
-1.0022215 0.77214879 0.14010677
-0.94729853 0.73918426 0.13299496
-0.90686125 0.71665943 0.12788334
-0.88692105 0.70980024 0.12566091
-0.88332158 0.71585417 0.12577203
-0.8773753 0.72000074 0.12554978
-0.87370569 0.72600532 0.12566091
-0.86543041 0.72815573 0.12510529
-0.85716182 0.73023206 0.12454969
-0.84739453 0.73093724 0.12377183
-0.83615321 0.73024362 0.12277173
-0.82346278 0.72812408 0.12154939
-0.81527531 0.72985101 0.12099378
-0.80857134 0.73283893 0.12066042
-0.80479223 0.73845792 0.12077153
-0.79587471 0.73932654 0.1201048
-0.78190637 0.73535097 0.11866022
-0.77377868 0.73671073 0.11810461
-0.75850409 0.73110628 0.11643778
-0.74475127 0.72672975 0.11499319
-0.73674083 0.72779602 0.11443758
-0.73366767 0.73370743 0.11465982
-0.72356111 0.73254257 0.11377085
-0.7204417 0.73839027 0.11399309
-0.71244681 0.73922133 0.11343748
-0.70789766 0.74357891 0.11343748
-0.70127791 0.74573791 0.11310412
-0.69127423 0.7442053 0.11221514
-0.6813159 0.74257821 0.11132617
-0.67273951 0.74232906 0.11065944
-0.66153872 0.7390427 0.10954821
-0.65962666 0.74606425 0.1099927
-0.64456928 0.73812771 0.10821475
-0.63548088 0.73680407 0.1074369
-0.63159293 0.74144554 0.10754801
-0.61614621 0.73238647 0.10565894
-0.61418331 0.73920906 0.10610343
-0.61152893 0.74526721 0.1064368
-0.60005605 0.74051696 0.10521445
-0.5973655 0.7465114 0.10554782
-0.59215701 0.74938339 0.1054367
-0.58326435 0.7475211 0.10465884
-0.57623827 0.74793863 0.10421436
-0.57163817 0.75146031 0.10421436
-0.56522435 0.75257099 0.10388099
-0.5552634 0.74884421 0.10288089
-0.55418378 0.7570461 0.10354763
-0.54719746 0.75721192 0.10310313
-0.5402301 0.75732064 0.10265864
-0.53557312 0.76062119 0.10265864
-0.5263539 0.75736779 0.10176967
-0.52057141 0.75894499 0.10154743
-0.5120008 0.75636685 0.10076957
-0.50735021 0.75949419 0.10076957
-0.5037756 0.76425165 0.10099182
-0.4974494 0.76483029 0.10065845
-0.49220976 0.76703215 0.10054733
-0.4869619 0.7691986 0.1004362
-0.47854364 0.76627427 0.099658348
-0.47331101 0.76835042 0.09954723
-0.46703756 0.76869333 0.099213861
-0.46128926 0.76984036 0.098991618
-0.45807558 0.77522188 0.099324986
-0.45431215 0.77973461 0.09954723
-0.45001495 0.78336889 0.099658348
-0.44569021 0.78697979 0.099769473
-0.44133806 0.79056704 0.099880598
-0.43647891 0.79326016 0.099880598
-0.43018016 0.79330361 0.09954723
-0.42295933 0.79154736 0.098991618
-0.41670358 0.79149067 0.098658256
-0.40954804 0.78962332 0.098102644
-0.40378967 0.79035205 0.097880401
-0.39714301 0.78926522 0.097435914
-0.39140883 0.78990686 0.097213663
-0.38611823 0.79140079 0.097102545
-0.38039309 0.79196411 0.096880302
-0.37510103 0.79338509 0.096769176
-0.36980593 0.79477102 0.096658058
-0.36575115 0.7988317 0.096880302
-0.36206934 0.80377829 0.097213663
-0.35713065 0.80598474 0.097213663
-0.35138303 0.80633938 0.09699142
-0.3460367 0.80756712 0.096880302
-0.33991551 0.80692846 0.096546933
-0.33381519 0.80624515 0.096213572
-0.32661042 0.80275685 0.095546834
-0.32020023 0.80105561 0.095102347
-0.31455117 0.80115575 0.094880104
-0.30998769 0.8039977 0.094991222
-0.30575374 0.80774295 0.095213473
-0.3004449 0.80867249 0.095102347
-0.2947951 0.80863386 0.094880104
-0.29083401 0.81323403 0.095213473
-0.28517935 0.81312817 0.094991222
-0.27791753 0.80828583 0.094213374
-0.27295277 0.80997592 0.094213374
-0.26610371 0.80597472 0.093546636
-0.26115334 0.80759239 0.093546636
-0.25799751 0.81486285 0.094213374
-0.25122327 0.8107363 0.093546636
-0.24653304 0.81321335 0.093657762
-0.24267159 0.81852108 0.094102249
-0.23514813 0.8114059 0.09310215
-0.22989348 0.81187743 0.092991032
-0.2246419 0.81231517 0.092879906
-0.21939361 0.81271899 0.092768788
-0.21491051 0.81597149 0.092991032
-0.20989977 0.81727481 0.092991032
-0.20391279 0.81469184 0.092546538
-0.19985475 0.81978905 0.092991032
-0.19551155 0.82390028 0.093324393
-0.18933102 0.82024354 0.092768788
-0.18516795 0.82526791 0.093213275
-0.18010072 0.82638854 0.093213275
-0.17461383 0.82553381 0.092991032
-0.17034703 0.83048314 0.093435518
-0.16447011 0.82761443 0.092991032
-0.15863483 0.82470495 0.092546538
-0.15338902 0.82468587 0.09243542
-0.14744335 0.82072151 0.091879807
-0.14223421 0.82063168 0.091768689
-0.13736074 0.82246906 0.091879807
-0.1318361 0.82035315 0.091546446
-0.1269525 0.82212865 0.091657564
-0.12263782 0.82780701 0.092213176
-0.11741577 0.82756007 0.092102051
-0.11247011 0.82924962 0.092213176
-0.10737982 0.82992411 0.092213176
-0.10228547 0.83056736 0.092213176
-0.097187281 0.83117932 0.092213176
-0.092085436 0.83176005 0.092213176
-0.086667828 0.82934433 0.091879807
-0.081577435 0.82986051 0.091879807
-0.07639201 0.8293559 0.091768689
-0.071129963 0.82782888 0.091546446
-0.066049166 0.82824975 0.091546446
-0.061187074 0.83161259 0.091879807
-0.056286186 0.83494693 0.092213176
-0.051408239 0.83924413 0.092657663
-0.046257768 0.8395437 0.092657663
-0.042093281 0.85966337 0.094880104
-0.037164051 0.86784834 0.095769078
-0.03187554 0.86905318 0.095880203
-0.026262555 0.86029249 0.094880104
-0.020783307 0.85248953 0.093991131
-0.015476475 0.84862655 0.093546636
-0.01025629 0.84771174 0.093435518
-0.0050479141 0.84676498 0.093324393
0.00014970316 0.84379852 0.092991032
0.0053162021 0.84179419 0.092768788
0.01045811 0.83975822 0.092546538
0.015592903 0.83868462 0.09243542
0.020667383 0.83559263 0.092102051
0.025794093 0.83544999 0.092102051
0.030883877 0.83428288 0.091990933
0.035960309 0.83308476 0.091879807
0.041167628 0.83483368 0.092102051
0.046343528 0.8355577 0.092213176
0.051469538 0.83525765 0.092213176
0.056394406 0.83195132 0.091879807
0.061498102 0.8315897 0.091879807
0.066520914 0.83020598 0.091768689
0.071698353 0.8307724 0.091879807
0.076794527 0.83031678 0.091879807
0.082371756 0.83477539 0.09243542
0.08759515 0.83524269 0.092546538
0.092609532 0.83370167 0.09243542
0.097378343 0.83015639 0.092102051
0.10210716 0.82658404 0.091768689
0.10666872 0.82199931 0.091324195
0.11157728 0.82034445 0.091213077
0.11660872 0.81964439 0.091213077
0.12163576 0.81891352 0.091213077
0.12665823 0.81815177 0.091213077
0.13214771 0.82030308 0.091546446
0.13832146 0.82633883 0.092324294
0.14389703 0.82841241 0.092657663
0.14897735 0.82751387 0.092657663
0.15441468 0.82853854 0.092879906
0.15893373 0.82464737 0.092546538
0.16341087 0.82073218 0.092213176
0.16904145 0.82263499 0.092546538
0.17347021 0.81866509 0.092213176
0.17933489 0.82146972 0.092657663
0.18545765 0.82520282 0.093213275
0.18984826 0.82114404 0.092879906
0.19557019 0.82286483 0.093213275
0.19991067 0.81875247 0.092879906
0.20541242 0.81943882 0.09310215
0.20920263 0.8133496 0.092546538
0.21444198 0.81301177 0.092657663
0.21994366 0.81359982 0.092879906
0.22413829 0.80936104 0.092546538
0.23045188 0.81275219 0.09310215
0.23405351 0.80654955 0.092546538
0.23871595 0.80414534 0.09243542
0.24450926 0.80551904 0.092768788
0.24885981 0.80210477 0.092546538
0.25527444 0.80530065 0.09310215
0.26356974 0.81412226 0.094324492
0.26793784 0.81060201 0.094102249
0.27607584 0.81836188 0.095213473
0.28109205 0.81665248 0.095213473
0.28609762 0.81491232 0.095213473
0.29209512 0.81594932 0.095546834
0.29743615 0.81507558 0.09565796
0.30243176 0.81323516 0.09565796
0.30776736 0.81229377 0.095769078
0.31417403 0.81409985 0.096213572
0.31952614 0.81308198 0.09632469
0.32745659 0.81849003 0.097213663
0.33396897 0.82014817 0.097658157
0.34089369 0.82267559 0.098213762
0.34709123 0.82331651 0.098547131
0.35213646 0.82117128 0.098547131
0.35597873 0.81626141 0.098213762
0.35896969 0.80951786 0.097658157
0.35903728 0.79642421 0.09632469
0.36639699 0.79962897 0.09699142
0.37087771 0.7964645 0.096880302
0.37193865 0.78608596 0.095880203
0.38406241 0.7990216 0.097769275
0.39548799 0.81005073 0.099436104
0.40221417 0.81117159 0.099880598
0.41120028 0.81668007 0.10088069
0.41936558 0.82033819 0.10165855
0.42119125 0.81157261 0.10088069
0.4307884 0.81776899 0.10199191
0.43579802 0.81511033 0.10199191
0.44126454 0.81329483 0.10210304
0.44911844 0.81579763 0.10276977
0.45508361 0.81476253 0.10299201
0.46301013 0.81714487 0.10365874
0.46850991 0.8151505 0.10376987
0.47400269 0.81311935 0.10388099
0.48201382 0.81533074 0.10454772
0.48394522 0.80724144 0.10388099
0.49043605 0.80680555 0.10421436
0.49537724 0.80378115 0.10421436
0.50292981 0.80494237 0.10476997
0.50892174 0.80352122 0.10499221
0.51652396 0.8045668 0.10554782
0.52686524 0.80971611 0.10665904
0.53182358 0.80646807 0.10665904
0.54448456 0.81476295 0.10821475
0.55615366 0.82128596 0.10954821
0.56342936 0.82113737 0.1099927
0.56789047 0.81684834 0.10988158
0.57460707 0.81578714 0.11021494
0.57960176 0.81224602 0.11021494
0.58980972 0.81592655 0.11121504
0.59773803 0.81630331 0.11177065
0.6056931 0.81661338 0.11232626
0.61486709 0.81844622 0.11310412
0.6270926 0.82415342 0.11443758
0.63516825 0.82422811 0.11499319
0.64326829 0.82423449 0.1155488
0.6606282 0.8358736 0.11777125
0.66636503 0.83258069 0.11788236
0.6802147 0.8392908 0.11943807
0.69480145 0.84663057 0.1211049
0.70696473 0.85076356 0.12232725
0.72240144 0.85858297 0.1241052
0.73409623 0.86170316 0.12521642
0.75493747 0.87525278 0.12788334
0.75768065 0.86760837 0.12743886
0.76956838 0.87039208 0.12855008
0.77820653 0.869358 0.12910569
0.78352624 0.86456668 0.12910569
0.79083067 0.86194086 0.12943906
0.80218792 0.86362904 0.13043915
0.80951309 0.86086375 0.13077252
0.82505232 0.86668336 0.13243935
0.83104384 0.8623206 0.13255048
2.0327876 2.084945 0.32423598
2.0357709 2.0625284 0.32268026
2.0308309 2.0324192 0.31990221
2.0305445 2.0073409 0.31790203
2.0286059 1.9809539 0.31567958
2.0357168 1.9636383 0.31490174
2.0081639 1.9133959 0.30879003
1.9938196 1.8765112 0.30478963
2.0045686 1.8635653 0.3046785
2.0035243 1.8398002 0.30278942
2.00668 1.8201257 0.30156708
2.0044899 1.7958387 0.29956689
2.0080304 1.7769177 0.29845566
2.0054293 1.7527877 0.29645547
2.0071211 1.7326545 0.295122
2.0041053 1.7086968 0.29312181
2.0061915 1.6893241 0.29189947
2.0042963 1.6668122 0.29012153
2.0091112 1.6500661 0.28934366
2.0153396 1.6345762 0.28878805
2.0268822 1.6234226 0.28901029
1.9993982 1.5813534 0.28367645
2.0341222 1.5886369 0.28723234
2.0343897 1.5688405 0.28589889
2.0297482 1.5454875 0.28389868
2.0312507 1.5270303 0.28278747
2.036593 1.5115755 0.28223184
2.0410206 1.4955251 0.28156513
2.0453279 1.4794773 0.28089839
2.0454724 1.4605446 0.27967605
2.0470862 1.4428117 0.27867594
2.047744 1.4245462 0.27756473
2.0498934 1.4074528 0.27667576
2.0576682 1.3942906 0.27656463
2.0554469 1.3744544 0.27512005
2.0621829 1.3607213 0.27489778
2.0654972 1.3447877 0.27423108
2.0594976 1.3229537 0.272342
2.0692549 1.3113564 0.27256423
2.0713646 1.2949456 0.27178639
2.0750425 1.2796023 0.27123076
2.082006 1.2663293 0.27111965
2.0897369 1.2535305 0.27111965
2.0948234 1.2391659 0.27078629
2.0989542 1.224285 0.27034178
2.1047039 1.2103918 0.27011955
2.105176 1.1935316 0.26923057
2.1063881 1.1771965 0.26845273
2.1135714 1.1642498 0.26845273
2.1093228 1.1450921 0.26700813
2.1136808 1.130721 0.26667476
2.1197 1.1172667 0.26656365
2.1212244 1.10149 0.26589692
2.1270583 1.0880009 0.26578578
2.1292572 1.072692 0.26523018
2.1357989 1.059607 0.26523018
2.1395819 1.0451727 0.26489681
2.1432683 1.0307318 0.26456344
2.1441636 1.0150088 0.2638967
2.1458476 0.99973357 0.2633411
2.1501348 0.9857192 0.26311886
2.155237 0.97209883 0.26300773
2.1575277 0.95724303 0.26256326
2.1660929 0.94517982 0.26289663
2.1745913 0.93304753 0.26323
2.183022 0.92084652 0.26356336
2.1904669 0.90819609 0.2637856
2.1996794 0.89623964 0.26423007
2.2088273 0.88420409 0.26467457
2.2105119 0.86917865 0.26423007
2.2176576 0.85631537 0.26445234
2.2200825 0.84163427 0.26411897
2.2242734 0.82764935 0.26400784
2.2237093 0.81193918 0.2633411
2.2286496 0.79827946 0.2633411
2.2503815 0.79052329 0.26534131
2.2739809 0.78317803 0.26756373
2.275919 0.76825607 0.26723039
2.2683251 0.75021654 0.26578578
2.263432 0.73321885 0.26467457
2.2584164 0.71630961 0.26356336
2.2599218 0.701554 0.26323
2.275594 0.69114316 0.26456344
2.272171 0.67490149 0.26367447
2.2695894 0.65900522 0.26289663
2.2735901 0.64506686 0.26289663
2.2966583 0.63641745 0.26511905
2.3245013 0.62880796 0.2678971
2.337924 0.61707211 0.26900834
2.3532147 0.60569119 0.27034178
2.4050806 0.60334474 0.27589789
2.4859645 0.60746896 0.28478765
2.4983461 0.59427607 0.28578776
4.5263777 1.0479407 0.51814395
2.7497704 0.61859757 0.3137905
2.9690416 0.64886636 0.33845961
3.2801597 0.695871 0.37357417
3.8031781 0.78258157 0.4328022
4.6129193 0.91988248 0.524589
5.0829406 0.98129153 0.57748312
16.733543 3.1257119 1.9020578
16.804241 3.0323334 1.9079472
16.863653 2.9363294 1.9126143
16.943098 2.8431644 1.919615
17.020071 2.7488179 1.9263935
17.009121 2.640064 1.923282
17.023035 2.5353553 1.9230598
17.112059 2.4413865 1.931394
17.158226 2.3406427 1.9349499
17.084557 2.2238972 1.92506
16.987419 2.1053321 1.9126143
4.6014738 0.54113746 0.51669931
4.5681634 0.50881732 0.51258785
4.564281 0.48004931 0.51180995
4.5592289 0.45125014 0.510921
4.5589433 0.42299086 0.51058763
4.5624428 0.39509565 0.51069874
4.5667624 0.36725321 0.510921
4.5748763 0.33966756 0.51158774
4.5857978 0.31219909 0.51258785
4.5965543 0.28460935 0.51358795
4.633935 0.25839719 0.51758832
4.6503224 0.23069982 0.51925516
4.6705146 0.20298426 0.52136648
4.6796174 0.17462032 0.52225542
4.7034469 0.1466189 0.52481127
4.9307742 0.12345917 0.55014706
6.0184665 0.11389625 0.6717146
6.0011649 0.076734751 0.66971439
6.0025167 0.039917573 0.66982549
6.0779476 0.011306944 0.57338661
6.0659561 -0.025935378 0.57225728
6.0646873 -0.063144498 0.57216322
6.0512452 -0.10014095 0.57093978
6.0734086 -0.13778892 0.57310426
17.455942 -0.50358516 1.6496093
17.503265 -0.61245948 1.6544088
17.511116 -0.72033715 1.6555381
17.535206 -0.82913369 1.6582673
17.588442 -0.93984699 1.6638197
30.855516 -1.8388643 2.9207304
31.830112 -2.0930281 3.0141797
31.828587 -2.2891514 3.0153091
52.055798 -4.0652547 4.9345541
38.939835 -3.2814305 3.6927948
31.882195 -2.8837721 3.0249081
41.137157 -3.9755747 3.9055738
41.351654 -4.2525606 3.9283481
42.042313 -4.584455 3.9965765
38.405464 -4.4264798 3.6532693
38.363747 -4.6603675 3.6519518
38.31665 -4.8934045 3.6502578
30.845825 -4.1317763 2.9406812
38.228085 -5.3596468 3.6478112
38.046719 -5.5724669 3.6336949
33.058594 -5.0492458 3.1600478
37.565475 -5.9737382 3.5944517
37.484894 -6.1969781 3.5903108
37.547234 -6.444211 3.600004
37.553055 -6.682673 3.6044271
37.641556 -6.9369669 3.6169436
37.718575 -7.1907334 3.6285188
15.87872 -3.1281185 1.5286801
15.822155 -3.2179492 1.5251039
15.776778 -3.3096571 1.5226572
15.749362 -3.4049265 1.5219984
15.704851 -3.4963062 1.5197397
15.693777 -3.5950489 1.520775
15.678206 -3.6928744 1.5214337
15.654284 -3.7887702 1.5213397
15.560213 -3.8672216 1.5144697
15.513039 -3.9567192 1.5122111
15.524104 -4.0611539 1.5156932
30.870756 -8.2788048 3.0201087
15.562378 -4.2758842 1.5244452
16.49132 -4.6401443 1.6182712
16.044472 -4.6208363 1.5771458
15.748426 -4.6404042 1.5507956
15.40414 -4.6418657 1.5196457
15.262148 -4.7014179 1.5084468
15.213071 -4.7886987 1.5064706
15.189089 -4.8837829 1.5070351
