# .PCD v0.7 - Point Cloud Data file format
VERSION 0.7
FIELDS x y z
SIZE 4 4 4
TYPE F F F
COUNT 1 1 1
WIDTH 1526
HEIGHT 1
VIEWPOINT 0 0 0 1 0 0 0
POINTS 1526
DATA ascii
-2.1645606 1.4860942 0.19650702
-2.1619513 1.5039016 0.19710685
-2.1624656 1.5240296 0.1980066
-2.1620023 1.5436412 0.19883136
-2.1541064 1.5580463 0.19898133
-2.1308286 1.5612187 0.19770668
-4.6520672 3.4515543 0.43463945
-4.6371794 3.4848256 0.43523929
-4.0975189 3.118891 0.38627818
-4.1138473 3.1713665 0.38965222
-5.0847759 3.969629 0.48412544
-5.1291661 4.0551701 0.49072355
-4.106935 3.2883031 0.39467579
-3.8349175 3.1093669 0.37030771
-4.1849747 3.435884 0.40622252
-4.2895842 3.5660281 0.41851905
-4.0646734 3.42149 0.39857471
-2.2515712 1.9194063 0.22154993
-2.2714629 1.9605438 0.22469904
-2.2000599 1.9226197 0.2187757
-2.171041 1.920889 0.21705119
-2.156985 1.9321785 0.21682626
-2.1251407 1.9272946 0.21480183
-3.819236 3.5058873 0.38890246
-4.0588088 3.8657815 0.42054346
-61.421394 61.431053 6.5308599
-48.19759 48.800594 5.1563501
-47.812988 49.009048 5.1472774
-46.69347 48.452793 5.0586529
-46.266716 48.603325 5.0446315
-44.941601 47.795151 4.9320135
-44.515156 47.927536 4.9173927
-43.494194 47.408401 4.8366408
-41.750595 46.644253 4.7060275
-41.183552 46.58279 4.6742368
-40.485043 46.362915 4.6271501
-39.760841 46.101498 4.5766144
-39.162308 45.974915 4.5400996
-38.421753 45.670284 4.48664
-37.829178 45.530121 4.4499755
-37.160076 45.287289 4.4038634
-36.631001 45.205322 4.3739467
-35.959171 44.937172 4.3265605
-35.340252 44.723518 4.2850223
-34.755383 44.542507 4.2471581
-34.16555 44.344952 4.2082438
-33.546261 44.098206 4.165206
-33.025917 43.971523 4.1340151
-32.475735 43.796074 4.0987
-31.922478 43.606689 4.0625601
-31.393805 43.441277 4.0291195
-30.895594 43.309185 3.9992032
-30.350821 43.102509 3.9628384
-29.956589 43.102051 3.9458184
-4.6029215 6.7112494 0.61098945
-4.7701716 7.0473723 0.63895649
-4.7213006 7.0682173 0.63820672
-27.953449 42.403908 3.8179047
-27.518744 42.30714 3.7939115
-27.062588 42.16972 3.7666192
-4.4648008 7.05305 0.62673497
-26.144232 41.860085 3.7100103
-4.5761495 7.4290786 0.6551519
-4.4108601 7.2601619 0.63783181
-24.80954 41.400181 3.6281335
-4.1935854 7.0974064 0.61893719
-3.9225245 6.7327099 0.58497185
-4.0634522 7.0739746 0.61248899
-3.9098856 6.9044156 0.59569377
-4.0857139 7.3192081 0.62935925
-3.7719796 6.8557754 0.58744609
-3.7935452 6.9962516 0.59749329
-3.6814544 6.8901143 0.58647138
-3.68975 7.0087485 0.59464407
-3.8455005 7.414537 0.62710989
-3.6270585 7.0996742 0.59854299
-3.5000467 6.9561181 0.58459693
-3.5463035 7.1570516 0.59966767
-19.365597 39.686558 3.3194461
-3.4638221 7.2117162 0.60064238
-3.3171976 7.01648 0.5826475
-3.3064804 7.1063156 0.58842087
-17.962727 39.225998 3.2430427
-3.40991 7.5700288 0.62336093
-3.3642049 7.5926323 0.6235109
-3.3984363 7.7986999 0.63873154
-3.3591623 7.8395696 0.6403811
-16.267038 38.609856 3.1493194
-16.022579 38.691437 3.1478946
-15.764949 38.74007 3.1439209
-15.444762 38.630516 3.1272755
-15.181922 38.659588 3.1220272
-14.718013 38.164936 3.0747154
-14.46308 38.200436 3.0703666
-14.197845 38.206203 3.0637686
-13.912248 38.153011 3.0525968
-13.641607 38.136257 3.0444992
-13.348263 38.050808 3.0310779
-13.0354 37.901913 3.0127831
-12.737611 37.788414 2.9974873
-12.191598 37.690453 2.977618
-11.574924 37.342888 2.938704
-4.2923212 14.155809 1.1113225
-4.2297664 14.264098 1.1177707
-4.1588235 14.347247 1.1222694
-4.1136546 14.524086 1.1341161
-10.273762 37.137363 2.8963411
-9.8969831 36.64904 2.8534532
-9.6472769 36.615543 2.8461802
-9.4348345 36.72234 2.8499293
-7.3809981 29.478224 2.2839899
-9.1869278 37.669479 2.9144859
-3.1287358 13.181546 1.0177491
-2.9991057 12.989655 1.0014787
-2.8988152 12.916354 0.99443066
-8.6421003 39.637321 3.0494475
-8.4073992 39.730576 3.0525968
-2.7153044 13.234198 1.0148998
-2.6019619 13.089232 1.0025283
-2.6384485 13.712064 1.0490152
-2.5464175 13.68584 1.045791
-2.427284 13.505898 1.0308703
-2.3206806 13.383967 1.0204483
-2.2426238 13.422544 1.0223228
-2.1282375 13.237176 1.007177
-2.0347919 13.171145 1.0011787
-1.9384347 13.078825 0.993231
-1.6194007 11.409133 0.86554223
-1.8386875 13.550235 1.0272714
-1.4808079 11.440013 0.86644197
-1.4110734 11.452843 0.8667419
-1.3609438 11.633619 0.87978816
-1.3112843 11.837992 0.89463395
-1.2191164 11.659362 0.88053799
-1.1464787 11.655705 0.87971318
-1.1000319 11.934596 0.90025735
-0.99489582 11.570539 0.87229031
-1.0270061 12.867659 0.9696877
-0.84117997 11.423753 0.86036867
-0.77227861 11.446608 0.8617183
-0.69714278 11.371507 0.85571998
-0.62174857 11.274012 0.84807217
-0.59018219 12.044525 0.90580583
-0.5025456 11.728117 0.88173765
-0.46808589 12.751408 0.95851582
-0.40042558 13.099902 0.98453349
-0.32221028 13.190835 0.99120659
-0.23715284 12.968234 0.97433639
-0.14065346 11.582465 0.87004095
-0.0092482008 1.6353735 0.12205315
0.00078643503 1.6353993 0.12205315
0.010821042 1.6353637 0.12205315
0.020830626 1.6332724 0.12190319
0.030833378 1.6321168 0.12182821
0.040896364 1.6338905 0.12197817
0.050828978 1.6306188 0.12175323
0.060980409 1.6342621 0.12205315
0.071049795 1.6348535 0.12212813
0.080785722 1.6284108 0.12167826
0.091216832 1.63585 0.12227809
0.10094641 1.6302829 0.12190319
0.11088041 1.6286378 0.12182821
0.1212386 1.6328992 0.1222031
0.13038078 1.6211904 0.12137834
0.14092515 1.6273146 0.12190319
0.15063235 1.6234403 0.12167826
0.15971045 1.613554 0.12100345
0.17012751 1.6175025 0.12137834
0.17938922 1.6104816 0.12092847
0.18938364 1.6103411 0.12100345
0.19950521 1.6111279 0.12115341
0.20951536 1.6108624 0.12122838
0.22020113 1.6154752 0.12167826
0.22996902 1.6131064 0.12160327
0.24118002 1.6205424 0.12227809
0.25233841 1.6269156 0.12287792
0.2667537 1.6529031 0.12497732
0.27113253 1.6168119 0.12235306
0.28036582 1.6111879 0.12205315
0.29059973 1.6114001 0.1222031
0.30175978 1.6164491 0.12272796
0.31204969 1.6165254 0.12287792
0.32371411 1.6233823 0.12355272
0.33727986 1.638948 0.12490234
0.34629691 1.6319698 0.12452745
0.3601304 1.647351 0.12587707
0.37197998 1.6528938 0.1264769
0.3661741 1.581598 0.12115341
0.17726465 0.72351444 0.055097144
7.5976973 28.114283 2.1888418
7.7995901 28.173811 2.1971645
9.8106871 33.059689 2.5920024
9.9980087 32.948296 2.5880287
8.5452404 27.550806 2.1679976
6.3477526 19.20821 1.5201815
6.2360501 18.488575 1.4661968
6.3594341 18.479193 1.4685211
6.587955 18.768204 1.4946887
6.7419672 18.836336 1.5033863
6.8259759 18.708429 1.4964882
5.8671994 15.77898 1.264879
7.0716453 18.667084 1.5000123
5.9832168 15.505768 1.2487586
7.3289943 18.65222 1.5059355
7.3833089 18.456907 1.493789
7.5577097 18.5618 1.5060105
6.3592734 15.347815 1.2482337
8.3306522 19.762377 1.6116556
6.613544 15.423509 1.260905
6.6685987 15.292146 1.2534822
8.7140179 19.653093 1.6155545
8.3611803 18.549232 1.528954
8.1292915 17.743307 1.4665717
7.669826 16.472673 1.3653505
0.64663231 1.3653704 0.11268081
0.71287763 1.4818138 0.12272796
0.73507977 1.5042951 0.12497732
0.74252445 1.4961827 0.1246774
0.74944878 1.4871452 0.12430251
0.75583643 1.4771912 0.12385264
0.75983375 1.4627895 0.12302787
0.75810623 1.4378073 0.12130336
0.76315308 1.4260933 0.12070353
0.76760942 1.4134954 0.12002873
0.76905471 1.3956553 0.11890404
0.77031016 1.3778511 0.11777936
0.77580053 1.367893 0.11732949
0.77871352 1.3535968 0.11650472
0.78499556 1.3453472 0.11620481
0.79272819 1.3396468 0.11612983
0.80298406 1.3381786 0.11642975
0.80962598 1.3306701 0.11620481
0.82091469 1.3307709 0.11665468
0.83381999 1.33332 0.11732949
0.8419854 1.3281786 0.11732949
0.85389006 1.3288612 0.11785434
0.86474705 1.3277761 0.11822923
0.91953999 1.3932054 0.12460242
0.92917943 1.3891951 0.12475238
0.93880415 1.385119 0.12490234
0.9506706 1.3842659 0.12535222
0.96256185 1.3833191 0.12580208
0.97332853 1.3806479 0.126102
0.98699486 1.381955 0.12677681
0.99720836 1.3782973 0.12700175
1.0286237 1.4035294 0.12992592
1.0318695 1.3899834 0.12925111
1.0331911 1.3740588 0.12835136
1.0416027 1.3676934 0.12835136
1.0572797 1.3707545 0.12925111
1.0656706 1.3642414 0.12925111
1.0764948 1.3608061 0.12955102
1.0879401 1.3580678 0.12992592
1.0975084 1.352916 0.13007587
1.1121157 1.3538643 0.13082565
1.1325122 1.3615859 0.13225025
1.1466241 1.3614781 0.13292506
1.1575433 1.357453 0.13322498
1.1736673 1.3593853 0.13412473
1.1281936 1.2905744 0.12797646
1.1354306 1.2828807 0.12790149
1.1412853 1.273661 0.12767655
1.1490788 1.2666342 0.12767655
1.1548064 1.2573556 0.12745161
35.594204 37.84174 3.9053299
35.824352 37.621181 3.90518
36.089123 37.436554 3.9089289
33.314312 34.136368 3.5855455
33.52314 33.931309 3.5855455
36.64798 36.641838 3.8957326
36.790531 36.335697 3.88711
37.149834 36.24297 3.9015059
38.012711 36.632267 3.968462
37.703022 35.890236 3.9130526
38.50515 36.20607 3.9731855
38.958199 36.184254 3.996954
39.284561 36.040928 4.0076756
39.564075 35.852776 4.0136743
39.923748 35.735039 4.0278449
40.187088 35.52903 4.0323439
25.75145 20.092842 2.4550164
25.609629 19.730572 2.4298985
25.80402 19.629211 2.4368715
25.998129 19.526205 2.4438446
25.632051 19.006372 2.3984075
26.28487 19.241631 2.4484181
25.702522 18.574162 2.3834865
27.768354 19.808891 2.5638103
28.081793 19.773632 2.5815053
26.801571 18.627195 2.4532168
26.925228 18.469162 2.4541166
28.583033 19.349541 2.5944018
28.486467 19.030321 2.5749822
28.57439 18.836512 2.572433
29.137476 18.952267 2.6126215
28.917528 18.55769 2.5826302
24.268124 15.364415 2.1587753
23.318035 14.365083 2.0583789
25.641884 15.580531 2.2551229
25.337553 15.18352 2.220108
25.80883 15.251502 2.2531736
25.669298 14.957298 2.2329292
32.803959 18.846153 2.8437061
24.825327 14.060278 2.1443045
4.3841734 2.4470165 0.37660593
4.3964844 2.4186273 0.37638101
4.4138718 2.3930316 0.37660593
4.3871369 2.3438132 0.37308192
4.4164352 2.3247485 0.37435657
22.893568 11.875175 1.9382629
22.91361 11.707707 1.9338392
22.931572 11.539995 1.9293405
22.928682 11.362761 1.9231921
22.84383 11.146642 1.9102958
22.822809 10.963515 1.9028729
22.768852 10.766149 1.8928258
22.802841 10.611512 1.8902016
22.864803 10.470152 1.8899766
22.832245 10.286239 1.8820288
22.838408 10.120898 1.8773801
22.634981 9.8650284 1.8556364
22.677671 9.7184935 1.8542117
22.663361 9.5481873 1.8482134
22.671768 9.3883457 1.8441646
22.659676 9.2208662 1.8385412
22.675087 9.0653667 1.8352422
22.664385 8.9001827 1.8299186
22.649719 8.7343969 1.8243701
22.612425 8.5610056 1.8170973
22.516842 8.3672123 1.8052506
22.508738 8.2073717 1.800527
22.422531 8.0204039 1.7896551
22.475084 7.8839922 1.789955
22.410824 7.7073441 1.7810324
22.418951 7.5566282 1.7779584
22.379677 7.3907804 1.7712103
22.343958 7.2272344 1.7648371
1.8691835 0.59130543 0.14649622
1.9127803 0.59222567 0.14964531
1.9316465 0.58510834 0.15084498
1.9294641 0.57154375 0.15039511
1.9204839 0.55608433 0.14942038
1.9181033 0.54265928 0.14897051
1.9060196 0.52662551 0.14777085
1.8957373 0.5112806 0.14672115
1.9113743 0.50294197 0.14769587
1.9076636 0.48946744 0.14717102
1.9086964 0.47726855 0.14702107
1.9367774 0.47169152 0.14897051
1.9289627 0.45726505 0.14814575
1.9297889 0.4449718 0.14799578
1.9227532 0.4309383 0.147246
1.9126953 0.41637066 0.14627127
1.9288722 0.40751716 0.14732099
1.9205914 0.39346901 0.14649622
1.9288378 0.38284391 0.14694609
1.9350674 0.37175545 0.147246
1.9324102 0.3589628 0.1468711
1.9492981 0.34974554 0.14799578
1.9543551 0.33828953 0.14822072
1.9603282 0.326949 0.14852063
1.9741118 0.31681457 0.14942038
1.982917 0.30576175 0.14994523
1.9936334 0.29490528 0.15062004
2.0033038 0.28378859 0.15121987
2.0079715 0.27189362 0.15144481
2.0185025 0.26072037 0.15211962
1.9903733 0.2446703 0.14987026
28.889784 3.380635 2.1861427
28.908001 3.2030876 2.1859927
21.501711 2.2488132 1.6246269
2.0394435 0.20004793 0.15316932
1.9919771 0.18304296 0.14949536
2.0039914 0.17175731 0.15032013
1.9920852 0.15842578 0.14934541
1.9751189 0.14488043 0.14799578
1.9769655 0.13282578 0.14807077
1.9737623 0.12044853 0.14777085
1.9913906 0.10926997 0.1490455
1.9820635 0.096560381 0.1482957
21.508484 0.92219049 1.6178038
4.4494667 0.16289671 0.33386806
4.3925729 0.1338222 0.3295193
4.4810371 0.10901469 0.33611742
4.4387498 0.080731295 0.33289334
4.4421535 0.053530611 0.33311826
4.490262 0.026563367 0.33671725
21.2281 0.024176897 1.2344501
21.245819 -0.10616671 1.2354957
21.232788 -0.23639314 1.2347987
21.258888 -0.36715358 1.236425
21.18737 -0.495976 1.2324171
21.112082 -0.62384617 1.2282349
21.092892 -0.75284147 1.2273636
21.105827 -0.88300216 1.2284091
21.125938 -1.0137328 1.2299193
21.118324 -1.1432861 1.2298613
21.105928 -1.2725437 1.2295709
21.090752 -1.4015599 1.2291642
21.078766 -1.5307269 1.22899
21.066988 -1.659878 1.2288738
21.053421 -1.7888578 1.2286996
21.033102 -1.9171898 1.2281767
21.012993 -2.0454366 1.227712
20.994087 -2.1737146 1.2273636
20.981348 -2.3025999 1.2274216
20.96385 -2.4309506 1.2272474
20.944574 -2.5590522 1.227015
20.919567 -2.6863732 1.2264923
20.89082 -2.8130836 1.2257951
20.858335 -2.9391248 1.2249238
20.811266 -3.0628381 1.2232394
20.765438 -3.1863875 1.221671
20.666632 -3.3011439 1.2170241
20.612503 -3.4223299 1.2150491
20.552748 -3.5421286 1.2127838
20.4923 -3.6613228 1.2105184
27.655136 -5.1164703 1.6357133
27.561447 -5.274241 1.632054
27.548155 -5.4471288 1.6332157
27.513233 -5.615859 1.6331576
27.479235 -5.7847772 1.6332157
27.455906 -5.9560285 1.6339707
27.418844 -6.124383 1.6339707
27.386587 -6.293848 1.6343193
27.371742 -6.4675097 1.6357715
27.342215 -6.637929 1.6364105
27.317436 -6.8096776 1.6373979
27.294483 -6.9821138 1.6385596
27.255955 -7.1507258 1.6388501
27.216387 -7.3191266 1.6391405
27.179626 -7.4883718 1.6396633
27.131245 -7.6544595 1.6395471
27.111584 -7.8288221 1.6412317
27.087929 -8.0023823 1.6427419
27.088966 -8.1837416 1.6458205
27.079258 -8.3624697 1.6483182
27.032196 -8.5299692 1.6486087
27.013556 -8.7067003 1.6506997
26.94445 -8.8672953 1.6497704
16.042099 -5.6086054 0.98810422
15.792048 -5.6301579 0.97480237
15.759081 -5.727632 0.97491854
15.860317 -5.8748493 0.98339921
15.701618 -5.9258771 0.97578984
15.510279 -5.9626412 0.96614742
15.45295 -6.0496917 0.9648695
15.408119 -6.141438 0.96440482
15.347944 -6.2268572 0.96301073
15.303912 -6.3186274 0.96266222
15.265774 -6.4127979 0.96272033
15.233482 -6.5094848 0.96318501
15.230793 -6.6191478 0.96556658
15.315903 -6.7681637 0.97358251
19.957451 -8.9661255 1.2723227
19.907509 -9.0909014 1.2726712
19.856787 -9.2154026 1.2730197
17.409775 -8.209938 1.1192641
17.355471 -8.3148823 1.1190318
16.297213 -8.055234 1.0570532
16.142197 -8.1022348 1.0501989
15.72928 -8.0161781 1.0264995
15.417346 -7.976747 1.0093058
15.086171 -7.9231186 0.99077618
14.910413 -7.9479132 0.98241174
14.708582 -7.9566011 0.97230464
14.613976 -8.0217218 0.96928412
14.585413 -8.1228991 0.97067821
14.569195 -8.2313919 0.9729436
14.546131 -8.3365173 0.97480237
14.507651 -8.4331398 0.97567368
14.459073 -8.5240259 0.97590601
14.433918 -8.6289778 0.97776479
14.423386 -8.7432556 0.98066914
14.412842 -8.8582506 0.98363155
14.420069 -8.9850597 0.98787189
14.39252 -9.0909653 0.98978871
17.048397 -11.063575 1.1818235
16.897619 -11.113664 1.176073
16.742716 -11.159552 1.1700319
16.362043 -11.051413 1.1481332
16.171999 -11.068151 1.1395364
15.860134 -10.998211 1.1222847
15.59304 -10.955285 1.1081115
15.356356 -10.930342 1.0960294
15.278474 -11.016769 1.0952743
14.86233 -10.855925 1.0701808
14.686296 -10.866159 1.062281
14.355721 -10.758497 1.0431124
14.176524 -10.760669 1.0348641
14.069867 -10.816421 1.0319016
13.900044 -10.822206 1.0242922
13.730684 -10.826317 1.0166829
13.491589 -10.772696 1.0038457
13.335962 -10.783091 0.99716574
13.209298 -10.815385 0.99263501
13.165744 -10.915347 0.99437761
13.09852 -10.995925 0.99437761
13.021676 -11.068331 0.99368054
12.936114 -11.133044 0.99234456
12.89014 -11.231884 0.99408716
12.853918 -11.339825 0.99664295
12.806433 -11.438433 0.99838555
12.793022 -11.568355 1.0028583
12.781442 -11.701238 1.0075632
12.768711 -11.834411 1.0122683
3.4534128 -3.2802072 0.27642536
3.489347 -3.3553102 0.28095615
3.4858611 -3.3933706 0.28235021
3.4727952 -3.4224041 0.28298917
3.4234619 -3.4154437 0.2806657
13.673894 -13.811213 1.1301264
13.611926 -13.918408 1.1320432
13.536673 -14.012437 1.1329145
13.485588 -14.132068 1.1358769
13.460933 -14.280655 1.1411628
13.50639 -14.506188 1.1525478
13.397529 -14.567479 1.1508633
13.489804 -14.849664 1.1666048
13.356431 -14.885345 1.1629454
13.44892 -15.174719 1.1790935
18.214811 -20.808125 1.6083546
18.134455 -20.974625 1.6125948
18.02227 -21.10524 1.6141051
17.951645 -21.285635 1.6194491
17.873091 -21.458284 1.6242123
17.81529 -21.657755 1.6310084
17.901114 -22.036312 1.6512226
17.898623 -22.311602 1.6635951
17.874823 -22.564211 1.6742249
17.776016 -22.724573 1.6780006
17.752802 -22.984123 1.6890951
17.754917 -23.280752 1.7028617
17.694004 -23.498514 1.7108196
17.614408 -23.69397 1.717151
17.582102 -23.956129 1.7283037
17.47695 -24.121765 1.7324859
17.392494 -24.317869 1.7388755
17.27232 -24.465723 1.7418379
19.050985 -27.339708 1.938171
40.726768 -60.003242 4.2188311
40.426716 -60.354855 4.2260337
40.065533 -60.616768 4.2270794
14.498206 -23.469328 1.6044046
13.178497 -22.552727 1.5191333
12.989533 -22.545797 1.5132666
12.594073 -22.172815 1.4830034
12.461201 -22.25577 1.4834099
12.338396 -22.357161 1.4850944
12.244389 -22.512251 1.4903803
12.119701 -22.612474 1.4920648
11.993779 -22.711132 1.4936913
11.880003 -22.833893 1.4969442
11.76244 -22.950777 1.4998485
11.675377 -23.129465 1.5068189
11.537682 -23.209608 1.5073998
11.417437 -23.325693 1.5103621
13.052248 -27.085295 1.7486922
12.870408 -27.132401 1.746601
12.674968 -27.149349 1.7426511
12.458967 -27.119566 1.7357968
12.255323 -27.113628 1.730569
12.025861 -27.046923 1.7215656
11.81528 -27.018675 1.7151179
11.620091 -27.022795 1.7108196
11.421799 -27.017267 1.7059983
12.681627 -30.518106 1.9221972
12.46092 -30.514013 1.9170856
12.264162 -30.566734 1.9156334
11.182862 -28.374252 1.7738436
11.032332 -28.50378 1.7776774
10.984182 -28.905025 1.7984724
10.919309 -29.274002 1.8172345
10.817031 -29.552322 1.8303621
10.674634 -29.727127 1.8371001
10.476445 -29.74781 1.83437
10.260485 -29.715281 1.8284452
10.040838 -29.667986 1.8217071
9.8180752 -29.6068 1.814214
9.6180315 -29.610466 1.8107868
9.4056044 -29.572838 1.8049201
9.2477093 -29.706247 1.809567
9.0972576 -29.867481 1.8159566
9.0167103 -30.268129 1.8369259
8.9578238 -30.759001 1.8633554
8.7713804 -30.822029 1.8638781
8.7866173 -31.611082 1.9083145
8.5791559 -31.615263 1.9053521
8.5314226 -32.220284 1.9386358
8.3635139 -32.38802 1.9456062
8.3115568 -33.022503 1.9806325
8.1327877 -33.170811 1.9864993
8.0804443 -33.854176 2.0244298
7.9796305 -35.347221 2.1077263
8.0739613 -36.815319 2.1923006
7.8489542 -36.869049 2.192591
12.288271 -61.413773 3.643482
11.121621 -61.440945 3.6323292
10.732392 -61.439194 3.6282632
9.6382465 -61.873924 3.642843
13.931022 -101.70977 5.972528
13.289859 -101.66465 5.9649768
12.660378 -101.70069 5.9624209
8.7272072 -73.796089 4.3230386
7.794167 -73.644463 4.3082266
5.6978045 -57.186668 3.3431733
6.8792615 -73.621254 4.3016047
6.4230614 -73.612358 4.2987003
5.5528693 -74.134613 4.3248973
1.1868703 -17.265003 1.0062273
1.0794158 -17.248047 1.0048332
0.98312205 -17.423788 1.0147079
3.5211277 -70.055954 4.0806427
3.0836332 -96.903992 5.6405044
1.8650794 -72.624207 4.2263241
1.418787 -72.601341 4.2244077
0.32127827 -23.957342 1.3933755
0.17340969 -23.840067 1.3864632
0.11587239 -102.44568 5.9600978
-1.1356001 -31.813917 1.8515637
-5.6301379 -134.54651 7.8347311
-1.8551905 -38.65807 2.2512007
-2.808095 -42.253189 2.4632173
-3.9817419 -54.825649 3.1977241
-4.6482353 -54.702034 3.1935999
-8.6065292 -88.408852 5.1676784
-9.1573687 -88.436798 5.1724992
-10.296583 -93.81604 5.4907565
-19.506701 -98.649841 5.8503718
-11.054169 -52.509327 3.1215143
-17.151844 -79.064148 4.7066436
-15.885806 -71.119164 4.2393355
-15.445128 -67.205429 4.0115776
-15.314036 -64.810692 3.8741443
-15.715188 -64.731026 3.8750737
-16.116903 -64.652756 3.8762355
-16.527651 -64.608742 3.8796046
-10.558726 -40.245617 2.420233
-17.393925 -64.678703 3.8963335
-9.4342327 -34.242077 2.0659039
-9.6428051 -34.178738 2.0656135
-11.215849 -38.840691 2.3515744
-19.01162 -64.352989 3.9036524
-19.413631 -64.259972 3.9051626
-8.5545321 -27.701176 1.6861907
-8.736659 -27.687197 1.6885723
-20.71076 -64.256615 3.9274681
-12.410084 -36.944454 2.266942
-7.6359973 -21.009577 1.2999719
-7.7238464 -20.851862 1.2931178
-7.8516459 -20.804077 1.2931178
-8.030735 -20.88969 1.3014822
-25.352549 -63.604679 3.9832892
-25.740089 -63.442371 3.9829409
-26.112118 -63.242638 3.9803851
-28.424015 -66.516022 4.2080851
-3.4867527 -8.0233383 0.5083077
-3.6012886 -8.1497192 0.51771772
-3.6291339 -8.0782938 0.51458102
-29.80884 -64.229156 4.1193285
-35.349083 -73.781784 4.7595606
-31.847094 -65.438858 4.2338176
-30.426815 -61.557693 3.9946744
-30.816046 -61.393929 3.9962428
-31.269234 -61.354897 4.0061173
-31.856401 -60.655449 3.9856708
-32.204967 -60.415672 3.9828246
-3.2146451 -5.9428596 0.39242461
-3.2164619 -5.8600135 0.38824236
-3.2193274 -5.7808595 0.38429245
-3.1604488 -5.5941162 0.3731398
-3.1460662 -5.4897366 0.36744732
-3.1285167 -5.3822956 0.36152247
-3.1204157 -5.2933388 0.35681742
-3.1354194 -5.2449594 0.35484248
-3.0904331 -5.0984211 0.34618756
-3.080884 -5.0130229 0.3416568
-3.0767405 -4.9381037 0.33782306
-3.0472703 -4.8246007 0.33131734
-3.0547454 -4.7713418 0.3289358
-3.0535309 -4.7056127 0.32568294
-3.0390079 -4.6208963 0.32109407
-3.0274379 -4.5423527 0.31691185
-3.0116673 -4.4591632 0.31238106
-3.0243115 -4.4191804 0.31087083
-27.947754 -40.301907 2.8529212
-28.263386 -40.227688 2.8598917
-28.509687 -40.053509 2.8598917
-39.586163 -54.898659 3.9374008
-2.9317377 -4.0139627 0.2885074
-2.9295912 -3.9597847 0.2858935
-2.9316812 -3.9121766 0.28374431
-2.932694 -3.863898 0.281537
-2.9277494 -3.8086321 0.27880692
-41.570194 -53.391796 3.9364715
-2.8982375 -3.6759939 0.27166227
-2.8958216 -3.6269364 0.26933879
-2.8947966 -3.5803771 0.26718959
-42.834454 -52.314594 3.9333928
-2.8881781 -3.4838705 0.26260072
-2.8575079 -3.4041507 0.25789571
-2.8292031 -3.3287442 0.25348109
-2.7675214 -3.215982 0.24616218
-2.822618 -3.2395837 0.24929886
-44.887512 -50.879951 3.9471593
-45.121716 -50.5172 3.9404213
-45.424809 -50.232723 3.9398985
-2.8574533 -3.1214757 0.24552321
-2.8711236 -3.0980265 0.24505852
-2.8989589 -3.0898154 0.24581365
-2.9254265 -3.0799315 0.24645261
-2.8999822 -3.0158708 0.24273506
-19.20978 -19.73196 1.6016165
-47.789291 -48.489056 3.9605775
-2.7364175 -2.7429008 0.22472817
-2.7468112 -2.7197375 0.22420539
-19.918776 -19.48004 1.6203785
-2.7376175 -2.6449022 0.22077827
-2.7277939 -2.6032438 0.21868715
-49.849674 -46.987541 3.9852061
-50.131203 -46.675346 3.9847414
-2.6804583 -2.4654171 0.21119395
-2.6600661 -2.4167032 0.20840579
-2.6607268 -2.3876684 0.20730214
-2.6760743 -2.3719597 0.20736022
-2.6717517 -2.3102129 0.20480441
-52.571968 -44.892052 4.0216846
-2.6739535 -2.2553699 0.20282947
-53.444149 -44.514431 4.0463133
-53.752514 -44.215477 4.0490437
-54.070068 -43.923222 4.052587
-54.388397 -43.630608 4.0563045
-54.726299 -43.35247 4.0615902
-55.003853 -43.025703 4.0625196
-2.6600881 -2.0548713 0.19487157
-55.930958 -42.655022 4.0920277
-2.6846418 -1.9960301 0.19394219
-57.216381 -41.454647 4.110383
-57.566296 -41.171902 4.1172953
-57.992367 -40.94112 4.1297259
-2.5889826 -1.804299 0.1829057
-58.727306 -40.389305 4.1464548
-59.090496 -40.10725 4.1546454
-59.416759 -39.798367 4.1603379
-59.668171 -39.438549 4.1609187
-60.082127 -39.184574 4.1729426
-60.464989 -38.907558 4.1828756
-60.843334 -38.625175 4.1925759
-2.5297155 -1.5844833 0.17297287
-61.651623 -38.084965 4.2157526
-62.007767 -37.781277 4.224175
-62.343674 -37.463341 4.2313199
-62.682301 -37.145245 4.2387547
-62.987473 -36.805767 4.244041
-63.392914 -36.522747 4.2561808
-10.804678 -6.1371393 0.72229928
-2.5361714 -1.3796331 0.16728038
-2.5301394 -1.3165901 0.16524734
-2.5186248 -1.2910236 0.16396943
-11.68835 -5.8104887 0.75877774
-2.4818852 -1.2150397 0.16007762
-10.84083 -5.1425486 0.69743812
-10.675884 -4.9842925 0.68483329
-10.813312 -4.9678698 0.69168752
-12.311852 -5.5650659 0.78543955
-2.4793153 -1.1025857 0.15717328
-2.4715652 -1.0630074 0.15583728
-2.4771218 -1.0474334 0.1557792
-2.4733613 -1.0280005 0.15514024
-11.861388 -4.8439398 0.74477881
-11.957596 -4.7978339 0.74896109
-12.065757 -4.755487 0.75389844
-34.330982 -13.287693 2.1412423
-2.5485249 -0.96866852 0.15792841
-2.5244889 -0.94184852 0.15606962
-9.7207394 -3.5582306 0.60159498
-9.7649393 -3.5066154 0.60298908
-2.4877248 -0.87631953 0.15275869
-2.5024915 -0.86429691 0.15333955
-2.4859982 -0.84156489 0.15200356
-2.4920628 -0.82660955 0.15206164
-2.4828455 -0.80667698 0.15119034
-2.4877486 -0.79142731 0.15119034
-10.660217 -3.1757627 0.64649606
-10.625827 -3.0946617 0.64324319
-10.676302 -3.0384214 0.64516008
-11.746588 -3.187705 0.70748711
-2.5120049 -0.66533965 0.15049329
-2.5034742 -0.64666891 0.14973818
-2.5151398 -0.63324505 0.15020287
-2.5121908 -0.61613655 0.14979626
-2.5683601 -0.6132257 0.15293294
-2.5594327 -0.59451956 0.15217781
-9.5822344 -2.1633449 0.57086712
-2.5168035 -0.5521602 0.14921539
-2.5148947 -0.48738059 0.14834408
-2.5502191 -0.47800699 0.15026096
-11.392912 -1.9903235 0.67222846
-11.79982 -1.9124895 0.69482422
-2.4088144 -0.37543106 0.14114133
-96.230125 -14.385656 5.6606603
-51.531101 -7.3806343 3.0282271
-51.557621 -7.0618677 3.0271814
-2.4093833 -0.31516755 0.14067663
-99.594383 -11.778069 5.8345723
-2.4497056 -0.24427903 0.14253542
-104.58269 -7.8334203 6.101481
-2.4909048 -0.17141573 0.14456844
-104.21178 -5.8790107 6.0724955
-2.4401231 -0.092844136 0.14137368
-2.3100493 -0.016992804 0.13370623
-2.3200929 -0.0028295603 0.13428709
-48.652122 0.24338883 2.8301513
-48.688644 0.54234189 2.8324165
-48.678413 0.84097612 2.832068
-2.3400435 0.068959594 0.13550691
-4.5410876 0.27363142 0.26399481
-4.3231668 0.28712326 0.25138998
-4.3880348 0.31848952 0.25528181
-4.5969863 0.36203393 0.26759619
-4.5389733 0.38550004 0.26434332
-4.5504413 0.41461223 0.26515654
-4.5698352 0.47299257 0.26660872
-4.6343269 0.50842988 0.2705586
-4.8661451 0.56411165 0.28432518
-4.4860344 0.54794675 0.26225221
-4.3578253 0.55943966 0.25493327
-4.3632154 0.58736736 0.25545606
-4.2577085 0.59978008 0.24947312
-4.2796278 0.62967318 0.25098339
-4.6881495 0.71921635 0.27526364
-4.24299 0.67757654 0.24929886
-4.4938231 0.74595076 0.26434332
-4.5235944 0.77944499 0.26637638
-4.8164992 0.86039209 0.28397664
-4.8503957 0.89719433 0.28630012
-5.0222726 0.96090221 0.29681382
-4.9604597 0.98066181 0.29350287
-4.9690208 1.014075 0.29437417
-3.8529487 0.81091684 0.22838762
-5.0196176 1.0887334 0.29814982
-4.9465904 1.1047138 0.29419991
-4.5291352 1.0406832 0.26968729
-4.6683979 1.1028895 0.27840033
-4.392817 1.0662721 0.2623103
-4.5528021 1.1347399 0.2723012
-4.3078308 1.1017897 0.25801188
-4.3009892 1.1282014 0.25801188
-4.2515674 1.1431628 0.25545606
-4.2589097 1.1732061 0.25632736
-4.2314539 1.1936235 0.25510752
-4.2787204 1.2353519 0.25841847
-4.3285041 1.2785532 0.26190367
-4.2708836 1.2900751 0.25888318
-4.1722708 1.288272 0.25336492
-4.3128052 1.360714 0.26242647
-4.2635174 1.3739822 0.25992873
-4.1649199 1.370469 0.25441051
-4.2084818 1.4134828 0.25760525
-4.5519819 1.5600172 0.27927163
-4.1898766 1.4646915 0.25754717
-4.1695266 1.4863493 0.25685012
-2.3694823 0.87749362 0.14631106
-43.373329 16.369728 2.6967258
-5.3617997 2.0610979 0.33352464
-4.0001926 1.5658723 0.24924077
-3.9970007 1.5929751 0.24964738
-5.4376621 2.2059824 0.34072739
-5.1167483 2.1124344 0.32138452
-5.3798084 2.2597854 0.33881053
-5.4420362 2.3253129 0.34363174
-5.6364183 2.4493856 0.35687551
-5.4240484 2.3967621 0.34432879
-5.5103202 2.4754109 0.3507764
-5.4223795 2.4759989 0.34612948
-4.7904119 2.2230227 0.30657241
-5.1721711 2.4388804 0.33201438
-5.0013552 2.3959477 0.3219654
-5.4156365 2.6354105 0.34973085
-5.0557017 2.4987235 0.32742554
-5.7094417 2.8655818 0.3709906
-5.3688779 2.7360082 0.3499051
-4.4538031 2.3041751 0.29106322
-4.8779597 2.5616992 0.31987426
-4.8665547 2.5939295 0.32016468
-5.1130881 2.7657673 0.33753264
-4.8142285 2.6424055 0.3188287
-4.6165133 2.5708611 0.30674666
-4.7379808 2.6767302 0.31592435
-5.0064287 2.8690701 0.33503491
-4.9265885 2.8636117 0.33085266
-5.8832893 3.4682181 0.39666495
-4.5808935 2.7384119 0.30982524
-4.7680392 2.8901546 0.323708
-5.4961114 3.3778026 0.37465006
-5.4168196 3.3750339 0.37064207
-5.3217344 3.3612909 0.36553043
-4.9083829 3.1424901 0.33840394
-5.0899901 3.3029785 0.35234475
-5.2030792 3.421922 0.36163864
-3.9832973 2.6548014 0.27781945
-4.5915279 3.1010723 0.32167494
-4.1679111 2.8523383 0.29315436
-5.35954 3.716404 0.37877423
-4.2085619 2.9566443 0.29855642
-4.6091986 3.2805533 0.32847109
-4.4610429 3.2165174 0.31929338
-4.5960035 3.3568892 0.33044603
-4.7197733 3.4919083 0.34090167
-2.1347048 1.5995717 0.15450129
-2.1264403 1.613847 0.15461746
-2.116498 1.6268642 0.15461746
-2.1490121 1.6729386 0.15775414
-2.1465459 1.6922745 0.15833502
-2.1322212 1.7022989 0.15804458
-2.1232886 1.7166053 0.15816075
-2.1629231 1.7707105 0.16193639
-2.152786 1.7845858 0.16199447
-2.1188574 1.778505 0.16025187
-2.101059 1.7856536 0.15972909
-2.1430295 1.844097 0.16379516
-2.1279109 1.8539324 0.16350473
-2.1239812 1.8735586 0.1640856
-2.0945761 1.8705951 0.16269152
-2.0941658 1.8934557 0.16356282
-2.0832446 1.9069439 0.1636209
-2.0737014 1.9217263 0.16379516
-2.0771589 1.9487593 0.16501498
-2.1042478 1.9985961 0.16815168
-2.1113732 2.0301535 0.16972001
-2.1067452 2.0507309 0.17035897
-2.0948334 2.0643196 0.17041706
-2.0821276 2.0771346 0.17041706
-2.0791767 2.0998032 0.17123027
-2.0725353 2.1189449 0.17175305
-2.0636563 2.1359298 0.17210157
-2.0580928 2.1564968 0.17274052
-2.057832 2.1828871 0.17384417
-2.0566444 2.2086244 0.17488973
-2.0558937 2.2351635 0.17599338
-2.0535517 2.260298 0.17698085
-2.0696461 2.306293 0.17959476
-2.0653882 2.3301556 0.18046606
-2.0411887 2.3315172 0.17959476
-39.779507 46.010048 3.5382288
-39.090622 45.778015 3.5018663
-38.550915 45.710987 3.4785736
-37.970058 45.58691 3.4513309
-37.288185 45.330994 3.414562
-36.712868 45.193974 3.3872032
-35.951366 44.815662 3.3422439
-35.47052 44.776398 3.3230174
-34.982906 44.721916 3.3029773
-34.183029 44.256256 3.2530227
-33.77644 44.28894 3.2401276
-33.511856 44.505722 3.2408826
-32.927837 44.293095 3.2106194
-32.182903 43.850449 3.16415
-31.599291 43.613773 3.1330156
-31.101688 43.486099 3.1100712
-30.69034 43.472229 3.0955496
-30.190159 43.325542 3.0718501
-29.451385 42.823132 3.0233476
-4.6221652 6.8095608 0.47816065
-4.6775203 6.9829454 0.48832583
-4.6004562 6.9598794 0.48472446
-4.5271254 6.9411488 0.4814716
-4.6281452 7.1921101 0.49692267
-4.4688935 7.0391655 0.48443401
-26.192457 41.823856 2.8706377
-4.5469198 7.3601637 0.50267327
-4.4829726 7.3572335 0.50058216
-4.3009682 7.1569858 0.48513106
-4.1180315 6.9487782 0.46927339
-4.0818648 6.9851203 0.47002852
-3.9591899 6.8716311 0.46073464
-3.9204032 6.9018717 0.46114123
-3.8911486 6.949316 0.46270958
-3.8127406 6.9083815 0.45841116
-3.9963706 7.3473392 0.48594427
-3.8460474 7.1755042 0.47299093
-3.7096419 7.024178 0.46148977
-3.7130094 7.1362557 0.4673565
-3.738816 7.2948337 0.47624379
-3.6557474 7.2418847 0.47130641
-3.3619449 6.7626724 0.43871975
-3.4757531 7.1005917 0.45928246
-3.3961489 7.0471401 0.45446125
-3.4148831 7.1986327 0.46288383
-3.5412619 7.5849047 0.48635089
-3.2958648 7.1737738 0.4586435
-3.3952861 7.5113482 0.47891578
-3.3645456 7.5667038 0.48112306
-3.3272536 7.6082439 0.48245907
-3.3459718 7.7807574 0.49210146
-3.3117723 7.8333244 0.49413452
-3.2498548 7.8203101 0.49204338
-3.202564 7.8419518 0.49215955
-15.239734 38.667953 2.4176192
-14.755352 38.12299 2.3778298
-14.493851 38.140953 2.3733571
-14.24071 38.178658 2.3702204
-13.965348 38.153759 2.363308
-13.612556 37.908939 2.3429196
-13.370079 37.964443 2.3412349
-13.061942 37.828728 2.3278751
-12.768457 37.727547 2.3167806
-12.53107 37.788128 2.3157349
-12.246233 37.701942 2.3058021
-11.991068 37.702171 2.3012714
-11.396317 37.415775 2.2750742
-11.113512 37.307041 2.2642701
-4.1665277 14.306445 0.86629629
-10.620158 37.318668 2.2568932
-10.362103 37.279247 2.2506196
-9.9313326 36.598328 2.2057767
-9.6984062 36.627697 2.203918
-9.473979 36.68845 2.2040341
-9.3203211 37.030514 2.2211115
-9.2108393 37.567928 2.2499228
-9.0633574 37.97234 2.2707758
-8.9065132 38.355919 2.2904091
-8.8094921 39.023346 2.3270037
-8.5985394 39.207333 2.3347874
-8.4469795 39.678246 2.3597066
-2.9632432 14.350487 0.8518908
-2.5486255 12.736559 0.7550602
-2.4877043 12.841146 0.76034606
-2.7566888 14.712672 0.87024623
-2.3379381 12.914911 0.76295996
-2.2533243 12.898529 0.7611593
-2.2192211 13.179884 0.77695888
-2.1769571 13.431733 0.79101586
-2.1287649 13.664808 0.8039692
-2.0109317 13.450525 0.7906093
-1.9660119 13.725478 0.80606037
-1.8430125 13.454408 0.78944755
-1.5665836 11.982608 0.70243359
-1.6605021 13.337317 0.78131539
-1.4116826 11.935497 0.69859987
-1.3370874 11.93203 0.6979028
-1.3144908 12.418523 0.72590065
-1.2256979 12.300193 0.71852362
-1.1231753 12.018233 0.7016204
-1.0928861 12.523161 0.73072183
-1.0140887 12.50575 0.72932774
-0.93457693 12.474902 0.72717851
-0.81345087 11.832031 0.68936408
-0.80535972 12.868035 0.74948388
-0.75000328 13.291359 0.7738803
-0.61356384 12.203938 0.71027529
-0.53827441 12.198497 0.7097525
-0.51314086 13.51141 0.7860204
-0.38596785 12.123362 0.70504749
-0.30547389 11.887981 0.69122285
-0.25750762 13.168224 0.76563197
-0.15302531 11.402705 0.66281843
-0.10218187 14.035908 0.81599319
-0.0020135376 1.5973159 0.092232287
0.0079573933 1.6312404 0.094207242
0.017999718 1.6341555 0.094381496
0.02802637 1.6340145 0.094381496
0.038051967 1.6338116 0.094381496
0.048017137 1.6315517 0.094265327
0.058062863 1.6322241 0.094323412
0.068327345 1.6378216 0.094671935
0.078279831 1.6353773 0.094555758
0.088312842 1.6348661 0.094555758
0.098282434 1.633297 0.094497673
0.10830231 1.6326632 0.094497673
0.11860737 1.6359507 0.09473002
0.1288784 1.6381779 0.094904281
0.13918124 1.6403403 0.095078543
0.14906231 1.6374671 0.094962366
0.15949373 1.640496 0.095194712
0.1690425 1.6345215 0.094904281
0.17841505 1.6274995 0.094555758
0.18793783 1.6224074 0.094323412
0.19728377 1.616269 0.094032981
0.20707014 1.6140379 0.093974888
0.21816891 1.6216415 0.094497673
0.22825432 1.6212608 0.094555758
0.23907009 1.6257557 0.094904281
0.24904104 1.6242582 0.094904281
0.25774279 1.6148131 0.094439588
0.26682866 1.608277 0.09414915
0.27601358 1.6026742 0.093916804
0.28566661 1.5999678 0.093858719
0.29602331 1.6011298 0.094032981
0.30602974 1.6002637 0.094091065
0.31681126 1.6032528 0.094381496
0.32823998 1.6091036 0.094846196
0.33831275 1.6080363 0.094904281
0.33039454 1.5239782 0.090024993
0.3349514 1.5004877 0.088747084
7.9714603 27.605532 1.6711463
8.1358862 27.539824 1.6701589
8.2925882 27.449247 1.6677191
10.220054 33.094311 2.0146132
6.034369 19.123632 1.166082
8.4586315 26.243914 1.6036495
6.2782655 19.077538 1.1678827
6.3255858 18.831408 1.1551617
9.3079815 27.156584 1.669636
9.0240316 25.810736 1.5902314
9.2197828 25.860197 1.5967371
9.3997688 25.862249 1.6003966
9.56036 25.809704 1.6007452
9.7196035 25.753359 1.6009194
9.8828135 25.707212 1.6017907
7.3634791 18.473959 1.1564397
7.490582 18.462658 1.1585889
8.2965584 19.749939 1.245719
6.5851965 15.410658 0.97439575
6.6879869 15.389189 0.97561556
8.7252674 19.744547 1.2553033
8.2546635 18.373867 1.1713098
8.3137512 18.205727 1.1638167
8.3975658 18.094606 1.1599829
8.532279 18.093304 1.1632358
0.74949855 1.5648544 0.10024826
0.74903834 1.5395801 0.098912269
0.73989177 1.497367 0.096472621
0.74951333 1.4936912 0.096530706
0.7609309 1.4935114 0.096821144
0.75907034 1.4675344 0.095427059
0.76249039 1.4522433 0.09473002
0.7713868 1.4475374 0.09473002
0.76932913 1.4225816 0.093394026
0.77612191 1.4143337 0.09316168
0.78284258 1.4060562 0.092929333
0.78556216 1.3907963 0.092232287
0.79159909 1.3816192 0.091941856
0.79604793 1.3698314 0.091477163
0.80393106 1.3640612 0.091419078
0.81074888 1.3565321 0.091244817
0.82060969 1.3540931 0.091419078
0.82576632 1.3439293 0.091070555
0.8371647 1.3439209 0.091419078
0.84379566 1.3362268 0.091244817
0.85036379 1.3285019 0.091070555
0.87643349 1.3508942 0.092987418
0.90939236 1.3830243 0.09560132
0.92118347 1.3824025 0.095949844
0.93020713 1.3775516 0.096007928
0.93976986 1.3734657 0.096124105
0.95045513 1.3709549 0.096356452
0.96286666 1.3708152 0.096763052
0.97473317 1.3697612 0.097111575
0.98195171 1.3621352 0.096995406
1.0179672 1.3939734 0.099725477
1.0288765 1.3909111 0.099957824
1.0433786 1.3925605 0.10053869
1.0531107 1.3877226 0.10065487
1.0634311 1.3836091 0.10082912
1.0804871 1.3880858 0.10164234
1.089602 1.382214 0.10170043
1.0924562 1.368481 0.10117765
1.1002048 1.3609759 0.10111956
1.1148595 1.3619237 0.10170043
1.1282924 1.3612056 0.10216513
1.144326 1.363432 0.10286216
1.1617222 1.3670341 0.10367538
1.1759492 1.3666902 0.10419816
1.1908714 1.3669755 0.10477903
1.1404563 1.2930157 0.099609308
1.1583441 1.2971619 0.10048061
1.1535594 1.2759614 0.099376962
1.134402 1.2394059 0.097053491
1.1297702 1.2192427 0.096007928
35.509045 37.843372 3.0187588
35.801773 37.689198 3.0239286
36.090481 37.529255 3.0288079
36.375095 37.363613 3.0333967
36.747326 37.285473 3.0453045
37.003616 37.087563 3.0476279
37.292915 36.921627 3.0527396
37.594418 36.766094 3.0588968
37.929874 36.641544 3.0678422
38.237049 36.487377 3.0745223
38.513241 36.302055 3.0787625
38.898926 36.217445 3.091774
39.168182 36.022007 3.0955496
39.468277 35.853497 3.1018229
39.770004 35.68465 3.1082706
40.006145 35.455849 3.1096647
44.719467 39.145767 3.457372
69.145012 58.314137 5.2622433
25.107107 20.395626 1.8814204
25.464617 20.427969 1.8987882
25.515923 20.213064 1.8933281
25.437384 19.898045 1.8783998
25.398611 19.61771 1.8666083
25.181133 19.20421 1.8419213
25.342358 19.082367 1.8451161
24.935799 18.537584 1.8071854
25.597155 18.78648 1.8467425
25.807339 18.698181 1.8535968
26.009279 18.602198 1.8598702
26.132717 18.449167 1.8605672
26.165157 18.23254 1.8548747
26.420486 18.170649 1.8650398
23.794897 16.150768 1.6725985
27.554691 18.456741 1.9289933
28.894184 19.098162 2.0145552
28.793411 18.778721 1.9994526
24.681087 15.88175 1.7069858
24.820213 15.756763 1.7098901
27.508003 17.227146 1.8878099
25.096636 15.503461 1.7156988
25.358387 15.450989 1.7270838
31.738691 19.072424 2.153789
25.570992 15.153399 1.7287683
25.767784 15.057156 1.7357968
25.257635 14.551903 1.6953685
25.143322 14.281279 1.6817762
25.255737 14.140877 1.6834607
4.3718972 2.4129415 0.28984341
4.4164381 2.402288 0.29181835
4.4196563 2.3690133 0.29106322
4.4023294 2.3250675 0.28897211
4.460794 2.3210497 0.29187644
23.020075 11.797955 1.5043793
23.031431 11.625893 1.5004294
23.115742 11.491021 1.5013007
23.054005 11.284453 1.4927619
23.010393 11.088612 1.4855011
22.993212 10.906996 1.4800409
22.957485 10.717986 1.4734771
22.890373 10.516074 1.4649965
22.871683 10.338006 1.4597105
22.818834 10.145964 1.4523336
22.660223 9.9093637 1.4383346
22.642643 9.7366161 1.4333973
22.644949 9.5733986 1.4297959
22.674686 9.4223967 1.4279952
22.677544 9.2608223 1.4245681
22.672791 9.0969667 1.4207343
22.63809 8.9221716 1.4150999
22.626307 8.757515 1.4109757
22.596561 8.586956 1.4058061
22.57119 8.4191875 1.4009849
22.547426 8.2530832 1.3963379
22.539387 8.0936613 1.3927366
22.518002 7.9303393 1.3883801
22.473761 7.7600913 1.3826874
22.489748 7.6114874 1.3807707
22.46496 7.4497833 1.3764142
22.397259 7.2751012 1.3695018
1.9426219 0.61805451 0.11790663
1.9368457 0.60315591 0.11732577
1.9405102 0.59126031 0.11732577
1.9393177 0.57791734 0.11703533
1.9437857 0.56628621 0.11709342
1.948184 0.55462188 0.11715151
1.9428937 0.54025155 0.11662872
1.9432818 0.52753568 0.11645447
1.9464821 0.51560199 0.11645447
1.9438095 0.50215125 0.11610594
1.9497583 0.49094582 0.11628021
1.9430381 0.47659591 0.11569934
1.9352444 0.46211529 0.11506038
1.9380435 0.45023215 0.11506038
1.9397957 0.43811223 0.1150023
1.939522 0.42556006 0.11482804
1.945026 0.41427496 0.1150023
1.9426428 0.40132335 0.11471186
1.9440899 0.38920009 0.11465377
1.9474214 0.37745392 0.11471186
1.9506822 0.3656815 0.11476995
1.9568185 0.35441673 0.1150023
1.9569896 0.34205964 0.11488612
1.9620049 0.33054259 0.11506038
1.9718798 0.31977537 0.11552507
1.9816961 0.30889931 0.11598977
1.9855288 0.29702923 0.11610594
1.9892904 0.28512377 0.11622211
1.9880353 0.27250594 0.11604786
1.9896699 0.26030245 0.11604786
1.9951923 0.24858244 0.11628021
28.868666 3.4141693 1.6907215
28.877165 3.2356365 1.6900245
21.529148 2.2786882 1.2589628
1.9768504 0.19716775 0.11488612
2.0138063 0.18837786 0.11697724
2.0119407 0.1757575 0.11680298
2.0070112 0.16292512 0.11645447
2.0049865 0.15038358 0.11628021
2.0028834 0.13787301 0.11610594
2.00967 0.12595502 0.11645447
2.0034277 0.11322795 0.11604786
21.488497 1.0801932 1.2511791
21.481754 0.94775003 1.250424
4.4323163 0.1684733 0.25737292
4.4372578 0.14140096 0.25760525
4.472971 0.11506871 0.25963831
4.4626136 0.087406382 0.25899935
4.4331193 0.059621319 0.25725675
4.4453816 0.032506123 0.25795379
21.304838 -0.017046183 0.82914853
21.292341 -0.14768709 0.82868159
21.273048 -0.27809709 0.82798117
21.243967 -0.4081035 0.82693058
21.197113 -0.53733355 0.8252185
21.130495 -0.66540706 0.82276714
21.111034 -0.79448557 0.82218343
21.123732 -0.92479163 0.82288384
21.135626 -1.0552834 0.82358426
21.129749 -1.1850052 0.82362318
21.12607 -1.3148807 0.82377881
21.113617 -1.4442105 0.82362318
21.093395 -1.572917 0.82319516
21.074383 -1.7015904 0.82284492
21.055582 -1.8301765 0.82253367
21.031021 -1.9581327 0.8220278
21.009661 -2.0862515 0.82167763
20.985535 -2.2139721 0.8212496
20.962616 -2.3416972 0.82089937
20.947853 -2.4702773 0.82089937
20.923376 -2.5976567 0.82054919
20.906054 -2.725862 0.82051027
20.878044 -2.8526001 0.82008225
20.84729 -2.9788146 0.81957644
20.811819 -3.1041696 0.81891495
20.768681 -3.2281277 0.81798106
20.679434 -3.3443365 0.81525731
20.604324 -3.462055 0.81311721
20.586632 -3.589102 0.81327283
20.472773 -3.6988323 0.80965412
27.625792 -5.1661768 1.093938
27.610249 -5.3388128 1.0945995
27.572071 -5.5071473 1.0944049
27.533848 -5.675416 1.0942492
27.500458 -5.8446689 1.0943271
27.472864 -6.0152216 1.0946773
27.459808 -6.1891708 1.0956501
27.439812 -6.3618326 1.0963894
27.416782 -6.5340176 1.0970509
27.391705 -6.7059226 1.0976734
27.36264 -6.8770347 1.0981793
27.326702 -7.0465455 1.0984517
27.288748 -7.2156191 1.0986851
27.26132 -7.3876276 1.0993855
27.249176 -7.5641146 1.1007475
27.222435 -7.7369061 1.1015645
27.195559 -7.9099331 1.1024206
27.189611 -8.0894747 1.1041716
27.155716 -8.2610989 1.1048331
27.110241 -8.429348 1.1050665
27.0142 -8.5816193 1.1032766
17.880173 -5.8012609 0.73152077
17.023729 -5.639102 0.69786274
16.709555 -5.649055 0.68638402
16.15597 -5.5726175 0.66502184
15.730283 -5.5340376 0.64887381
15.587865 -5.5916567 0.64439899
15.523231 -5.6762171 0.64315385
15.495602 -5.7741499 0.64346516
15.465486 -5.8712482 0.64369863
15.423576 -5.9638696 0.64346516
15.403428 -6.0649838 0.64416558
15.434561 -6.186893 0.64704496
15.428691 -6.2946911 0.64840686
15.41008 -6.3976698 0.64926291
15.305179 -6.4645019 0.64650023
15.309294 -6.5772219 0.64836794
15.306191 -6.6874356 0.64996332
15.333361 -6.8116493 0.65288162
15.368686 -6.9405599 0.65618902
15.470207 -7.1010027 0.66237593
18.094196 -8.4401159 0.77700776
17.594193 -8.3387299 0.75770789
17.100634 -8.2336998 0.73860258
16.506708 -8.0728931 0.71506143
16.142736 -8.018014 0.70140368
15.731894 -7.9346805 0.68564469
15.260434 -7.8147345 0.66716194
15.036647 -7.8169708 0.65945756
14.876162 -7.8498659 0.65451586
14.740508 -7.8942971 0.65066367
14.674232 -7.9750519 0.64988548
14.614521 -8.0591516 0.64941853
14.570028 -8.1515999 0.649652
14.518868 -8.2403536 0.64961308
14.599666 -8.4050589 0.65552759
14.558174 -8.5005283 0.65599447
14.526377 -8.6019144 0.65692836
14.499023 -8.706315 0.65809572
14.426552 -8.7836847 0.65723968
14.431907 -8.9087782 0.65996343
14.417631 -9.0226049 0.66183114
14.378874 -9.1216049 0.6626094
14.353733 -9.2296562 0.66404909
17.123955 -11.159897 0.79545158
16.825861 -11.11332 0.78475106
16.661026 -11.151881 0.78023738
16.340881 -11.083396 0.76840842
16.083157 -11.053288 0.7594589
15.955168 -11.110083 0.75661838
15.57152 -10.985436 0.74159873
15.324967 -10.952954 0.73303831
15.152251 -10.970604 0.7279799
14.940417 -10.957593 0.7210148
14.819961 -11.009732 0.71844667
14.420761 -10.851137 0.70229858
14.279995 -10.88309 0.69867986
13.895013 -10.861819 0.68630618
13.777962 -10.907181 0.6838159
13.405149 -10.746521 0.66856277
13.276892 -10.778191 0.66544986
13.186578 -10.839784 0.66424364
13.129035 -10.928162 0.66471058
13.061732 -11.008513 0.66471058
12.966576 -11.065103 0.66330975
12.960441 -11.198023 0.66650045
12.880205 -11.267467 0.6659168
12.816812 -11.351587 0.66622812
12.838428 -11.512064 0.67101413
12.776428 -11.598682 0.67148107
12.793307 -11.757997 0.67615038
12.704792 -11.967545 0.67918545
3.4772539 -3.3166378 0.18664981
3.5006926 -3.3802452 0.18902338
3.4705951 -3.3925824 0.18851754
3.4440308 -3.4081914 0.18820626
3.4195232 -3.425724 0.18801169
13.610761 -13.971413 0.7590698
13.551106 -14.082023 0.76054841
13.489919 -14.191703 0.7619881
13.434734 -14.308445 0.76381695
13.419395 -14.469 0.7679804
13.392465 -14.618851 0.77156019
13.371572 -14.777063 0.77556807
13.329928 -14.913961 0.77844745
13.300333 -15.065886 0.78210509
18.171202 -20.839306 1.0761945
18.098421 -21.014765 1.079502
18.035173 -21.203054 1.0834709
17.969654 -21.390591 1.0874009
17.862949 -21.530439 1.0889184
17.815369 -21.743208 1.0941325
17.922359 -22.149622 1.1090355
17.90214 -22.404369 1.1162729
17.83923 -22.608711 1.1209811
17.788607 -22.831249 1.1265843
17.745064 -23.065891 1.1327711
17.754915 -23.37406 1.1425378
17.735867 -23.648834 1.1506313
17.679619 -23.877674 1.156468
17.616512 -24.100254 1.1619934
17.475321 -24.217619 1.1624603
17.363499 -24.376474 1.1649506
17.236591 -24.515253 1.166507
19.020603 -27.408394 1.2986488
26.350319 -38.471783 1.8153483
26.135027 -38.664204 1.8168268
16.635256 -25.273661 1.1777524
15.307623 -23.889986 1.104405
15.15274 -23.970793 1.1038214
13.69079 -22.882879 1.0379062
13.450091 -22.796915 1.0302407
12.520601 -22.142984 0.99008447
12.419041 -22.281361 0.9928472
12.291233 -22.373785 0.99358648
12.209383 -22.55159 0.99813908
12.116875 -22.712479 1.0019524
11.94381 -22.722715 0.99915075
11.883656 -22.94908 1.0058824
11.747159 -23.030466 1.0062715
11.646447 -23.183365 1.0098124
11.521258 -23.28932 1.0113299
11.414023 -23.433237 1.0145206
12.998317 -27.106827 1.1701647
12.809141 -27.13818 1.1681024
12.617125 -27.16189 1.1657678
12.413253 -27.157913 1.1623046
12.210316 -27.153372 1.1588805
12.006692 -27.144623 1.1553396
11.729094 -26.963055 1.1445223
11.537887 -26.974798 1.141993
11.369443 -27.038637 1.1417208
11.508674 -28.337999 1.190554
11.314582 -28.357965 1.1884528
11.137815 -28.420343 1.1881804
11.014186 -28.620573 1.1937058
10.939021 -28.95402 1.2047955
10.861913 -29.292294 1.2160797
10.783453 -29.637278 1.2276362
10.61853 -29.750881 1.2296207
10.417955 -29.764545 1.2275195
10.220533 -29.785378 1.2257686
9.9913931 -29.710197 1.2201264
9.7616873 -29.627636 1.2142509
9.5339861 -29.545284 1.2084532
9.3495092 -29.593699 1.208064
10.656405 -34.464787 1.4042922
10.530664 -34.813587 1.4158489
9.0719185 -30.669149 1.2449516
8.8694086 -30.67528 1.2429672
10.311074 -36.498737 1.4764333
8.587985 -31.128582 1.2569752
8.6197777 -32.008545 1.2903608
8.41712 -32.037636 1.2894269
8.2444382 -32.182575 1.2932013
8.2750673 -33.146778 1.3298944
8.3059721 -34.161083 1.368533
8.1850395 -34.586742 1.3835527
8.0634518 -35.030693 1.3993117
7.8529377 -35.099987 1.4001288
7.7545538 -35.686512 1.4216077
7.7781401 -36.884216 1.4674059
7.5528774 -36.937122 1.4676394
7.3424053 -37.065105 1.4709079
10.977401 -61.312847 2.425045
10.58789 -61.303226 2.4220488
9.8664036 -61.625874 2.429831
7.7128029 -59.89164 2.3509972
7.3416443 -59.909073 2.349869
6.9703317 -59.92223 2.3486626
6.5950871 -59.896328 2.3460166
6.2138128 -59.80447 2.3408804
5.8445072 -59.8186 2.3399856
5.4665194 -59.734921 2.335355
5.0969162 -59.732494 2.3339932
4.3913064 -55.480297 2.1667147
1.2522552 -17.165329 0.66973007
