# .PCD v0.7 - Point Cloud Data file format
VERSION 0.7
FIELDS x y z
SIZE 4 4 4
TYPE F F F
COUNT 1 1 1
WIDTH 1460
HEIGHT 1
VIEWPOINT 0 0 0 1 0 0 0
POINTS 1460
DATA ascii
-6.7522326 1.4855579 -0.85107338
-6.7381501 1.5258647 -0.85046142
-6.7624917 1.5750614 -0.85474503
-6.7536654 1.6167568 -0.8548674
-6.7195239 1.6522406 -0.85180771
-6.7313924 1.6990271 -0.85462266
-6.7352519 1.7440305 -0.85645849
-6.6812582 1.7738622 -0.85095096
-6.6472645 1.80857 -0.84801364
-6.6312623 1.8479904 -0.84740168
-6.636023 1.8932739 -0.8494823
-6.62047 1.9328433 -0.84899276
-6.6065836 1.9728615 -0.84874797
-6.6019478 2.0156803 -0.84972709
-6.5875607 2.0555599 -0.8494823
-6.5804977 2.0977504 -0.85021663
-6.5901513 2.1454628 -0.85315394
-6.577805 2.1861718 -0.85327637
-6.5520487 2.2223465 -0.85168529
-6.5298481 2.2595861 -0.85058379
-6.5074377 2.2966368 -0.8494823
-6.4876204 2.334506 -0.84874797
-6.4778328 2.3759785 -0.84935993
-6.4612722 2.4149857 -0.84911513
-6.4259281 2.4468155 -0.84642255
-6.4033909 2.4833269 -0.84544349
-6.3861871 2.5218415 -0.84519869
-6.3558593 2.5550554 -0.84324044
-6.3161793 2.584234 -0.84005833
-6.2965393 2.6214147 -0.83956879
-6.2949576 2.6661937 -0.84152699
-6.2766571 2.7039833 -0.84128225
-6.2581291 2.7416487 -0.84103745
-6.2430024 2.7808039 -0.84128225
-6.2213016 2.8170109 -0.84067029
-6.1984906 2.8526413 -0.83993596
-6.1763749 2.8885183 -0.839324
-6.1388144 2.9169898 -0.83663148
-6.0904117 2.9399316 -0.83247024
-6.0981007 2.989918 -0.83601952
-6.0236692 2.9994066 -0.828309
-5.9838953 3.025562 -0.82537168
-5.9457941 3.0522494 -0.8226791
-5.9313545 3.0909681 -0.82329106
-5.9043813 3.1231272 -0.82218957
-5.8370137 3.1334767 -0.81545812
-5.7950168 3.1568878 -0.81227601
-5.7703261 3.1895049 -0.81154168
-5.7419906 3.2199962 -0.81031781
-5.6996961 3.2424076 -0.8071357
-5.6539049 3.2624373 -0.803464
-5.6003752 3.2775159 -0.79869086
-5.5741849 3.3082712 -0.7978341
-5.5087128 3.3152862 -0.7913475
-5.5009747 3.3567798 -0.79318333
-5.4743662 3.3868144 -0.79232663
-5.4408703 3.41243 -0.79049081
-5.3972168 3.4313726 -0.78718626
-5.3543701 3.4504459 -0.78400415
-5.3114939 3.4691231 -0.78082204
-5.2528667 3.4769955 -0.77531457
-5.2133007 3.4969974 -0.77262199
-5.1753297 3.5177603 -0.77017421
-5.1528301 3.5488865 -0.77005184
-5.1179357 3.5713489 -0.76809359
-5.0813389 3.5923717 -0.7658906
-5.04145 3.6107678 -0.76319802
-5.0015273 3.6288104 -0.7605055
-4.9655724 3.6494386 -0.75842488
-4.9192038 3.6620574 -0.75475317
-4.8792076 3.6790257 -0.75206065
-4.8596969 3.7113044 -0.75255018
-4.8305531 3.7361953 -0.75157106
-4.7880049 3.7504635 -0.74851137
-4.7788973 3.7908747 -0.75071436
-4.7555475 3.8201258 -0.75071436
-4.6996822 3.822928 -0.745574
-4.6799669 3.8548479 -0.74618596
-4.6722312 3.8968413 -0.74875611
-4.6133537 3.8959785 -0.74312621
-4.5727668 3.9100213 -0.74043369
-4.5299315 3.9217649 -0.73737395
-4.5326505 3.9730384 -0.74177992
-4.5022483 3.9955051 -0.74080086
-4.4650974 4.0117784 -0.73872024
-4.459486 4.0564647 -0.74190235
-4.4235611 4.0736656 -0.74006653
-4.3934011 4.095994 -0.73920977
-4.3414817 4.0976672 -0.73468137
-4.3047762 4.1132584 -0.73272318
-4.2844501 4.1444249 -0.73357987
-4.2440491 4.1560526 -0.73100972
-4.2043719 4.1680403 -0.72856194
-4.1822209 4.1972747 -0.7291739
-4.1556921 4.2221498 -0.72905147
-4.0840473 4.2006021 -0.72097379
-4.0712571 4.2391839 -0.72329921
-4.0670266 4.2871265 -0.72721565
-4.0515022 4.3235884 -0.7291739
-4.0350089 4.3592925 -0.73100972
-4.0142121 4.3905611 -0.73211122
-3.9546037 4.3790154 -0.72611415
-3.9203935 4.395051 -0.72476786
-3.8867912 4.4115758 -0.723544
-3.8622551 4.4383368 -0.72403353
-3.8543558 4.4845324 -0.72770524
-3.8344736 4.5171781 -0.7291739
-3.8015838 4.5345364 -0.72819477
-3.7597647 4.5409579 -0.72550219
-3.7337158 4.5662475 -0.72586936
-3.6937814 4.5743995 -0.723544
-3.6637874 4.5946498 -0.72317684
-3.6367545 4.6186037 -0.72342157
-3.6034734 4.634563 -0.72244251
-3.5767815 4.6589479 -0.72280967
-3.5547218 4.6895075 -0.7241559
-3.5163662 4.6985168 -0.72219771
-3.4715471 4.698451 -0.71889323
-3.4309556 4.7036266 -0.71644545
-3.4089892 4.7342553 -0.7179141
-3.3902254 4.7696447 -0.72011709
-3.384835 4.8244815 -0.72525746
-3.364774 4.8590312 -0.72733808
-3.3225768 4.8615584 -0.7246455
-3.2865798 4.8728027 -0.72329921
-3.2571688 4.8937035 -0.72342157
-3.2161844 4.8970051 -0.72097379
-3.1974101 4.9341378 -0.723544
-3.1702821 4.9586811 -0.72427833
-3.130796 4.9637694 -0.72219771
-3.0835032 4.9559193 -0.71828127
-3.0468071 4.9645953 -0.71681261
-3.0363295 5.0163107 -0.72158575
-3.0080361 5.0391083 -0.72219771
-2.9861219 5.072866 -0.7244007
-2.9524484 5.0868006 -0.72378874
-2.9177303 5.0987906 -0.72293204
-2.8800511 5.10536 -0.72134101
-2.8578343 5.1394167 -0.72366637
-2.8305385 5.1646886 -0.72476786
-2.7865334 5.1592541 -0.72158575
-2.7697442 5.2042918 -0.72550219
-2.7359154 5.2176723 -0.72501266
-2.7043045 5.2352433 -0.72513503
-2.6748309 5.2570457 -0.72586936
-2.6571958 5.3026409 -0.72990823
-2.6167047 5.3028245 -0.72770524
-2.5823832 5.3152099 -0.72721565
-2.5514338 5.3345361 -0.72770524
-2.5097773 5.331234 -0.72513503
-2.4895332 5.3735495 -0.72880673
-2.4676292 5.4131074 -0.73211122
-2.4380236 5.4362969 -0.73321271
-2.394608 5.428452 -0.73015302
-2.3565152 5.432117 -0.72868431
-2.3266442 5.45469 -0.7297858
-2.3015733 5.4889998 -0.73247838
-2.2739 5.5177011 -0.73443663
-2.2452161 5.5444283 -0.73615009
-2.2049177 5.5424228 -0.73406947
-2.1766472 5.5706387 -0.73602766
-2.1605551 5.6311479 -0.74226952
-2.1242135 5.6396551 -0.74165756
-2.0909455 5.6563063 -0.74214715
-2.0595834 5.67836 -0.74337101
-2.0260334 5.6946306 -0.74386054
-1.9949765 5.7182002 -0.74532926
-1.9643486 5.7434807 -0.74704266
-1.9246552 5.7422509 -0.74532926
-1.8847413 5.7398081 -0.74349338
-1.854044 5.7654371 -0.74532926
-1.8204211 5.7823849 -0.74606359
-1.7846144 5.7924976 -0.74594116
-1.7521887 5.8137918 -0.74728745
-1.7147998 5.8187213 -0.74655312
-1.6779658 5.8253188 -0.74606359
-1.6395026 5.8259511 -0.74483967
-1.5984654 5.816761 -0.74239188
-1.5573459 5.8063283 -0.73982173
-1.5194288 5.8071332 -0.73872024
-1.484259 5.8182707 -0.73896503
-1.4458976 5.8166733 -0.73761874
-1.4024755 5.7936029 -0.73357987
-1.36599 5.7982349 -0.73309034
-1.3292789 5.8016706 -0.73247838
-1.2927928 5.8058424 -0.73198885
-1.2502235 5.7816534 -0.72794998
-1.2149283 5.7901869 -0.7280724
-1.1811577 5.8062859 -0.7291739
-1.1489618 5.8309517 -0.73137689
-1.1124187 5.833992 -0.73088735
-1.0751621 5.8328996 -0.72990823
-1.0393518 5.8393865 -0.72990823
-1.0036703 5.8466325 -0.7300306
-0.96696776 5.847785 -0.72941864
-0.9260807 5.8222423 -0.72550219
-0.88988912 5.824872 -0.72513503
-0.85456306 5.8331685 -0.72550219
-0.81599945 5.818645 -0.72305441
-0.77896398 5.8137054 -0.72183055
-0.74252278 5.8124685 -0.72109622
-0.70504892 5.8021359 -0.71926039
-0.66795719 5.7935357 -0.71766931
-0.63293403 5.8024588 -0.71828127
-0.59965396 5.8289404 -0.72109622
-0.56225413 5.8157163 -0.7190156
-0.52477092 5.7992878 -0.71656781
-0.4890106 5.8004203 -0.71632302
-0.45171085 5.7815428 -0.7136305
-0.41537318 5.7723269 -0.71216178
-0.38085866 5.7886319 -0.71387523
-0.34468368 5.7799616 -0.712529
-0.30809987 5.7611556 -0.70995879
-0.27199426 5.7470756 -0.7080006
-0.23489006 5.7040124 -0.70249307
-0.1953398 5.5754108 -0.68646014
-0.1614695 5.5884094 -0.6879288
-0.12769489 5.6121159 -0.69074374
-0.093421638 5.6227169 -0.69196761
-0.05902309 5.6331086 -0.69319153
-0.024474936 5.6373343 -0.69368106
0.010104616 5.631424 -0.69294673
0.044602796 5.6243086 -0.69209003
0.079252101 5.6338534 -0.6933139
0.11387955 5.6362376 -0.69368106
0.14843453 5.6344409 -0.69355869
0.18235868 5.6135845 -0.69111091
0.21610917 5.5945086 -0.68890792
0.25029907 5.5901027 -0.6885407
0.28206855 5.5389023 -0.68242127
0.31701151 5.5539117 -0.68450189
0.3510837 5.5518618 -0.68450189
0.38431761 5.5377221 -0.68303323
0.41791505 5.5303111 -0.68242127
0.45200235 5.5296211 -0.68266606
0.48540112 5.520812 -0.68193173
0.51554567 5.4782047 -0.67703617
0.55043787 5.4877763 -0.67862719
0.58672869 5.5089679 -0.68168694
0.61696142 5.4737048 -0.6777705
0.65112209 5.4747443 -0.67838246
0.68334591 5.4598131 -0.67703617
0.71515238 5.4427252 -0.67544508
0.74745184 5.4303689 -0.67446601
0.78033376 5.4227333 -0.67409885
0.81314999 5.4148989 -0.67373163
0.84758747 5.4176517 -0.67471075
0.88177037 5.4182267 -0.67544508
0.91731602 5.426414 -0.67715853
0.93979174 5.359098 -0.66944802
0.97975564 5.3922901 -0.67434359
1.0144747 5.3949552 -0.67544508
1.0473691 5.3876548 -0.67532271
1.0770853 5.3645844 -0.67324209
1.1057526 5.3374662 -0.67067194
1.1353718 5.3160224 -0.66883612
1.1681823 5.3099251 -0.66895849
1.1978912 5.2900739 -0.6673674
1.2269504 5.2681246 -0.66553158
1.2599453 5.2633929 -0.66589874
1.291743 5.2536354 -0.665654
1.3200676 5.2302136 -0.66369575
1.349149 5.2104859 -0.66222709
1.3818587 5.2049875 -0.66259426
1.4122063 5.1906648 -0.66185993
1.444029 5.1819019 -0.66185993
1.477976 5.1805792 -0.66283906
1.5133518 5.1837978 -0.66443008
1.5368941 5.1468363 -0.6608808
1.5632284 5.120223 -0.65867782
1.5969813 5.1181145 -0.65965694
1.6307671 5.1157842 -0.66063601
1.6596682 5.0981317 -0.65965694
1.6871618 5.0765505 -0.65818822
1.7154096 5.0576439 -0.65708673
1.7418664 5.0338922 -0.65537328
1.7697479 5.0146866 -0.65427178
1.7967873 4.9934607 -0.65292549
1.8267092 4.9804783 -0.65268075
1.8554968 4.9645276 -0.65206879
1.8880429 4.9586143 -0.65280312
1.9119728 4.9302807 -0.65060014
1.9410948 4.9156866 -0.65023297
1.9678884 4.8953962 -0.64913148
1.9945062 4.8749623 -0.64802998
2.0323923 4.8818731 -0.65060014
2.0592115 4.862 -0.64962101
2.0791879 4.8264861 -0.64656126
2.1003995 4.7945476 -0.64399111
2.1322017 4.7870092 -0.64472544
2.1680849 4.7883015 -0.64668369
2.1965947 4.7731051 -0.6464389
2.2241585 4.7559414 -0.64594936
2.2494648 4.7341371 -0.64484787
2.2758815 4.7148829 -0.64411348
2.299962 4.6910272 -0.64276725
2.3264904 4.6723843 -0.64215529
2.3497415 4.6473927 -0.64068663
2.381386 4.6390681 -0.64154333
2.4061365 4.6173282 -0.6405642
2.4353509 4.6042318 -0.640809
2.4461858 4.5568485 -0.6362806
2.4731505 4.54001 -0.63603586
2.4985602 4.5204062 -0.6354239
2.5184822 4.4911404 -0.63346565
2.5499182 4.4825034 -0.63444477
2.5694375 4.4530191 -0.63248652
2.5891924 4.4243217 -0.6306507
2.6188233 4.4126186 -0.63126266
2.6458497 4.3964667 -0.63126266
2.6696739 4.3750663 -0.63052833
2.6849799 4.340035 -0.62783575
2.7163057 4.3310456 -0.62893724
2.7332442 4.299222 -0.62673426
2.7429051 4.2565084 -0.62294018
2.7727704 4.2454147 -0.62379694
2.7982194 4.2274938 -0.62367451
2.8119426 4.192112 -0.62098199
2.8292425 4.1624675 -0.61914617
2.8524778 4.1417599 -0.61865658
2.883517 4.1323185 -0.6198805
2.9070995 4.1121163 -0.61951333
2.9178278 4.0740299 -0.61645359
2.9346106 4.0448036 -0.61474013
2.9570227 4.0235224 -0.6142506
2.9703937 3.9901772 -0.61192518
2.9954185 3.9726684 -0.61204755
3.0185335 3.9526365 -0.61180282
3.0390861 3.9293306 -0.61106849
3.0539579 3.8988898 -0.60923266
3.0704219 3.8707471 -0.60776395
3.0847907 3.8402288 -0.60592812
3.108922 3.8219984 -0.60605049
3.1278977 3.797488 -0.60519379
3.1447825 3.7706027 -0.60396993
3.1460865 3.7254558 -0.59980869
3.1798513 3.7189045 -0.60188931
3.2091069 3.7068267 -0.60311317
3.2272115 3.6818419 -0.60225648
3.2576475 3.6708782 -0.60372514
3.2622001 3.630888 -0.60042065
3.2677209 3.5924494 -0.59736091
3.2742381 3.5555406 -0.59454596
3.2743347 3.5121543 -0.59062952
3.2903728 3.4862235 -0.58965039
3.3192446 3.4738612 -0.59099668
3.3501582 3.4634159 -0.59271014
3.3755128 3.4470489 -0.59344447
3.3770347 3.4065378 -0.59001756
3.3901391 3.3780472 -0.58867127
3.3839228 3.3307276 -0.5840205
3.4320493 3.3368824 -0.58879369
3.4574707 3.3205729 -0.58965039
3.47562 3.2972467 -0.58928323
3.5001314 3.2799304 -0.59001756
3.512907 3.2516506 -0.58879369
3.5240023 3.2219987 -0.58732498
3.530447 3.1883423 -0.58512199
3.5514252 3.1679413 -0.58536679
3.5573916 3.1342812 -0.5831638
3.5615819 3.0993645 -0.58071601
3.5888119 3.0845687 -0.58206224
3.6152375 3.0689125 -0.58328617
3.6218305 3.0364707 -0.58132792
3.592231 2.9743164 -0.5736174
3.6572833 2.99054 -0.58108318
3.6917801 2.9811363 -0.58365333
3.7107785 2.9590464 -0.5837757
3.7397823 2.9448175 -0.58548915
3.7515125 2.9169419 -0.58451003
3.7472966 2.8769464 -0.58108318
3.7672515 2.8556976 -0.58145034
3.796622 2.8414481 -0.58328617
3.800415 2.808073 -0.58120555
2.650068 1.933166 -0.40300712
2.6280518 1.8925128 -0.39786679
2.6420412 1.8780767 -0.39823395
2.6283281 1.8441604 -0.39443988
2.6453061 1.8319536 -0.3952966
2.7064815 1.8498462 -0.40276235
2.7506948 1.855402 -0.40765789
2.8239949 1.8797299 -0.4168371
2.8570447 1.8765315 -0.42001921
2.8751683 1.8632833 -0.42099831
2.9166508 1.8648512 -0.42540431
3.9605947 2.4981229 -0.57594281
3.9800618 2.4763956 -0.57655478
3.9833391 2.4446604 -0.57484132
3.995717 2.4186316 -0.57447416
3.9857681 2.3793173 -0.57092488
4.0122666 2.3618643 -0.57263833
4.0352674 2.3421829 -0.5738622
4.0478396 2.3163929 -0.5736174
4.0758076 2.299314 -0.57557565
4.0898395 2.274262 -0.57557565
4.084569 2.2386312 -0.57288307
4.0991015 2.2139983 -0.5730055
4.1292562 2.1976635 -0.57533085
4.1242042 2.1626074 -0.5727607
4.1444502 2.1409049 -0.57373983
4.1601624 2.1167848 -0.57410699
4.1925936 2.1010001 -0.57679957
4.1760349 2.0607433 -0.5727607
4.1886005 2.0350807 -0.5727607
4.2054858 2.0114825 -0.57337266
4.2285247 1.9907126 -0.57484132
4.2235494 1.9568031 -0.5725159
4.2282515 1.9275579 -0.57153684
4.2535834 1.9076691 -0.57337266
4.2697487 1.8835362 -0.57398462
4.2657471 1.8505881 -0.571904
3.5402942 1.5101714 -0.47313604
3.4277596 1.4373821 -0.45685831
3.4667966 1.4288007 -0.46089712
3.465379 1.4034047 -0.45955086
3.4849913 1.386517 -0.46101952
3.5609169 1.3914726 -0.46995392
4.3106947 1.6539865 -0.56786513
4.3207626 1.6275053 -0.56786513
4.322289 1.5978662 -0.56676364
4.3376102 1.5733453 -0.56749797
3.5084167 1.2483234 -0.457715
3.3801303 1.1793729 -0.43996862
3.3854249 1.1579683 -0.43972382
3.3905842 1.1365433 -0.43947905
3.3974941 1.1157175 -0.43947905
3.4260075 1.1018373 -0.442294
3.4658377 1.0912249 -0.44657761
4.4276071 1.3641652 -0.56982338
4.414988 1.3306723 -0.5671308
4.424974 1.3041184 -0.5673756
4.458643 1.284359 -0.57068008
4.4836364 1.2618158 -0.57288307
4.4692831 1.2282331 -0.57006812
4.4834452 1.2025865 -0.57092488
4.4446516 1.162997 -0.56505018
4.4795933 1.1428168 -0.56859946
4.0550165 1.0080651 -0.51376921
3.9511576 0.95654953 -0.49981683
3.9434278 0.92910206 -0.49810341
3.9393802 0.90267199 -0.49687952
4.3536634 0.96949774 -0.54852766
4.3605003 0.9429757 -0.54865009
3.9087038 0.82022703 -0.49100482
3.8971293 0.79286557 -0.48892421
3.9048421 0.76951385 -0.4892914
4.4164515 0.84218454 -0.55293369
4.4800982 0.82586211 -0.56027704
4.5065784 0.80218256 -0.56296957
4.5026121 0.77300465 -0.56186807
4.5004163 0.74422944 -0.56101137
4.5156794 0.7183159 -0.56235766
4.5170588 0.69014513 -0.5619905
4.5153165 0.66155303 -0.56125611
4.5084791 0.63231945 -0.55990988
4.5230947 0.60609341 -0.56125611
4.5277128 0.57845455 -0.56137854
4.5183687 0.5491063 -0.55978745
4.5078497 0.51978087 -0.558074
4.5415397 0.49544644 -0.56186807
4.517838 0.46482959 -0.55856359
4.5087504 0.43595436 -0.55709493
4.5330863 0.4102478 -0.55978745
4.551342 0.38375893 -0.5617457
4.5447054 0.35512981 -0.56064421
4.5141315 0.32488799 -0.55660534
4.5249534 0.29776973 -0.55770683
4.5306578 0.27023569 -0.55819643
4.5441241 0.24306652 -0.55966508
4.5207453 0.21400781 -0.55660534
4.5150318 0.18597946 -0.55574864
4.5200553 0.15841107 -0.55623817
4.526895 0.13084528 -0.5569725
4.5216589 0.10293111 -0.55623817
4.5192285 0.075135469 -0.55587101
4.5196042 0.047404587 -0.55587101
4.5227871 0.019684723 -0.55623817
4.0805616 0.011296931 -0.58192152
4.0785747 -0.013734777 -0.58163834
4.072474 -0.038704656 -0.58078879
4.0830474 -0.063860767 -0.58234632
4.1063313 -0.089426287 -0.5857445
4.1116428 -0.11478542 -0.58659405
4.1069036 -0.13987765 -0.58602768
4.0921202 -0.16451989 -0.58404541
4.1117997 -0.19058493 -0.58701885
4.1085763 -0.21570736 -0.58673567
4.1170573 -0.2414912 -0.58815157
4.0917897 -0.2652154 -0.58475339
4.0861354 -0.29003739 -0.58418703
4.0783567 -0.31464803 -0.58333743
4.0941067 -0.34114334 -0.58588612
4.0682726 -0.36414343 -0.58248788
4.0905976 -0.39145276 -0.58602768
4.096982 -0.41744655 -0.58730203
4.0933595 -0.44247109 -0.58716047
4.0787649 -0.46623188 -0.58546132
4.0984325 -0.49397093 -0.58871794
4.090414 -0.51848745 -0.58801001
4.0900998 -0.54396713 -0.58843476
4.0847239 -0.56878054 -0.58815157
4.0723405 -0.59255171 -0.58687729
4.0715637 -0.61797315 -0.58730203
4.0755181 -0.64417934 -0.58843476
4.0890722 -0.67206126 -0.59098345
4.0838952 -0.69697231 -0.59084183
4.0834413 -0.72270697 -0.59140819
4.1022992 -0.7520293 -0.59480643
4.0985804 -0.77737069 -0.59494805
4.080133 -0.79984045 -0.59296572
4.0964947 -0.82917798 -0.59608078
4.0671034 -0.84924322 -0.59254098
4.0724616 -0.87647194 -0.59409845
4.1211309 -0.91343147 -0.60202765
4.1067624 -0.93672115 -0.60075331
4.0961185 -0.96077257 -0.60004532
4.0988073 -0.98797417 -0.60131967
4.1243801 -1.0209503 -0.60599226
4.1189976 -1.0464814 -0.60613382
4.0732222 -1.061506 -0.60032851
4.1039324 -1.0964383 -0.60585064
4.0999923 -1.1223826 -0.60627544
4.0568061 -1.1373692 -0.60089493
4.0649757 -1.1666068 -0.60316038
4.0672398 -1.1943146 -0.60457629
4.0636272 -1.2203866 -0.60514265
4.0371356 -1.2394896 -0.60231084
4.0190639 -1.2609794 -0.60075331
4.0395327 -1.2946759 -0.60500109
4.0428033 -1.3231311 -0.60670018
4.0336699 -1.3475988 -0.60655862
3.9934664 -1.3614675 -0.60174447
4.004673 -1.3927711 -0.60471791
3.9979181 -1.4179786 -0.60500109
3.9919353 -1.4434922 -0.60542583
3.9690695 -1.4628261 -0.603302
3.9535315 -1.4847171 -0.60231084
3.9378746 -1.5064726 -0.60131967
3.8898141 -1.5155188 -0.5953728
3.8362715 -1.5218431 -0.58857638
3.8369589 -1.5494292 -0.59013391
3.8658381 -1.5887417 -0.59608078
3.8258762 -1.5998338 -0.59140819
3.8023229 -1.6174684 -0.5892843
3.7877839 -1.6388038 -0.58857638
3.7767508 -1.6616158 -0.58843476
3.7520251 -1.6782932 -0.5861693
3.7335455 -1.6975973 -0.58489496
3.74283 -1.7296066 -0.58801001
3.732147 -1.7525396 -0.58801001
3.7168558 -1.7732761 -0.58730203
3.7059052 -1.7960489 -0.58730203
3.6885974 -1.8156947 -0.58631086
3.6871281 -1.8431607 -0.58786839
3.6598587 -1.8576874 -0.58531976
3.6422312 -1.8769355 -0.58432859
3.6350322 -1.9015422 -0.58503658
3.623296 -1.9238105 -0.58503658
3.6044514 -1.9422507 -0.58390385
3.5985465 -1.9676542 -0.58489496
3.587271 -1.9901775 -0.58503658
3.608639 -2.0310822 -0.59055865
3.5814929 -2.0448444 -0.58815157
3.5508876 -2.0563662 -0.58517814
3.5364957 -2.0771129 -0.58489496
3.5160291 -2.0942154 -0.58362061
3.5065026 -2.1177967 -0.58418703
3.4731793 -2.126868 -0.58078879
3.4600637 -2.148139 -0.58078879
3.4543588 -2.1740737 -0.58206314
3.4476309 -2.1994865 -0.58319587
3.4166117 -2.2093139 -0.58022243
3.4046476 -2.2313211 -0.58050561
3.4073863 -2.2631211 -0.58333743
3.4205394 -2.302222 -0.58801001
3.4014413 -2.3198209 -0.58716047
3.3700392 -2.3288324 -0.58418703
3.3378439 -2.3369787 -0.58107197
3.3484745 -2.3751659 -0.58546132
3.3209739 -2.3864264 -0.58319587
3.3078697 -2.4079235 -0.58347905
3.2778928 -2.4170151 -0.58078879
3.2447565 -2.4234605 -0.57753217
3.2329836 -2.4457126 -0.57809854
3.2234173 -2.4697175 -0.5790897
3.2152424 -2.4949102 -0.58036399
3.1819692 -2.5005264 -0.57710737
3.1533968 -2.5095265 -0.5747003
3.1394811 -2.5300701 -0.57498348
3.166853 -2.5843284 -0.58291268
3.1669633 -2.616951 -0.58588612
3.1303449 -2.6191854 -0.58206314
3.1142147 -2.6383436 -0.58206314
3.0994706 -2.6586909 -0.58234632
3.0636637 -2.6607852 -0.5786649
3.0562019 -2.6873763 -0.58036399
3.0352182 -2.7021294 -0.57951444
3.0274062 -2.7286539 -0.58121359
3.0149946 -2.7511814 -0.58206314
3.0009658 -2.7723157 -0.5826295
2.9802833 -2.7872968 -0.58192152
2.9552162 -2.7980454 -0.58036399
2.9394217 -2.8174953 -0.58064717
2.9163942 -2.8299642 -0.57951444
2.891912 -2.8408694 -0.57809854
2.8849566 -2.8690293 -0.58022243
2.8847415 -2.904233 -0.58376223
2.8668671 -2.9218786 -0.58376223
2.8468177 -2.9372821 -0.58333743
2.8102546 -2.9353909 -0.57951444
2.7921906 -2.952579 -0.57951444
2.7719939 -2.9674861 -0.5790897
2.7570906 -2.9880762 -0.57979763
2.7513759 -3.0188363 -0.58248788
2.7480369 -3.0525808 -0.5857445
2.7226758 -3.0619884 -0.58432859
2.6822758 -3.0540948 -0.57965606
2.6667295 -3.074234 -0.58036399
2.6523254 -3.0958004 -0.58135515
2.6345592 -3.1135275 -0.58163834
2.6376271 -3.1562171 -0.58659405
2.6056066 -3.157074 -0.58376223
2.5836837 -3.1699336 -0.58319587
2.5797055 -3.2050033 -0.58673567
2.5624557 -3.2238712 -0.58730203
2.540792 -3.2371976 -0.58687729
2.52634 -3.2597678 -0.58815157
2.509901 -3.2799244 -0.58900112
2.4783881 -3.2802579 -0.58631086
2.4564378 -3.2930231 -0.58588612
2.4256177 -3.2936873 -0.58333743
2.4001222 -3.3013034 -0.58206314
2.3948307 -3.3368759 -0.5857445
2.3771729 -3.355546 -0.58645248
2.3599432 -3.3749359 -0.58730203
2.3521261 -3.4080894 -0.59055865
2.3328426 -3.424912 -0.59098345
2.3184123 -3.4490192 -0.59268254
2.280786 -3.4384341 -0.58843476
2.261272 -3.4548488 -0.58885956
2.2437911 -3.474479 -0.58985072
2.2405195 -3.5165644 -0.59466481
2.2125771 -3.520189 -0.59296572
2.1841528 -3.5227625 -0.59112501
2.1526814 -3.5200536 -0.58843476
2.1366675 -3.5425196 -0.58999228
2.1265333 -3.5751295 -0.5932489
2.1130729 -3.6026254 -0.59565598
2.0894408 -3.6129525 -0.59523124
2.0598762 -3.6128066 -0.59310734
2.0604722 -3.6659334 -0.59976214
2.0326612 -3.668983 -0.59820467
2.0101106 -3.681386 -0.59820467
1.9804462 -3.6805754 -0.59608078
1.9517953 -3.681289 -0.59424007
1.9351307 -3.7046015 -0.59608078
1.9132694 -3.7181659 -0.59636396
1.8863902 -3.721889 -0.59508961
1.8666133 -3.739593 -0.59608078
1.8418852 -3.7474227 -0.59551442
1.8283463 -3.7782562 -0.59862942
1.8098134 -3.7992337 -0.60018694
1.7831047 -3.8030968 -0.59905422
1.7560019 -3.805877 -0.59777987
1.7330258 -3.8174813 -0.59792149
1.7039164 -3.8153896 -0.59593916
1.6661365 -3.7931468 -0.59084183
1.6404748 -3.7978461 -0.58999228
1.6318505 -3.8424623 -0.5953728
1.6135838 -3.8651912 -0.59735507
1.5920924 -3.8805139 -0.59820467
1.5671413 -3.8874557 -0.59777987
1.5432587 -3.8969982 -0.59777987
1.5247027 -3.9202323 -0.59990376
1.4999133 -3.9276645 -0.59962058
1.4709187 -3.9238174 -0.59763825
1.4557049 -3.956923 -0.60131967
1.4371141 -3.9816091 -0.60372674
1.4063768 -3.9726226 -0.60103649
1.3754795 -3.9624743 -0.59820467
1.3367842 -3.9286697 -0.591833
1.324244 -3.9715428 -0.59707189
1.2921627 -3.9560697 -0.59353209
1.2702781 -3.9714663 -0.59466481
1.2544677 -4.0065808 -0.59877104
1.2286997 -4.010417 -0.59820467
1.2052064 -4.0216737 -0.59877104
1.1757729 -4.0128436 -0.59636396
1.1407673 -3.9838204 -0.59098345
1.1136334 -3.9812121 -0.58956754
1.0923158 -3.9994292 -0.59126663
1.0685204 -4.0089259 -0.59169137
1.0471419 -4.0278611 -0.59353209
1.0180277 -4.0169387 -0.59098345
0.98932439 -4.006772 -0.58857638
0.96356297 -4.0079546 -0.58786839
0.94053191 -4.0205388 -0.58885956
0.91386718 -4.0175467 -0.58758521
0.89069527 -4.0298443 -0.58857638
0.8628341 -4.0207162 -0.58645248
0.83915675 -4.0307803 -0.58716047
0.81499642 -4.038764 -0.58758521
0.78981966 -4.0417461 -0.58730203
0.76426893 -4.0426254 -0.58673567
0.72965574 -3.9936807 -0.57894808
0.70565349 -4.0010071 -0.57937288
0.6844126 -4.0247798 -0.5822047
0.6605047 -4.0337877 -0.58291268
0.63805318 -4.0524325 -0.58503658
0.61169475 -4.0464835 -0.58362061
0.58728081 -4.0530996 -0.58404541
0.56525832 -4.0772176 -0.58701885
0.53840935 -4.0668707 -0.58503658
0.51418966 -4.0759902 -0.58588612
0.48680973 -4.059411 -0.58305424
0.46368432 -4.0780592 -0.58531976
0.44130185 -4.1054335 -0.58885956
0.41460443 -4.0932908 -0.58673567
0.39032543 -4.1046267 -0.58801001
0.36346409 -4.0882101 -0.58531976
0.33894476 -4.0972691 -0.58631086
0.31402516 -4.1022329 -0.58673567
0.29010215 -4.1218572 -0.5892843
0.26696754 -4.1571474 -0.59409845
0.23984395 -4.1310358 -0.59013391
0.21341114 -4.11167 -0.58716047
0.18863235 -4.1227903 -0.58857638
0.16348915 -4.1278272 -0.58914274
0.138258 -4.1317205 -0.58956754
0.11350174 -4.1542611 -0.59268254
0.087545 -4.1331062 -0.58956754
0.062514007 -4.1553416 -0.59268254
0.037078913 -4.1625757 -0.59367371
0.01153713 -4.162725 -0.59367371
-0.013919224 -4.1359897 -0.58985072
-0.039519016 -4.1595836 -0.5932489
-0.064351253 -4.1147213 -0.58687729
-0.0897687 -4.1221666 -0.58801001
-0.11692832 -4.188827 -0.59763825
-0.14299725 -4.1989136 -0.59919578
-0.16856053 -4.1930118 -0.59848785
-0.19268632 -4.1572881 -0.59353209
-0.21850182 -4.1619592 -0.59438163
-0.24472879 -4.1723986 -0.59608078
-0.27147532 -4.1886001 -0.59862942
-0.29849976 -4.2056174 -0.60131967
-0.32376739 -4.1967974 -0.60032851
-0.34918416 -4.1907859 -0.59976214
-0.37594894 -4.2003961 -0.60146129
-0.40256238 -4.2068791 -0.60273558
-0.42936966 -4.2141781 -0.60415155
-0.4546881 -4.2065434 -0.60344356
-0.4813886 -4.2115426 -0.60457629
-0.50473666 -4.18787 -0.60160285
-0.5342778 -4.2151394 -0.60599226
-0.55960995 -4.2078562 -0.60542583
-0.5914188 -4.2474847 -0.61165595
-0.6157611 -4.2320204 -0.6099568
-0.63800675 -4.2036934 -0.606417
-0.6682657 -4.2280564 -0.61052316
-0.69660193 -4.2385292 -0.61264706
-0.71976739 -4.2175856 -0.61023998
-0.74942464 -4.2345357 -0.61335504
-0.7732529 -4.2181726 -0.61165595
-0.79930496 -4.2143216 -0.61179751
-0.82743186 -4.2209954 -0.6134966
-0.85586703 -4.2284522 -0.61533731
-0.87997651 -4.2143998 -0.61406296
-0.90831655 -4.2205343 -0.61576211
-0.94083232 -4.2448435 -0.62015146
-0.97544038 -4.2766323 -0.62567359
-0.99036723 -4.2223763 -0.61859393
-1.018343 -4.2248816 -0.61986828
-1.0463867 -4.2272024 -0.62114263
-1.0730355 -4.2235808 -0.62156737
-1.0986812 -4.2159591 -0.62142581
-1.1286151 -4.2244411 -0.62369126
-1.1526859 -4.210753 -0.62270015
-1.176097 -4.1950216 -0.62142581
-1.2001776 -4.1820173 -0.62057626
-1.2400323 -4.2230172 -0.62779742
-1.269336 -4.2267065 -0.62949657
-1.2813075 -4.1734128 -0.62270015
-1.3062985 -4.1635833 -0.62241691
-1.336351 -4.1696305 -0.62454081
-1.3643726 -4.168879 -0.62567359
-1.396511 -4.1801476 -0.62864703
-1.4380982 -4.2183504 -0.63572663
-1.4646046 -4.2113171 -0.63600981
-1.4821479 -4.178926 -0.63247001
-1.5091074 -4.1734767 -0.63303638
-1.5511123 -4.2087259 -0.63983279
-1.5845609 -4.2195182 -0.64294785
-1.6128964 -4.2161884 -0.64393896
-1.6390954 -4.2071347 -0.64408058
-1.6688929 -4.2071209 -0.64563811
-1.6972694 -4.203227 -0.64662921
-1.7218996 -4.1899872 -0.64620447
-1.7403229 -4.1619892 -0.64351422
-1.771638 -4.164897 -0.64563811
-1.8120919 -4.1884751 -0.65101862
-1.8425399 -4.1881514 -0.65271771
-1.8706276 -4.182189 -0.65356725
-1.8937963 -4.165225 -0.65271771
-1.9218086 -4.1589184 -0.65356725
-1.9578068 -4.1694512 -0.65710706
-1.9961369 -4.1841655 -0.66135484
-2.020478 -4.1691656 -0.66093004
-2.0503922 -4.1655722 -0.66234601
-2.0874178 -4.1759362 -0.66602737
-2.1201684 -4.1771741 -0.66829288
-2.1462123 -4.1649666 -0.66843444
-2.1694343 -4.1473331 -0.66772652
-2.1911283 -4.1269484 -0.66659373
-2.220165 -4.1203985 -0.66772652
-2.250628 -4.1162529 -0.66928399
-2.2830441 -4.1153517 -0.67140788
-2.3053401 -4.0960894 -0.67055833
-2.3260136 -4.0741291 -0.66928399
-2.3549359 -4.0666342 -0.67041677
-2.3843548 -4.0597911 -0.67169106
-2.4097269 -4.0459347 -0.67183268
-2.4421816 -4.0437846 -0.67395657
-2.4715993 -4.0363221 -0.67523092
-2.5041494 -4.0336976 -0.67735475
-2.5246353 -4.0115533 -0.67622203
-2.5625093 -4.0168529 -0.67976183
-2.5844212 -3.996897 -0.6790539
-2.6050994 -3.975168 -0.67806274
-2.6360123 -3.9690049 -0.67976183
-2.669158 -3.9658968 -0.68202734
-2.7101712 -3.9739819 -0.68627512
-2.7311282 -3.9523911 -0.68542552
-2.7417049 -3.9160945 -0.68202734
-2.7576654 -3.887893 -0.68004501
-2.7999508 -3.8966262 -0.68457597
-2.8080807 -3.8577614 -0.68075299
-2.852844 -3.8691449 -0.68585032
-2.8836379 -3.8610859 -0.68754941
-2.9048862 -3.8401611 -0.68698305
-2.953676 -3.8552723 -0.69292992
-2.9803095 -3.840987 -0.69363791
-3.0050445 -3.8241849 -0.69392109
-3.0241385 -3.8002517 -0.69292992
-3.0610626 -3.7985835 -0.69604498
-3.0855639 -3.7812641 -0.69632816
-3.0979896 -3.7492857 -0.69392109
-3.1222067 -3.7317247 -0.69420427
-3.1469646 -3.7147632 -0.69462907
-3.1716318 -3.6976383 -0.69505382
-3.2215185 -3.7095027 -0.70100069
-3.2402976 -3.6852055 -0.70015115
-3.259558 -3.6615565 -0.69944316
-3.2852767 -3.6451645 -0.70015115
-3.3049126 -3.6220124 -0.69958478
-3.3284178 -3.6031199 -0.69986796
-3.3592525 -3.5920298 -0.70170867
-3.3832707 -3.5735071 -0.70213342
-3.4085581 -3.5562541 -0.7028414
-3.4509928 -3.5565889 -0.70708919
-3.4769123 -3.5395846 -0.70793873
-3.4943776 -3.5139718 -0.70708919
-3.5144689 -3.4910691 -0.706806
-3.557725 -3.4909348 -0.71119535
-3.5748134 -3.464905 -0.7103458
-3.5924318 -3.4394815 -0.70963782
-3.6192214 -3.4228163 -0.71077055
-3.6452184 -3.4052758 -0.71176171
-3.6711361 -3.3875451 -0.71275288
-3.7123356 -3.3836298 -0.71671748
-3.7433259 -3.3700616 -0.71869975
-3.7602355 -3.3437402 -0.71799177
-3.7791944 -3.319298 -0.71770859
-3.8122005 -3.307076 -0.72011566
-3.8406889 -3.2907085 -0.72167319
-3.8653414 -3.2709179 -0.72252274
-3.8830602 -3.2452343 -0.72209799
-3.8990824 -3.2181962 -0.72139001
-3.9609537 -3.2286158 -0.72917759
-3.9683526 -3.1943181 -0.72691208
-3.9778047 -3.1618996 -0.72507143
-4.0119247 -3.1490476 -0.72776169
-4.0468183 -3.136502 -0.7305935
-4.0675597 -3.1128156 -0.73087668
-4.0786853 -3.0818303 -0.72946078
-4.0951385 -3.0549698 -0.72903597
-4.1345282 -3.0450506 -0.73271739
-4.1555362 -3.0213711 -0.7331422
-4.1667595 -2.9906206 -0.73186785
-4.1801853 -2.9615633 -0.7310183
-4.1893554 -2.9296167 -0.72946078
-4.2007351 -2.8993571 -0.72832805
-4.2348075 -2.8846755 -0.73115987
-4.2696791 -2.8702366 -0.7341333
-4.2971082 -2.8505523 -0.73583245
-4.3211436 -2.82847 -0.73696518
-4.3217874 -2.7911594 -0.7341333
-4.3480148 -2.7704415 -0.73569083
-4.3892355 -2.7589912 -0.739797
-4.414494 -2.7372248 -0.7412129
-4.4371176 -2.7137029 -0.74220407
-4.4375806 -2.6767094 -0.73951381
-4.4564729 -2.650949 -0.73993862
-4.4718013 -2.6230538 -0.739797
-4.4903822 -2.5970531 -0.7402218
-4.5036535 -2.5679805 -0.739797
-4.521914 -2.5417538 -0.7402218
-4.5348277 -2.5125203 -0.739797
-4.5571089 -2.4884441 -0.74092972
-4.5740352 -2.4613738 -0.7412129
-4.5890517 -2.4332616 -0.7412129
-4.6144242 -2.4105597 -0.74291205
-4.6379299 -2.3867314 -0.74432796
-4.6569014 -2.360467 -0.74503595
-4.6898961 -2.3411353 -0.74800938
-4.7174978 -2.3188665 -0.75013328
-4.7236185 -2.285995 -0.74885893
-4.7348752 -2.2556906 -0.74843413
-4.7647586 -2.2341623 -0.75098282
-4.781074 -2.2061288 -0.75140756
-4.7773957 -2.1689737 -0.74871731
-4.8014603 -2.144465 -0.75041646
-4.8099966 -2.112972 -0.74970847
-4.8446798 -2.0928431 -0.75310671
-4.8765631 -2.0712063 -0.75608015
-4.8919206 -2.0423896 -0.75650489
-4.9016128 -2.0112073 -0.75608015
-4.9074349 -1.978502 -0.75508898
-4.8983145 -1.9399669 -0.75183237
-4.913816 -1.9113108 -0.75239873
-4.967989 -1.8973761 -0.75891197
-4.9943676 -1.8724192 -0.76117748
-4.9890404 -1.8355845 -0.75862879
-4.995554 -1.8032568 -0.75792086
-5.0205216 -1.777528 -0.76004469
-5.0434904 -1.7509112 -0.7618854
-5.0578876 -1.7212081 -0.76245177
-5.0570846 -1.6863818 -0.76075268
-5.0616913 -1.6534754 -0.75990313
-5.078341 -1.6244984 -0.7608943
-5.0891581 -1.5936036 -0.76103586
-5.0988402 -1.5623472 -0.76103586
-5.1102271 -1.5316005 -0.76131904
-5.1565766 -1.5110772 -0.76684117
-5.1952519 -1.4878608 -0.77123052
-5.2004704 -1.4548881 -0.77066416
-5.2102542 -1.4232122 -0.77080572
-5.2160192 -1.3904506 -0.77038097
-5.2378654 -1.3619086 -0.77236325
-5.270112 -1.3358276 -0.77590305
-5.2935858 -1.3072647 -0.77816856
-5.2947702 -1.2731385 -0.77717739
-5.3073015 -1.2417545 -0.77788538
-5.3302646 -1.2126817 -0.78015083
-5.3376055 -1.179953 -0.78015083
-5.3205485 -1.1419835 -0.77661103
-5.3255172 -1.1089119 -0.77632785
-5.332221 -1.0762142 -0.77632785
-5.336781 -1.0430961 -0.77604467
-5.3333545 -1.0084901 -0.77462876
-5.3297038 -0.97396564 -0.77321279
-5.3248563 -0.9393518 -0.77165526
-5.3295441 -0.90649539 -0.7715137
-5.3369594 -0.87409705 -0.77179688
-5.3520017 -0.84287483 -0.77321279
-5.3619666 -0.81076026 -0.77392077
-5.3756571 -0.77912354 -0.77519512
-5.4038687 -0.74939066 -0.7785933
-5.421123 -0.71790999 -0.78043401
-5.4205155 -0.68401283 -0.77972603
-5.4324732 -0.65168446 -0.78085881
-5.4383368 -0.61856318 -0.781142
-5.4449821 -0.58550036 -0.78156674
-5.4573359 -0.55297875 -0.78284109
-5.4537282 -0.51882565 -0.78184992
-5.4400468 -0.4838596 -0.77944285
-5.430088 -0.44940802 -0.7776022
-5.4366918 -0.41638404 -0.77816856
-5.4667935 -0.38496754 -0.7821331
-5.4651008 -0.35116228 -0.78156674
-5.4750586 -0.31808269 -0.78269947
-5.4808621 -0.2846882 -0.78326589
-5.47855 -0.25087133 -0.78269947
-5.4463553 -0.2159137 -0.77788538
-5.4535136 -0.18269099 -0.77873492
-5.4614592 -0.14941572 -0.77972603
-5.4860258 -0.11640877 -0.78312427
-5.4866371 -0.082744963 -0.78312427
-5.4801116 -0.049015261 -0.7821331
-5.4783297 -0.015383215 -0.78184992
-5.4832711 0.018247375 -0.7825579
-5.478106 0.05184548 -0.78184992
-5.477685 0.085457534 -0.78184992
-5.4711189 0.11893795 -0.78100038
-5.4594011 0.15220366 -0.77944285
-5.4830985 0.18653767 -0.78298271
-5.4769053 0.21997973 -0.78227472
-5.460619 0.25289604 -0.78015083
-5.4629192 0.28660399 -0.78071719
-5.4857635 0.32156378 -0.78425699
-5.4876385 0.35547325 -0.78482336
-5.4725175 0.38822889 -0.78298271
-5.4690452 0.42172435 -0.78284109
-5.4880581 0.4570789 -0.78595614
-5.4851503 0.49074438 -0.78595614
-5.4652834 0.52279085 -0.78354907
-5.4678817 0.55691653 -0.78439862
-5.4732194 0.59141243 -0.78567296
-5.4881744 0.62711751 -0.78836322
-5.4930692 0.66184527 -0.78963751
-5.488905 0.69553763 -0.78963751
-5.5012159 0.73141992 -0.79204458
-5.5152531 0.76775211 -0.79473484
-5.5172963 0.80257529 -0.795726
-5.4750752 0.83077461 -0.79034549
-5.4542303 0.86188304 -0.78807998
-5.4107423 0.88907778 -0.7825579
-5.4120159 0.9234255 -0.78354907
-5.4130716 0.95782226 -0.78454018
-5.4002762 0.98976976 -0.78354907
-5.3979921 1.0236239 -0.78411543
-5.3945241 1.0572969 -0.78454018
-5.3792028 1.088611 -0.78326589
-5.3743596 1.1220011 -0.78354907
-5.3809233 1.1578703 -0.78553134
-5.3717847 1.1904371 -0.78524816
-5.3634138 1.2231554 -0.78510654
-5.3586993 1.2567194 -0.78553134
-5.3653231 1.2930534 -0.78765523
-5.3640151 1.3276141 -0.7886464
-5.3692007 1.3639127 -0.79062867
-5.3760581 1.4008238 -0.79289412
-5.3845773 1.438381 -0.79544282
-5.3832889 1.473483 -0.79657555
-5.3741465 1.5064864 -0.79657555
-5.3819294 1.5443461 -0.79912418
-5.3704524 1.5767822 -0.798841
-5.3511949 1.6068591 -0.79742509
-5.3402886 1.6393728 -0.79728353
-5.3235168 1.670036 -0.79629236
-5.3442798 1.7126348 -0.80096489
-5.3393159 1.7472411 -0.80181444
-5.2984481 1.7699364 -0.79728353
-5.3137245 1.8113539 -0.80124807
-5.2968998 1.841974 -0.80039853
-5.2892303 1.8757637 -0.80096489
-5.2906547 1.9128933 -0.80294722
-5.2704582 1.9422404 -0.80167288
-5.2677093 1.9780216 -0.80308878
-5.2665687 2.0145493 -0.80478787
-5.2411942 2.0417972 -0.8028056
-5.2386899 2.0779319 -0.80436313
-5.2304311 2.1118894 -0.80507112
-5.2127962 2.1420622 -0.80436313
-5.1904211 2.1701894 -0.80294722
-5.1979599 2.2109056 -0.80620384
-5.1933823 2.2466874 -0.80761975
-5.1713433 2.2749245 -0.8063454
-5.1310802 2.2948945 -0.80223924
-5.1069889 2.3218296 -0.80068171
-5.096241 2.3547821 -0.80124807
-5.0843849 2.3872697 -0.80167288
-5.0857244 2.4260921 -0.80422151
-5.0778694 2.4607046 -0.8053543
-5.0715575 2.496186 -0.80677021
-5.0641155 2.53124 -0.80804455
-5.0246534 2.5501714 -0.80422151
-4.9948306 2.5737007 -0.80195606
-4.9745584 2.6020064 -0.80124807
-4.9532528 2.6296964 -0.80039853
-4.9474826 2.6656725 -0.80209768
-4.9379821 2.6997778 -0.8032304
-4.9360409 2.7381878 -0.80563748
-4.9260488 2.7723067 -0.80677021
-4.9175429 2.8073871 -0.80818611
-4.8591018 2.8137014 -0.80138969
-4.8332095 2.8384511 -0.79997379
-4.7918859 2.8538737 -0.79600918
-4.7556405 2.8719661 -0.79289412
-4.7404623 2.9026425 -0.79331893
-4.7124696 2.9254107 -0.79161984
-4.6307511 2.9142067 -0.78085881
-4.6336489 2.9558728 -0.78439862
-4.6229067 2.9890854 -0.78567296
-4.5854344 3.0049171 -0.78241628
-4.5347471 3.0116415 -0.77689421
-4.5178251 3.0405147 -0.77717739
-4.5023551 3.0704088 -0.77774376
-4.4923902 3.1041663 -0.77930129
-4.4838018 3.1390517 -0.781142
-4.4507289 3.1567705 -0.77873492
-4.4192157 3.1753571 -0.77661103
-4.3772373 3.1861038 -0.77264643
-4.3783231 3.228174 -0.77632785
-4.3679514 3.262085 -0.77802694
-4.3273244 3.2732999 -0.77434552
-4.3040152 3.2973828 -0.77377915
-4.2837014 3.3237295 -0.77377915
-4.2468796 3.3371091 -0.77080572
-4.2162528 3.3550928 -0.76896507
-4.2094626 3.3920789 -0.7715137
-4.2069798 3.4328618 -0.77491194
-4.2018638 3.4718504 -0.77788538
-4.1592212 3.4797835 -0.77392077
-4.1121073 3.4834862 -0.76910663
-4.0831409 3.502208 -0.76769072
-4.0488672 3.5161629 -0.76528364
-4.0212684 3.5357118 -0.76415092
-4.009851 3.5695329 -0.76613319
-3.9819896 3.5887685 -0.76500046
-3.9547751 3.608464 -0.7640093
-3.9194691 3.6205728 -0.76146066
-3.8986261 3.6459062 -0.76174384
-3.8919985 3.6847298 -0.76485884
-3.8442998 3.6845701 -0.75990313
-3.8095403 3.6963716 -0.75749606
-3.7903197 3.7231448 -0.75820404
-3.7330041 3.7121329 -0.751266
-3.6766655 3.7012615 -0.74446958
-3.6545792 3.724458 -0.74461114
-3.647506 3.7631588 -0.74786776
-3.6489956 3.8112071 -0.75296509
-3.6452701 3.8543801 -0.75707126
-3.619524 3.8745046 -0.75664651
-3.5849397 3.8850017 -0.754381
-3.5583665 3.9039989 -0.75381464
-3.5369947 3.9287019 -0.754381
-3.5115066 3.9488511 -0.75409782
-3.4839439 3.9666045 -0.75338989
-3.4446175 3.97071 -0.75013328
-3.441447 4.0165758 -0.7548058
-3.4084227 4.0277939 -0.75296509
-3.3874538 4.0531888 -0.75381464
-3.3467643 4.0548129 -0.75027484
-3.3337066 4.0898495 -0.75296509
-3.3029618 4.1032877 -0.75169075
-3.2771063 4.1227026 -0.75154918
-3.2493026 4.1396184 -0.75098282
-3.2111044 4.1430483 -0.74800938
-3.1759953 4.1500964 -0.74574387
-3.1677806 4.1924081 -0.74985009
-3.1461408 4.21732 -0.7508412
-3.0978932 4.2062588 -0.74546069
-3.0708616 4.2235866 -0.74517751
-3.0495067 4.2487826 -0.74631023
-3.0170832 4.2585297 -0.74475276
-2.9977052 4.286696 -0.74645185
-2.9944053 4.3384094 -0.75225711
-2.9437606 4.3215237 -0.74616867
-2.9171886 4.3395052 -0.74616867
-2.8998115 4.371345 -0.74857575
-2.8604631 4.3700075 -0.74531913
-2.8330581 4.3866448 -0.74517751
-2.8044927 4.4014416 -0.74475276
-2.7948217 4.4462218 -0.74942529
-2.7669656 4.4624457 -0.74928367
-2.7354 4.4725842 -0.74815094
-2.6992111 4.474875 -0.74574387
-2.6590481 4.4700847 -0.74220407
-2.6355779 4.4931464 -0.7433368
-2.6158903 4.5229435 -0.74560231
-2.5890698 4.5406289 -0.74588549
-2.5592196 4.552978 -0.74531913
-2.5384326 4.581583 -0.74744302
-2.5064766 4.5901222 -0.74631023
-2.4768574 4.6027999 -0.74588549
-2.4457853 4.6126642 -0.74503595
-2.4192705 4.631094 -0.74560231
-2.409385 4.6819377 -0.75140756
-2.3761353 4.6878037 -0.74999166
-2.3490956 4.7058377 -0.75055802
-2.3227978 4.725493 -0.75140756
-2.2872889 4.7262912 -0.74928367
-2.2608011 4.7455988 -0.75013328
-2.2215512 4.7378716 -0.74673504
-2.1982465 4.7639971 -0.74871731
-2.1697924 4.7791982 -0.74900049
-2.136389 4.7833838 -0.74758458
-2.112972 4.8099966 -0.74970847
-2.0869529 4.831049 -0.75098282
-2.0510771 4.829186 -0.74871731
-2.0217888 4.8425937 -0.74885893
-1.9976754 4.8686447 -0.75098282
-1.9666537 4.8780565 -0.75055802
-1.9323099 4.8789878 -0.74885893
-1.9059263 4.8999777 -0.75027484
-1.8726451 4.9032578 -0.74900049
-1.8348763 4.8942642 -0.74588549
-1.8072046 4.9119334 -0.74687666
-1.7810663 4.934103 -0.74857575
-1.7514186 4.9468045 -0.74885893
-1.7281774 4.9780312 -0.75197393
-1.7055759 5.0119691 -0.75551379
-1.6751041 5.0232787 -0.75565535
-1.6411754 5.0240531 -0.75423944
-1.6106192 5.0349712 -0.754381
-1.5717047 5.0192533 -0.75055802
-1.5330442 5.0032487 -0.74673504
-1.502316 5.0125608 -0.74673504
-1.4726453 5.0254841 -0.7473014
-1.4417816 5.0344257 -0.7473014
-1.4129983 5.0508037 -0.74843413
-1.3749348 5.033596 -0.74461114
-1.3394315 5.0247207 -0.74206251
-1.3065815 5.0251803 -0.74092972
-1.2728029 5.0215883 -0.73923063
-1.2431543 5.0341086 -0.73993862
-1.2166415 5.0599289 -0.74262887
-1.1792537 5.0403104 -0.73866427
-1.146547 5.0397291 -0.73753154
-1.1175263 5.0553684 -0.73880589
-1.088149 5.0698733 -0.73993862
-1.0590395 5.0861459 -0.74135453
-1.0231084 5.0692601 -0.73795629
-0.99008471 5.0657272 -0.73654038
-0.9602716 5.0785155 -0.73753154
-0.92695558 5.0726266 -0.73583245
-0.89392006 5.0674953 -0.73427492
-0.86148083 5.0650783 -0.7331422
-0.82990551 5.0673375 -0.73271739
-0.79232442 5.0312653 -0.72677052
-0.76351178 5.0497351 -0.72875279
-0.73393393 5.0641212 -0.7301687
-0.70230287 5.0646067 -0.72960234
-0.67186415 5.0737281 -0.73031032
-0.64009947 5.072844 -0.72960234
-0.6076628 5.0658646 -0.72804487
-0.57611984 5.0655637 -0.72747844
-0.54513323 5.0699873 -0.72762007
-0.51251549 5.0584636 -0.72549617
-0.48174927 5.0644698 -0.72592098
-0.44961143 5.0554981 -0.72422183
-0.41743827 5.0443501 -0.72223955
-0.38329911 5.0053616 -0.71629268
-0.35271886 5.009594 -0.71657586
-0.32127443 5.0007973 -0.71501833
-0.29075667 5.0056391 -0.71544313
-0.25941959 4.9954662 -0.71374404
-0.22794597 4.9791636 -0.71119535
-0.19526637 4.9270549 -0.70354939
-0.16429919 4.9063945 -0.70043433
-0.13440852 4.9152265 -0.70156705
-0.10460567 4.9327836 -0.70397413
-0.074201338 4.9244242 -0.70269984
-0.043921463 4.9178572 -0.70170867
-0.013756804 4.9219942 -0.70227504
0.016412443 4.912087 -0.70085913
0.046848264 4.9435701 -0.7053901
0.077073261 4.9362607 -0.70439893
0.10680372 4.9099627 -0.70071751
0.13602206 4.8765602 -0.69604498
0.16533771 4.8578253 -0.69349629
0.19518127 4.8577085 -0.69363791
0.22439007 4.843564 -0.6917972
0.25395015 4.8391309 -0.69137239
0.28375334 4.8394575 -0.69165564
0.31440049 4.8524432 -0.69377947
0.34542745 4.868197 -0.69632816
0.37164393 4.8186097 -0.68953174
0.39701888 4.7659264 -0.68231052
0.42960238 4.8008685 -0.68769103
0.46253538 4.8346033 -0.69292992
0.4912895 4.8228102 -0.69165564
0.51800412 4.7931314 -0.68783259
0.54616952 4.7790437 -0.68627512
0.57808554 4.797225 -0.68939012
0.60750991 4.7935877 -0.68939012
0.63756317 4.7946768 -0.69009811
0.66369772 4.7671423 -0.68669987
0.68809462 4.7296729 -0.68188572
0.71695399 4.7243829 -0.68174416
0.75056076 4.7492294 -0.68599188
0.78209329 4.7591872 -0.68811578
0.81094766 4.752347 -0.68783259
0.83940274 4.7433825 -0.68726623
0.8656382 4.7225628 -0.68500078
0.89607358 4.7249436 -0.6861335
0.92485809 4.7183852 -0.68599188
0.952811 4.7077699 -0.68528396
0.97945529 4.6911755 -0.68372643
1.0069726 4.6792703 -0.68287688
1.0384479 4.6855683 -0.6847176
1.0621186 4.656909 -0.68146098
1.0800549 4.6050062 -0.67480612
1.1078267 4.5963674 -0.67452294
1.1343446 4.5827565 -0.67353177
1.1697509 4.6044946 -0.67777956
1.1974827 4.5953145 -0.67749637
1.2236134 4.5802293 -0.67636365
1.2477756 4.5583124 -0.67423975
1.2647706 4.5114884 -0.66843444
1.2967958 4.518868 -0.67069995
1.3339766 4.5431213 -0.6755141
1.3652427 4.5462284 -0.67721319
1.3887562 4.5235701 -0.6750893
1.4031569 4.4724584 -0.66871762
1.429365 4.4599934 -0.66815126
1.4594742 4.4596066 -0.66942561
1.4858696 4.447751 -0.6690008
1.506108 4.4179354 -0.66588581
1.5286372 4.3955202 -0.66390347
1.5512788 4.373929 -0.66206282
1.5811158 4.3727069 -0.66333711
1.6195512 4.3945055 -0.66815126
1.6450933 4.3807783 -0.6675849
1.6645173 4.3511844 -0.66461146
1.6944175 4.3491912 -0.66588581
1.7221664 4.3414731 -0.66631055
1.7458086 4.3234806 -0.66517782
1.7681664 4.3026152 -0.66362029
1.7918612 4.2852912 -0.66262919
1.821995 4.2833257 -0.6640451
1.8537439 4.2847862 -0.66602737
1.8756164 4.2633629 -0.6644699
1.8912349 4.2282782 -0.66078848
1.9196012 4.2220011 -0.66163802
1.9467161 4.2128391 -0.66206282
1.9611719 4.17662 -0.65823978
1.9739788 4.1377025 -0.65399206
2.0027828 4.1326394 -0.65512478
2.0455844 4.1558018 -0.66078848
2.0630805 4.1272326 -0.65823978
2.088814 4.1153789 -0.6583814
2.1063194 4.0875244 -0.65597433
2.1258559 4.0639963 -0.65427524
2.1475034 4.044755 -0.65328407
2.1633615 4.0149431 -0.65059382
2.194603 4.0137539 -0.65257609
2.2129483 3.9889586 -0.65073544
2.2334991 3.9684031 -0.64960265
2.2641859 3.9658008 -0.65144336
2.2914526 3.9569738 -0.65229291
2.3051636 3.9249122 -0.64931947
2.3079326 3.87497 -0.6433726
2.3321772 3.8615832 -0.64351422
2.3615127 3.856488 -0.64507174
2.3903513 3.8503366 -0.64648765
2.4134045 3.8347592 -0.64634603
2.423049 3.798178 -0.64266467
2.4398596 3.7732627 -0.64096552
2.4569986 3.7491126 -0.63940805
2.4711955 3.7207711 -0.63714254
2.4939792 3.705538 -0.63714254
2.5138807 3.6860757 -0.63643461
2.544328 3.6819844 -0.63841689
2.5685751 3.6687362 -0.63884163
2.5893199 3.6504843 -0.63841689
2.5937662 3.6096041 -0.63402754
2.6077108 3.5824153 -0.63204521
2.6343422 3.572722 -0.63317794
2.6520686 3.5509381 -0.63218683
2.6738067 3.5345984 -0.63218683
2.6864154 3.5063374 -0.63006294
2.6872497 3.4631937 -0.62524879
2.6998875 3.4357417 -0.62326652
2.7276974 3.4276323 -0.62482399
2.7635825 3.429332 -0.62822223
2.7845724 3.4123106 -0.62822223
2.7808697 3.3653955 -0.62270015
2.7817781 3.3247302 -0.61831075
2.8142817 3.3219516 -0.62100101
2.8365448 3.3068755 -0.62142581
2.8567822 3.2894084 -0.62142581
2.8723369 3.2666132 -0.62043464
2.884429 3.2400537 -0.61873555
2.9042552 3.2222941 -0.61873555
2.931978 3.2131894 -0.62043464
2.9335046 3.1755033 -0.61661166
2.9596946 3.164675 -0.61802757
2.973613 3.1407034 -0.61689484
2.9722812 3.100956 -0.61264706
2.9974558 3.0890548 -0.6139214
3.0406299 3.095325 -0.61887711
3.0428147 3.059761 -0.61547893
3.0285273 3.0082397 -0.60882407
3.0490479 2.9916806 -0.60924888
3.0986195 3.0032346 -0.61547893
3.1076944 2.9752641 -0.61363822
3.0978453 2.9296086 -0.60811609
3.1106997 2.9058144 -0.60712498
3.1510212 2.9074864 -0.61151433
3.1578286 2.8780935 -0.60939044
3.1820495 2.864625 -0.61066478
3.187732 2.8345201 -0.60839927
3.1953962 2.8064134 -0.60655862
3.2327435 2.804271 -0.6103816
3.2408695 2.7766523 -0.60868245
3.2366891 2.738807 -0.60471791
3.2526739 2.7182603 -0.60457629
3.2807422 2.7077048 -0.60670018
3.301898 2.6912768 -0.60754973
3.290591 2.6486166 -0.6024524
3.2959328 2.619751 -0.60047013
3.3282962 2.6123157 -0.60344356
3.3340917 2.5839596 -0.60160285
3.3443816 2.5592413 -0.60061175
3.3631806 2.5410602 -0.60117811
3.3945768 2.5322165 -0.60400993
2.647316 1.9494468 -0.46850604
2.5983825 1.8889164 -0.45774502
2.6010783 1.8665869 -0.45618752
2.6100593 1.8488748 -0.45576274
2.6262217 1.8362293 -0.45661229
2.6415124 1.8228927 -0.45732024
2.7475445 1.8713096 -0.47374496
2.8230505 1.8975011 -0.48478916
2.8371148 1.8817855 -0.48521394
2.8552334 1.8686799 -0.48634669
2.8574989 1.8452165 -0.48478916
3.4280765 2.1841221 -0.57965606
3.5562248 2.2352347 -0.59905422
3.5395877 2.1945882 -0.59395689
3.5563648 2.174895 -0.59452325
3.5806615 2.1596808 -0.59636396
3.6134119 2.1493118 -0.59962058
3.6316547 2.1301057 -0.60047013
3.6429427 2.1067908 -0.60018694
3.6532214 2.0829272 -0.59976214
3.6478128 2.0502839 -0.5967887
3.6871657 2.0427382 -0.60117811
3.708318 2.0248213 -0.60259402
3.7067254 1.9945221 -0.60032851
3.7197683 1.9722043 -0.60047013
3.7072337 1.9365062 -0.59650552
3.7155254 1.9119102 -0.59593916
3.7386646 1.8948959 -0.59777987
3.7440214 1.8688244 -0.5967887
3.7678547 1.8519316 -0.59877104
3.7595448 1.8192883 -0.59565598
3.7858291 1.8034254 -0.59806305
3.8057854 1.7843658 -0.59947896
3.8130674 1.7593209 -0.5989126
3.8210866 1.7346632 -0.59848785
3.8461196 1.7176456 -0.60075331
3.8629305 1.6968017 -0.60174447
3.8405554 1.6589308 -0.59664714
3.7786851 1.6047536 -0.58546132
3.4367785 1.4346603 -0.53094828
3.4290326 1.4067796 -0.52839959
3.450453 1.3908967 -0.53038192
3.4846914 1.3799083 -0.53434652
3.9119294 1.521472 -0.59862942
3.9378366 1.5037997 -0.60117811
3.9414282 1.4775234 -0.60032851
3.9290528 1.4454472 -0.59707189
3.9248133 1.4166048 -0.59508961
3.8559821 1.3650644 -0.58333743
3.3415449 1.1598336 -0.50418735
3.3289194 1.1326089 -0.50121391
3.3470747 1.1159209 -0.502913
3.3482132 1.0935175 -0.50206345
3.9299819 1.2570025 -0.58843476
3.9754074 1.2447021 -0.59409845
4.0018988 1.2260885 -0.59693033
3.997968 1.1980985 -0.59523124
3.9852953 1.1676966 -0.5922578
4.008563 1.1478565 -0.59466481
4.0202971 1.1245728 -0.5953728
4.034761 1.1019713 -0.59650552
3.9955349 1.0649492 -0.5897091
