# .PCD v0.7 - Point Cloud Data file format
VERSION 0.7
FIELDS x y z
SIZE 4 4 4
TYPE F F F
COUNT 1 1 1
WIDTH 1452
HEIGHT 1
VIEWPOINT 0 0 0 1 0 0 0
POINTS 1452
DATA ascii
7.8384066 3.1095347 -0.89394844
7.8323221 3.0516315 -0.89109802
7.8211794 2.9921434 -0.88771981
7.8365989 2.943048 -0.88740307
7.8451796 2.8914688 -0.88634741
7.8580976 2.8415859 -0.88581955
7.8557048 2.7863338 -0.88360256
7.8425989 2.7276244 -0.88022435
7.8582463 2.6791308 -0.88011879
7.8613338 2.6264503 -0.87864077
7.8508396 2.5695019 -0.87568486
7.8522534 2.5167277 -0.87410128
7.8628044 2.4670112 -0.87357342
7.876843 2.4184275 -0.87346786
7.8591533 2.360323 -0.86987847
7.8649011 2.3095334 -0.86892837
7.8760567 2.2604086 -0.86861163
7.8725438 2.207206 -0.86671138
7.860043 2.1517682 -0.86386102
7.8510022 2.0975938 -0.86143291
7.8598762 2.0483782 -0.86101061
7.8877172 2.0040317 -0.86269975
7.8805599 1.9508151 -0.86058837
7.8865814 1.9010255 -0.85995495
7.8980975 1.8525985 -0.85995495
7.884109 1.7983501 -0.8572101
7.8678117 1.7439129 -0.85425413
7.8550329 1.6905807 -0.85172045
7.8457904 1.6382846 -0.84960908
7.8342528 1.5857708 -0.84728652
7.7843108 1.5259969 -0.84084678
7.7593331 1.4717162 -0.83715183
7.6977944 1.4111621 -0.8295508
7.6475573 1.3534998 -0.82321662
7.5792608 1.2934948 -0.81498218
7.5419178 1.2395427 -0.81012595
7.4295526 1.1742928 -0.7972464
7.3884444 1.1213682 -0.79207349
7.2711968 1.057961 -0.7787717
7.2223973 1.0056412 -0.77285981
7.1604166 0.95225525 -0.76557547
7.0487309 0.89341158 -0.75301266
6.9593034 0.83871359 -0.74287796
6.8921967 0.78774643 -0.73517132
6.8296728 0.73816937 -0.72799259
6.7836204 0.69110453 -0.72260851
6.7402186 0.64491719 -0.71754116
6.6974978 0.59937745 -0.71257937
6.663393 0.55513024 -0.70856774
6.6408958 0.51224309 -0.70582294
6.6091967 0.4690187 -0.70212799
6.6248503 0.42929378 -0.70350039
6.6323233 0.38892794 -0.70402825
6.6316051 0.34806877 -0.70371151
6.6395764 0.30764821 -0.70434493
6.5886779 0.26478133 -0.69874972
6.6090612 0.22499362 -0.7007556
6.6132998 0.18452044 -0.70107228
6.6063538 0.14376466 -0.70022774
6.6190434 0.1034137 -0.70149457
6.5797787 0.062416896 -0.69727176
1.7661183 0.0054491931 -0.18620804
5.5083566 -0.009878411 -0.6777705
1.7755851 -0.013912528 -0.21746536
1.7635578 -0.02463901 -0.21599668
1.758412 -0.03535907 -0.21538474
1.7432799 -0.045755114 -0.2135489
1.7499099 -0.056676693 -0.21440563
1.727711 -0.06656909 -0.21171308
1.7292529 -0.077257752 -0.21195784
1.7297376 -0.087917313 -0.21208024
1.7261931 -0.098359324 -0.21171308
1.7344714 -0.10951331 -0.21281457
5.5842566 -0.38754916 -0.68878549
5.5669284 -0.42068377 -0.68694967
5.6067772 -0.45831266 -0.6922124
5.6018825 -0.49253264 -0.69196761
5.5809684 -0.52522123 -0.68976462
5.5559154 -0.55727547 -0.68707204
5.5326533 -0.58925235 -0.68462425
5.5417547 -0.62463462 -0.68621534
5.5565434 -0.66085434 -0.6885407
5.5435205 -0.6938265 -0.6874392
5.5312867 -0.72679305 -0.68646014
5.5306559 -0.76126027 -0.68694967
1.7664009 -0.25401813 -0.21856685
1.7618647 -0.26440948 -0.21819969
1.7553062 -0.27444783 -0.21758774
1.7535893 -0.28521302 -0.21758774
1.7478917 -0.29530561 -0.21709819
1.7431144 -0.30551046 -0.21673103
1.7333951 -0.31478053 -0.2157519
1.7353324 -0.32614434 -0.21624146
1.739144 -0.33792263 -0.21697579
1.7438492 -0.34995532 -0.21783252
1.7445847 -0.36125296 -0.21819969
1.7617468 -0.3760975 -0.22064747
1.7613446 -0.38732687 -0.22089225
5.3733187 -1.2167454 -0.67789286
5.3116217 -1.237083 -0.6710391
5.2875228 -1.2657226 -0.66895849
5.2545991 -1.29198 -0.66577637
5.2436857 -1.3234686 -0.66540921
5.2335448 -1.3551208 -0.66516441
5.2193761 -1.3856794 -0.66443008
5.2107754 -1.4176787 -0.66443008
5.1991105 -1.4488254 -0.66406292
5.1968036 -1.4826056 -0.66491961
5.1733179 -1.5102919 -0.66308379
5.1373262 -1.5340539 -0.65965694
5.1059847 -1.5588806 -0.65684199
5.1181145 -1.5969813 -0.65965694
5.0637765 -1.614186 -0.65390462
5.0367899 -1.6396956 -0.65170163
5.038878 -1.6746396 -0.65329266
5.0322671 -1.7068013 -0.65378225
5.0029416 -1.7311549 -0.65133446
4.9669561 -1.7529007 -0.64802998
4.9533052 -1.782336 -0.64766282
4.961843 -1.8198732 -0.65023297
4.9468641 -1.8488941 -0.64974338
4.921514 -1.8739146 -0.64790756
4.9006701 -1.9004883 -0.64668369
4.8815322 -1.927606 -0.64570457
4.860404 -1.95382 -0.64448065
4.8299527 -1.976089 -0.64203292
4.8094907 -2.0022542 -0.64093137
4.7980285 -2.0321143 -0.6410538
4.7608595 -2.0509131 -0.63774925
4.7700028 -2.0896456 -0.64068663
4.7561846 -2.1184704 -0.6405642
4.7087407 -2.1320562 -0.63591343
4.69557 -2.1609085 -0.63591343
4.6975055 -2.1968272 -0.63799405
4.6722846 -2.2200713 -0.63640302
4.6156731 -2.2279873 -0.63052833
4.5894399 -2.250149 -0.62881488
4.5959802 -2.2884424 -0.63162982
4.5809665 -2.3161519 -0.63150746
4.5481272 -2.3346977 -0.62893724
4.5213943 -2.3561387 -0.62722385
4.5296617 -2.3959036 -0.63040596
4.5078802 -2.4198961 -0.62942684
4.476388 -2.438489 -0.62710142
4.4561296 -2.4630287 -0.62636709
4.435739 -2.4874117 -0.62563276
4.4178052 -2.5131099 -0.6252656
4.408319 -2.543642 -0.6261223
4.3763542 -2.5611179 -0.62379694
4.3707986 -2.5940013 -0.6252656
4.3505483 -2.6182122 -0.62465364
4.3344011 -2.6448574 -0.62465364
4.3130274 -2.6682696 -0.62391931
4.2789173 -2.683609 -0.62134916
4.2447829 -2.6986306 -0.618779
4.200614 -2.706883 -0.61474013
4.2221484 -2.7575734 -0.62037003
1.7985436 -1.1903039 -0.26446274
1.7870851 -1.1985527 -0.26385081
1.7796973 -1.2094954 -0.26385081
1.7697904 -1.2187039 -0.26348364
1.7679765 -1.233516 -0.26434034
1.7555122 -1.2409031 -0.26360601
1.7543199 -1.2562747 -0.26458514
1.7497917 -1.269347 -0.2650747
1.7443694 -1.2818229 -0.26544186
1.7603538 -1.3102826 -0.26911351
4.0186291 -3.030077 -0.61914617
3.9999614 -3.054678 -0.61914617
1.7524233 -1.355215 -0.27168369
1.7675138 -1.3843033 -0.27535537
1.7566539 -1.3932722 -0.2749882
1.7418822 -1.3990518 -0.27400908
1.7247961 -1.4028239 -0.27266282
1.7123258 -1.4102256 -0.27205086
1.7036406 -1.4207057 -0.27205086
1.6926166 -1.4292111 -0.27168369
1.6875867 -1.4427949 -0.27229565
1.6779518 -1.452473 -0.27217326
3.7691617 -3.3037567 -0.61657596
3.7094774 -3.2919052 -0.61008936
3.6796117 -3.3059807 -0.60849828
3.6592574 -3.3284962 -0.60849828
3.6475258 -3.3589547 -0.60996699
3.6224916 -3.3772111 -0.60923266
3.5995359 -3.397331 -0.60886544
3.5764699 -3.4172964 -0.60849828
3.5575743 -3.441247 -0.60886544
3.5470285 -3.4734275 -0.61070132
3.5108483 -3.4804523 -0.60813111
3.4726148 -3.485055 -0.60519379
3.437242 -3.4921496 -0.60274601
3.4185171 -3.5160208 -0.60323554
3.403753 -3.5440891 -0.60445946
3.3710144 -3.5533864 -0.60250121
3.3315041 -3.5551734 -0.5993191
3.30356 -3.5689929 -0.59821761
3.2775807 -3.5848007 -0.59748328
3.2528627 -3.6018975 -0.59699374
3.2313612 -3.6225297 -0.59711611
3.2130094 -3.6467569 -0.59785044
3.1938303 -3.6701467 -0.5984624
3.1563723 -3.6723621 -0.59564745
3.1202924 -3.6757705 -0.5930773
3.0900285 -3.68572 -0.59160864
3.0578613 -3.6931431 -0.58977276
3.0414252 -3.7195201 -0.59099668
3.016675 -3.7357953 -0.59062952
2.9936957 -3.7542348 -0.59062952
2.9693761 -3.7709737 -0.59038472
2.9480095 -3.7914732 -0.59075189
2.9222724 -3.8063414 -0.59026235
2.8880711 -3.8099632 -0.58805931
2.8592873 -3.8204606 -0.58695781
2.8257658 -3.8243625 -0.58487719
2.8139436 -3.8576663 -0.58732498
2.7763023 -3.8555295 -0.58438766
2.7422438 -3.8579304 -0.58218467
2.7213702 -3.8787463 -0.58279663
2.6963897 -3.8937392 -0.58255184
2.6707675 -3.9077525 -0.58218467
2.6417451 -3.916661 -0.58108318
2.6143639 -3.9278393 -0.58034885
2.5853109 -3.9363406 -0.5792473
2.5584109 -3.9479649 -0.57863539
2.5400188 -3.9727869 -0.57998168
2.5224769 -3.9992106 -0.58157271
2.4784927 -3.9834328 -0.57704431
2.4337595 -3.965575 -0.57227117
2.3960204 -3.9583576 -0.56908906
2.3752477 -3.9789503 -0.56994575
2.3528025 -3.996871 -0.57043529
2.3192668 -3.9957809 -0.5682323
2.2828758 -3.9892621 -0.56529498
2.2759089 -4.0343146 -0.56970096
2.2588286 -4.0620823 -0.57165921
2.2133524 -4.0384398 -0.56639647
2.172025 -4.0213804 -0.56211287
2.1524379 -4.0442696 -0.56345916
2.1261997 -4.0547633 -0.56309199
2.1026466 -4.0703788 -0.56345916
2.0821319 -4.0920496 -0.56468302
2.0583184 -4.1074104 -0.56505018
2.0080454 -4.0692301 -0.558074
1.9834729 -4.0823674 -0.55819643
1.9592431 -4.0962515 -0.55844116
1.9277318 -4.0947266 -0.55660534
1.903405 -4.1082792 -0.55685014
1.8810427 -4.1262021 -0.55770683
1.8544712 -4.1349497 -0.55733967
1.8238579 -4.1344457 -0.55574864
1.7996398 -4.1482906 -0.55611581
1.7655869 -4.1391706 -0.55342323
1.7386211 -4.146265 -0.55293369
1.7271378 -4.1908073 -0.5574621
1.7062333 -4.213285 -0.55905312
1.6631079 -4.1803312 -0.55330086
1.6092556 -4.1183515 -0.54375452
1.597464 -4.1633601 -0.54840529
1.5848304 -4.2074494 -0.55293369
1.5641456 -4.2310581 -0.55476952
1.5371397 -4.2377768 -0.55440235
1.503125 -4.2246871 -0.55146503
1.4761938 -4.231019 -0.55109787
1.4502048 -4.2399969 -0.55109787
1.4203771 -4.2375231 -0.54962915
1.3897054 -4.2320142 -0.54779333
1.3755604 -4.2773104 -0.55256653
1.3483953 -4.2828302 -0.55219936
1.3235519 -4.2957654 -0.55281126
1.2957369 -4.2990546 -0.55219936
1.2626015 -4.2840757 -0.54926199
1.2340938 -4.2841129 -0.54828292
1.2042891 -4.2791843 -0.54669183
1.182743 -4.3037195 -0.54889482
1.157599 -4.3156886 -0.54950678
1.1182861 -4.2737412 -0.54326493
1.0967025 -4.2987947 -0.54559034
1.0738956 -4.319891 -0.54742616
1.0501707 -4.3379745 -0.54889482
1.022851 -4.3414383 -0.54852766
0.99685794 -4.3505349 -0.54889482
0.96971345 -4.3546324 -0.54865009
0.94318539 -4.3614707 -0.54877245
0.91436851 -4.3574624 -0.54754859
0.88583416 -4.3542376 -0.54644704
0.87022674 -4.4160695 -0.55354565
0.83883917 -4.3989024 -0.55073071
0.81075299 -4.3981104 -0.54999632
0.78027391 -4.3834596 -0.54754859
0.75470585 -4.3959904 -0.54852766
0.73014641 -4.4152265 -0.55036354
0.70584691 -4.4372659 -0.55256653
0.67950612 -4.4474006 -0.55330086
0.65033489 -4.4387197 -0.55170977
0.62115806 -4.4288669 -0.54999632
0.59489369 -4.4394808 -0.55085307
0.56349355 -4.4105587 -0.5468142
0.53689897 -4.4178743 -0.5473038
0.51216751 -4.4417906 -0.54987395
0.48565665 -4.451756 -0.55073071
0.45508325 -4.4230595 -0.5468142
0.42726707 -4.4188533 -0.54595751
0.40121827 -4.4332533 -0.54742616
0.37425876 -4.4385986 -0.54779333
0.34802142 -4.4536743 -0.54938442
0.32004693 -4.4468169 -0.54828292
0.29158366 -4.4308705 -0.54607987
0.26385951 -4.4236598 -0.54497838
0.23591709 -4.4103298 -0.54314256
0.2088045 -4.4107027 -0.54302019
0.18259366 -4.4327254 -0.54559034
0.15612037 -4.4545918 -0.54816049
0.12869872 -4.4524899 -0.54779333
0.10022715 -4.4025917 -0.54155153
0.072948359 -4.3872466 -0.53959328
0.046317294 -4.4153991 -0.54302019
0.019339213 -4.4423971 -0.54632467
-0.0078790542 -4.4205976 -0.54363209
-0.034939874 -4.4125266 -0.54265302
-0.062097989 -4.4181838 -0.54338735
-0.088362403 -4.3760433 -0.53824699
-0.11479276 -4.3595448 -0.5362888
-0.14134666 -4.3528066 -0.53555447
-0.16782218 -4.3459067 -0.53482008
-0.19497384 -4.3557014 -0.53616637
-0.22139312 -4.3484764 -0.53543204
-0.24614623 -4.3133464 -0.5312708
-0.2713542 -4.291945 -0.52882302
-0.30270323 -4.3624759 -0.53775746
-0.33156043 -4.388247 -0.54118431
-0.35734734 -4.3722816 -0.53947091
-0.38277692 -4.354188 -0.53751266
-0.40632334 -4.3181615 -0.53335142
-0.43231598 -4.3106494 -0.53273952
-0.46128115 -4.3316011 -0.53567684
-0.48640496 -4.3158679 -0.53408575
-0.51240849 -4.3088608 -0.53359622
-0.53834426 -4.3016958 -0.53310668
-0.56356478 -4.2894554 -0.53200513
-0.59095681 -4.2937827 -0.53298426
-0.61672622 -4.2861466 -0.53249472
-0.63991779 -4.2616706 -0.52992457
-0.66958427 -4.2802162 -0.53273952
-0.69423991 -4.2662315 -0.5315156
-0.7195766 -4.2569981 -0.53090364
-0.7451691 -4.2495704 -0.53053647
-0.76768059 -4.2253885 -0.52808869
-0.7954272 -4.2303524 -0.52931261
-0.82326359 -4.2351346 -0.53053647
-0.84669393 -4.2173533 -0.52894545
-0.872958 -4.2140226 -0.52919018
-0.90335977 -4.2299395 -0.53188276
-0.92887062 -4.2223787 -0.53163797
-0.95914584 -4.2359591 -0.53408575
-0.98354292 -4.2232275 -0.53322905
-0.99418539 -4.15341 -0.52515137
-1.0203625 -4.1501226 -0.52551854
-1.0462939 -4.1457086 -0.52576333
-1.0746976 -4.1507397 -0.52723199
-1.1052401 -4.1632524 -0.52967978
-1.127898 -4.1458583 -0.52833349
-1.154381 -4.1426835 -0.52882302
-1.1822294 -4.1441121 -0.52992457
-1.1934478 -4.0881925 -0.52368271
-1.2284508 -4.1140766 -0.52796632
-1.2548305 -4.1102581 -0.52845585
-1.2758876 -4.0892177 -0.52674246
-1.2985427 -4.0737472 -0.52576333
-1.3247434 -4.0694776 -0.52625287
-1.34781 -4.0556216 -0.52551854
-1.3659741 -4.0275378 -0.52294838
-1.3906609 -4.0190806 -0.52294838
-1.4156257 -4.0114083 -0.52307075
-1.4405485 -4.0035801 -0.52319312
-1.4640616 -3.9918706 -0.52282596
-1.4878327 -3.9809527 -0.52258122
-1.515057 -3.9791689 -0.52356029
-1.5408797 -3.9734988 -0.52404988
-1.5586696 -3.9473536 -0.52184689
-1.5776776 -3.9248235 -0.52013344
-1.6099992 -3.9352775 -0.52282596
-1.6310633 -3.9179947 -0.52184689
-1.6573956 -3.9133961 -0.52258122
-1.6743079 -3.8867464 -0.52037817
-1.6993198 -3.879127 -0.5207454
-1.7206665 -3.8631876 -0.52001101
-1.7414722 -3.8462284 -0.51915431
-1.7575704 -3.8192422 -0.51695132
-1.8099848 -3.8704176 -0.52539617
-1.8319952 -3.8556533 -0.52490658
-1.8448316 -3.8219953 -0.52184689
-1.8568872 -3.7874346 -0.51866478
-1.8960186 -3.8079526 -0.52307075
-1.9238267 -3.8051043 -0.52429467
-1.9348994 -3.7693892 -0.52099013
-1.9575329 -3.7565658 -0.52086776
-1.9865791 -3.7558887 -0.52245879
-2.0147514 -3.7532475 -0.52380508
-2.003556 -3.6780639 -0.51499307
-2.0212851 -3.6570151 -0.51376921
-2.0655324 -3.6834977 -0.51927668
-2.0993831 -3.6905954 -0.52209163
-2.1120672 -3.6604519 -0.51964384
-2.1179438 -3.6191573 -0.51560503
-2.1416302 -3.6086543 -0.5159722
-2.1662915 -3.5996971 -0.51658416
-2.2012632 -3.6075168 -0.51964384
-2.22649 -3.5990062 -0.52037817
-2.2501135 -3.5877993 -0.5207454
-2.2752805 -3.5789504 -0.52147973
-2.2955847 -3.5624194 -0.52111256
-2.3163147 -3.5466051 -0.52086776
-2.3391283 -3.5339808 -0.52111256
-2.3784616 -3.5459361 -0.525029
-2.3666966 -3.482028 -0.51768565
-2.370002 -3.4412851 -0.51376921
-2.3978884 -3.436445 -0.51523787
-2.4384103 -3.4492202 -0.51939911
-2.4658854 -3.443069 -0.5207454
-2.4957085 -3.439923 -0.52258122
-2.5308754 -3.443738 -0.52551854
-2.5323994 -3.4018731 -0.52147973
-2.5299203 -3.3553658 -0.51670653
-2.5510635 -3.3405681 -0.51682889
-2.5727272 -3.3264222 -0.51707369
-2.591253 -3.3082299 -0.51670653
-2.6152043 -3.2969329 -0.51744086
-2.6341414 -3.2792768 -0.51719606
-2.6629815 -3.2738309 -0.51890951
-2.693747 -3.2704523 -0.52099013
-2.7105849 -3.2500515 -0.52037817
-2.7202296 -3.2212267 -0.51841998
-2.7367182 -3.2007034 -0.51780802
-2.7718973 -3.201859 -0.5207454
-2.7856033 -3.1780736 -0.51964384
-2.7852869 -3.1386528 -0.5159722
-2.8277099 -3.1473417 -0.5202558
-2.8549829 -3.138742 -0.52172446
-2.8788946 -3.1262753 -0.52258122
-2.9095287 -3.1208923 -0.52466184
-2.927942 -3.1022592 -0.52453941
-2.9380083 -3.0749073 -0.52294838
-2.9588904 -3.0589619 -0.52331555
-2.9623268 -3.0251493 -0.52062297
-2.9829295 -3.0090303 -0.52099013
-3.0090699 -2.9983764 -0.52233642
-3.0182154 -2.9708064 -0.5207454
-3.0292706 -2.9453127 -0.51952147
-3.0580239 -2.9369817 -0.5213573
-3.0659065 -2.9086001 -0.51964384
-3.0844197 -2.8904119 -0.51976627
-3.1210349 -2.8889596 -0.52294838
-3.1606777 -2.8898449 -0.52662003
-3.1717205 -2.8644106 -0.52551854
-3.1551657 -2.8145068 -0.51988864
-3.1738651 -2.796406 -0.52013344
-3.2014461 -2.7859998 -0.52184689
-3.234287 -2.7798882 -0.52441704
-3.23388 -2.7452188 -0.52160209
-3.2392547 -2.7157605 -0.51976627
-3.2505059 -2.6914032 -0.51890951
-3.2623487 -2.6676385 -0.51817518
-3.2802 -2.648818 -0.51841998
-3.3018231 -2.6329722 -0.51927668
-3.3132381 -2.6089795 -0.51854235
-3.346422 -2.6020024 -0.52123493
-3.3465793 -2.5693331 -0.51878715
-3.3401346 -2.5319643 -0.51536024
-3.3707054 -2.5227201 -0.51768565
-3.3861208 -2.5019903 -0.51768565
-3.3990035 -2.4794118 -0.51731849
-3.4149585 -2.4590893 -0.51744086
-3.4178481 -2.4294648 -0.51560503
-3.4391904 -2.4130073 -0.51658416
-3.4384284 -2.3811247 -0.51425874
-3.4734595 -2.3739815 -0.51731849
-3.4937205 -2.3565085 -0.51817518
-3.5105927 -2.3366766 -0.51854235
-3.5223753 -2.3134577 -0.51817518
-3.5440004 -2.2966585 -0.51927668
-3.5697327 -2.2823539 -0.52099013
-3.5861881 -2.2619956 -0.5213573
-3.6160114 -2.2499099 -0.52368271
-3.6060631 -2.2131455 -0.5202558
-3.6000459 -2.179158 -0.51744086
-3.6286893 -2.1661835 -0.51964384
-3.667572 -2.1589806 -0.52331555
-3.6764581 -2.1339452 -0.52270359
-3.6868982 -2.109868 -0.52233642
-3.6937237 -2.0837927 -0.52147973
-3.7194514 -2.0683236 -0.52331555
-3.7294612 -2.0440316 -0.52294838
-3.7445529 -2.0225244 -0.52331555
-3.7568924 -1.9995102 -0.52331555
-3.7567847 -1.9699687 -0.52160209
-3.8243549 -1.9755741 -0.52931261
-3.8328667 -1.950271 -0.52882302
-3.8722684 -1.9404989 -0.53261709
-3.8903325 -1.9197767 -0.53347385
-3.8966823 -1.8932678 -0.53273952
-3.9127026 -1.8714635 -0.53335142
-3.9537451 -1.8613693 -0.53739029
-3.976799 -1.8424977 -0.53898132
-3.9889324 -1.8184735 -0.53910375
-4.0181274 -1.8020855 -0.54155153
-4.0409141 -1.7826036 -0.54314256
-4.0827336 -1.7712036 -0.5473038
-4.1391706 -1.7655869 -0.55342323
-4.1453495 -1.7382374 -0.55281126
-4.176125 -1.7210879 -0.55550385
-4.2169647 -1.7077233 -0.55954272
-4.3011398 -1.7111628 -0.56933379
-4.3503847 -1.6999081 -0.57447416
-4.3301544 -1.6614517 -0.57043529
-4.3411961 -1.6352007 -0.57055771
-4.3809371 -1.6195438 -0.57447416
-4.4607687 -1.6180102 -0.58365333
-4.5033402 -1.6022514 -0.58793694
-4.5224576 -1.5778582 -0.58916086
-4.551775 -1.556823 -0.59173101
-4.5508904 -1.5253956 -0.59038472
-4.5563927 -1.4962047 -0.58989519
-4.5919428 -1.4767255 -0.59332204
-4.6245847 -1.455972 -0.59638178
-4.613513 -1.4214327 -0.59381163
-4.5993409 -1.3862255 -0.59087425
-4.6467929 -1.3694797 -0.59589225
-4.6655993 -1.343963 -0.59723848
-4.6966872 -1.3217618 -0.60017586
-4.7123652 -1.2950221 -0.60115498
-4.7259741 -1.2676257 -0.60188931
-4.7519064 -1.2433764 -0.60421467
-4.740212 -1.20929 -0.60176688
-4.7668066 -1.1849695 -0.60421467
-4.792316 -1.1601346 -0.60654008
-4.8273592 -1.1373065 -0.61008936
-4.8274751 -1.1061137 -0.60923266
-4.8370771 -1.077119 -0.60959983
-4.8484459 -1.0484676 -0.61021173
-4.8596444 -1.0197172 -0.61082369
-4.8735905 -0.99146229 -0.61180282
-4.8795819 -0.9615398 -0.61180282
-4.9029388 -0.93492651 -0.6140058
-4.9427447 -0.91112053 -0.61828941
-4.9267449 -0.87694997 -0.61559689
-4.934968 -0.84720713 -0.61596406
-4.9528031 -0.81901515 -0.61755508
-4.9675364 -0.79016858 -0.618779
-4.9870081 -0.76192111 -0.62061483
-5.0161395 -0.73490262 -0.62367451
-4.9773083 -0.6980474 -0.61828941
-4.9824815 -0.66762584 -0.61841184
-5.035708 -0.64332747 -0.62453127
-5.0405459 -0.61253649 -0.62465364
-5.0491395 -0.58216494 -0.6252656
-5.0605097 -0.55203366 -0.62624472
-5.0638018 -0.52097255 -0.62624472
-5.0935755 -0.49246943 -0.62954921
-5.1083627 -0.46227938 -0.63101786
-5.1051693 -0.43042633 -0.63028353
-5.0997982 -0.39847538 -0.62930441
-5.0922484 -0.3664642 -0.62808055
-5.12114 -0.33697 -0.63138503
-5.1458979 -0.3068988 -0.63419998
-5.1506577 -0.27547729 -0.63456714
-5.1522512 -0.24386825 -0.63456714
-5.1724916 -0.21302511 -0.63689256
-5.1627908 -0.1809015 -0.63554627
-5.1548748 -0.14896223 -0.63444477
-5.1705751 -0.1176677 -0.6362806
-5.1761613 -0.086021662 -0.63689256
-5.156743 -0.054052606 -0.63444477
-5.1629324 -0.022436002 -0.6351791
-5.195725 0.0093037784 -0.63921797
-5.2104568 0.041302685 -0.6410538
-5.2150674 0.073342681 -0.64166576
-5.2184882 0.10542072 -0.64215529
-5.2217116 0.1375435 -0.64264482
-5.2148175 0.16938713 -0.64191049
-5.2087212 0.20118968 -0.64129853
-5.2361417 0.23443472 -0.64484787
-5.2593851 0.2678217 -0.64790756
-5.2616062 0.30031401 -0.64839715
-5.2715502 0.33334514 -0.64986581
-5.2763362 0.36616579 -0.6507225
-5.2670627 0.39801008 -0.64986581
-5.2684779 0.4306443 -0.65035534
-5.2795777 0.46418053 -0.65206879
-5.2795944 0.49684578 -0.65243596
-5.2853341 0.53012329 -0.65353745
-5.3214579 0.56674963 -0.65843302
-5.3514118 0.60317177 -0.66259426
-5.3505673 0.63634789 -0.66296142
-5.3229265 0.66620713 -0.66002411
-5.2970901 0.69600993 -0.65733153
-5.2996025 0.72944683 -0.65818822
-5.3362861 0.76788998 -0.66332859
-5.3383441 0.80165029 -0.66418529
-5.3421493 0.83577174 -0.66528684
-5.3379006 0.86869425 -0.66540921
-5.3275766 0.90060335 -0.66479725
-5.3424792 0.93687671 -0.6673674
-5.3395596 0.97017235 -0.66773456
-5.3422847 1.0045681 -0.66883612
-5.3408914 1.0382761 -0.66944802
-5.3412313 1.0723954 -0.67030478
-5.3316355 1.1045443 -0.66993761
-5.3247576 1.1372378 -0.66993761
-5.2924776 1.164343 -0.6667555
-5.3481517 1.2110453 -0.67471075
-5.3464193 1.2451891 -0.67544508
-5.34447 1.2793573 -0.67617941
-5.3442292 1.3140223 -0.67715853
-5.3168201 1.3419307 -0.67471075
-5.3171329 1.3767682 -0.67581224
-5.3191371 1.4121696 -0.67715853
-5.3094144 1.4445199 -0.67703617
-5.2928028 1.4749389 -0.67605704
-5.285562 1.5079319 -0.67630184
-5.2762098 1.5403351 -0.67630184
-5.265708 1.5723964 -0.67617941
-5.2787418 1.6116328 -0.67911679
-5.2829652 1.6484272 -0.68095261
-5.2812614 1.6835251 -0.6820541
-5.2793255 1.7186641 -0.6831556
-5.2752738 1.7532164 -0.68401235
-5.2738156 1.7887402 -0.68523622
-5.2627406 1.821066 -0.68523622
-5.2364936 1.848038 -0.68327802
-5.2418647 1.886183 -0.68548101
-5.2488279 1.9251469 -0.6879288
-5.2490025 1.9618344 -0.68951982
-5.2377934 1.9943579 -0.68964225
-5.1995487 2.0164101 -0.68621534
-5.2544651 2.0748889 -0.69514972
-5.2480803 2.1096821 -0.69600648
-5.2708607 2.1565027 -0.70077962
-5.2813516 2.1987224 -0.70396173
-5.2558804 2.2260542 -0.7023707
-5.2238932 2.2504077 -0.69992292
-5.219986 2.2867999 -0.70126921
-5.2194552 2.3248439 -0.70310503
-5.2349277 2.3703368 -0.70714384
-5.2428241 2.4127872 -0.71020359
-5.2171326 2.4398651 -0.70873493
-5.2190957 2.4799249 -0.71106029
-5.2019935 2.511039 -0.71081555
-5.1873794 2.5433474 -0.71093792
-5.1743407 2.5764558 -0.71130508
-5.2036047 2.6309974 -0.71754694
-5.2094364 2.6742089 -0.72060663
-5.2034912 2.7116275 -0.72207534
-5.2034235 2.752322 -0.7244007
-5.1925588 2.7874839 -0.72525746
-5.1753573 2.8192925 -0.72525746
-5.1605668 2.8524354 -0.72562462
-5.1646085 2.8961833 -0.72868431
-5.1622682 2.9366522 -0.73088735
-5.1656423 2.9806736 -0.73394704
-5.1626744 3.0213373 -0.73615009
-5.1568403 3.0605562 -0.73798591
-5.1583724 3.104424 -0.74092323
-5.14431 3.1391187 -0.74165756
-5.1106038 3.161747 -0.73957694
-5.1011968 3.199374 -0.74104559
-5.1057582 3.246057 -0.74459487
-5.114943 3.2961416 -0.74887854
-5.0971146 3.3290927 -0.7492457
-5.0699711 3.3559225 -0.74826658
-5.0525808 3.3891799 -0.74875611
-5.037436 3.4240236 -0.74961287
-5.0302267 3.4644392 -0.75169349
-5.0227108 3.5048945 -0.75377411
-5.0148873 3.545388 -0.75585467
-4.9930387 3.576092 -0.75585467
-4.9934945 3.6229818 -0.75928158
-4.9799671 3.6600189 -0.76062787
-4.9669685 3.6976185 -0.76209652
-4.9616203 3.7411718 -0.7647891
-4.949614 3.7799792 -0.76650256
-4.9388881 3.8199942 -0.76846075
-4.9302006 3.8618555 -0.77078617
-4.9196296 3.9025202 -0.77286679
-4.8948183 3.9320111 -0.77274436
-4.8775287 3.967608 -0.77384585
-4.869945 4.0113444 -0.77653843
-4.8559103 4.0500503 -0.77825189
-4.8453751 4.0919366 -0.7805773
-4.8412962 4.1396508 -0.78400415
-4.8383145 4.1887679 -0.78767586
-4.8244629 4.2288442 -0.78963405
-4.8177238 4.2754955 -0.79281616
-4.7899227 4.3036494 -0.79257143
-4.7656283 4.3349624 -0.79293859
-4.7608409 4.3842926 -0.79661024
-4.7396574 4.4188366 -0.79758936
-4.7276111 4.462142 -0.80015951
-4.7123408 4.5027227 -0.80224013
-4.6981769 4.5446634 -0.80456555
-4.7042389 4.6067381 -0.81044018
-4.6730642 4.6327214 -0.80995065
-4.6193328 4.6359963 -0.80554461
-4.6061158 4.6798148 -0.8082372
-4.589767 4.7207985 -0.81044018
-4.5449028 4.7324076 -0.80762523
-4.5198784 4.7645259 -0.80835956
-4.544168 4.8493838 -0.81802833
-4.5291586 4.8931999 -0.82072085
-4.4957008 4.9172354 -0.82010895
-4.4661098 4.9454646 -0.82023132
-4.4436088 4.9816632 -0.82169998
-4.4267354 5.0244737 -0.82427013
-4.4192758 5.078495 -0.82867616
-4.4009695 5.1205697 -0.83112395
-4.3752475 5.1542873 -0.83222544
-4.3333378 5.1688666 -0.83026719
-4.2945781 5.1869488 -0.82892096
-4.2846584 5.2400947 -0.83320457
-4.2505546 5.2639699 -0.8328374
-4.2324066 5.3077998 -0.83565235
-4.2114244 5.3484855 -0.83797771
-4.1931472 5.3930306 -0.84091508
-4.1678338 5.4288921 -0.84250611
-4.1332455 5.4527812 -0.84226137
-4.1020885 5.4812183 -0.84275091
-4.0837126 5.5270395 -0.84593302
-4.0538163 5.5576057 -0.84678972
-4.0236983 5.5880132 -0.84764647
-3.9945099 5.6198773 -0.84874797
-3.9622319 5.647531 -0.8492375
-3.9455845 5.6978478 -0.85315394
-3.9368677 5.7604632 -0.85890627
-3.9125466 5.8009677 -0.86135405
-3.8834774 5.8347802 -0.86282271
-3.8372517 5.8427367 -0.8604973
-3.8078055 5.8761663 -0.86196595
-3.7877157 5.9245067 -0.86563766
-3.7544684 5.952673 -0.86637199
-3.7304556 5.9958229 -0.86930931
-3.7102067 6.0456686 -0.87322575
-3.6910276 6.0980382 -0.87750936
-3.66168 6.1342068 -0.87946761
-3.6224618 6.1539927 -0.87910044
-3.59111 6.187263 -0.88069153
-3.5550494 6.2126269 -0.88118106
-3.5188131 6.237781 -0.88167059
-3.4862599 6.2696638 -0.88313925
-3.4591715 6.3118258 -0.88607663
-3.4288669 6.3486509 -0.88827962
-3.3875163 6.36519 -0.88766766
-3.353466 6.3955245 -0.88901395
-3.3196261 6.4265618 -0.8904826
-3.281481 6.4494638 -0.89084977
-3.2525167 6.4907732 -0.89378715
-3.2200942 6.5257387 -0.89586776
-3.1717525 6.5284123 -0.89354235
-3.1324916 6.5495415 -0.89378715
-3.0935135 6.5713329 -0.89415431
-3.0548029 6.5937929 -0.89464384
-3.0241661 6.6340866 -0.89758116
-3.0130479 6.7186265 -0.9065156
-2.9765728 6.7478843 -0.90798426
-2.9005501 6.8003364 -0.91018724
-2.8587694 6.8180056 -0.91018724
-2.8130999 6.826242 -0.90896338
-2.7700446 6.8406148 -0.90859622
-2.7261848 6.8528714 -0.90798426
-2.6840851 6.8694701 -0.90798426
-2.648283 6.9024892 -0.91018724
-2.6156745 6.9446154 -0.91361415
-2.584713 6.9921856 -0.91777539
-2.5536041 7.0405693 -0.922059
-2.5150127 7.0691962 -0.92377245
-2.4719167 7.0854321 -0.92389482
-2.4194028 7.0741715 -0.92046791
-2.3791049 7.0982943 -0.92169183
-2.3460317 7.1448188 -0.92585307
-2.3100464 7.1836452 -0.92903519
-2.2650311 7.1948442 -0.92866802
-2.1880229 7.2601089 -0.93356359
-2.150167 7.2962461 -0.93650091
-2.1089282 7.3217006 -0.93809193
-2.0661139 7.3421459 -0.93907106
-2.0252318 7.3699975 -0.94102931
-1.9928257 7.4302154 -0.94714874
-1.9554864 7.473989 -0.95118755
-1.9090996 7.4839234 -0.95094281
-1.8629037 7.4945335 -0.95082039
-1.8217859 7.5260801 -0.9533906
-1.785812 7.5805888 -0.95889807
-1.7465781 7.6233287 -0.96293694
-1.7030044 7.6484337 -0.96477276
-1.6547841 7.6529188 -0.96403843
-1.6065729 7.6571002 -0.9633041
-1.5647025 7.6921005 -0.96648622
-1.5253404 7.7414808 -0.97150415
-1.480227 7.7633686 -0.97309524
-1.4194335 7.7010531 -0.9641608
-1.3387694 7.5220084 -0.94066215
-1.2476569 7.5457044 -0.94164121
-1.2173878 7.6541748 -0.9542473
-1.2021669 7.8694949 -0.98019379
-1.1626312 7.9366255 -0.98765951
-1.1169426 7.9652333 -0.99035209
-1.0704195 7.9896436 -0.99255508
-1.0230103 8.0088587 -0.99414611
-0.9766022 8.0376453 -0.99696106
-0.92794752 8.0494022 -0.99769539
-0.87735647 8.0440922 -0.99634916
-0.8284899 8.0542603 -0.99696106
-0.78019994 8.0710468 -0.99842978
-0.73236084 8.0944624 -1.0007552
-0.6835137 8.1086931 -1.001979
-0.63397861 8.1157026 -1.0023462
-0.53960341 7.4997473 -0.92573065
-0.49331519 7.4989552 -0.92524111
-0.4465847 7.4899526 -0.92377245
-0.40003628 7.4816504 -0.92242616
-0.35412219 7.483964 -0.92242616
-0.3365458 8.1751881 -1.0074866
-0.2860651 8.1681728 -1.0063851
-0.23619834 8.1787024 -1.0074866
-0.18657364 8.2048035 -1.0105462
-0.13648953 8.2216711 -1.0125045
-0.086329669 8.2501421 -1.0159314
-0.035787173 8.2693729 -1.0182568
0.014968015 8.2773771 -1.0192358
0.065827988 8.2860613 -1.0203373
0.11666907 8.2855015 -1.0203373
0.16744547 8.2816525 -1.0199702
0.2181005 8.2745171 -1.0192358
0.26890016 8.2740145 -1.0193583
0.3198936 8.2781591 -1.0200926
0.37050366 8.2720747 -1.019603
0.42155632 8.2755928 -1.0203373
0.47385469 8.2996044 -1.0236419
0.52558601 8.3094168 -1.0252329
0.57621801 8.3010845 -1.024621
0.62736613 8.3003616 -1.0249882
0.68022603 8.320096 -1.0279255
0.73439527 8.3513575 -1.0323315
0.78739208 8.365468 -1.0346569
0.83890504 8.3624554 -1.0349016
0.88725603 8.3295164 -1.0314748
0.93934906 8.3327913 -1.0325763
0.99163306 8.3367271 -1.0338001
1.0394384 8.303896 -1.0304956
1.0479467 7.9746037 -0.99035209
1.0676169 7.7556515 -0.96391606
1.1098113 7.7116251 -0.95926523
1.154749 7.6889668 -0.95730704
1.2071233 7.7150745 -0.96146828
1.2547582 7.7094822 -0.96171302
1.4109199 8.3455505 -1.042245
1.4641584 8.3484669 -1.0437137
1.516066 8.3432322 -1.0442033
1.5683312 8.3396244 -1.0449376
1.6160629 8.3123083 -1.0427346
1.6650816 8.2925053 -1.0415107
1.7135156 8.2704706 -1.040042
1.7646446 8.2617416 -1.0402868
1.8206369 8.274991 -1.0433465
1.8786117 8.2956076 -1.0473853
1.9328547 8.2984228 -1.0492212
1.980039 8.2709637 -1.047263
2.0295663 8.2538395 -1.046651
2.0891609 8.2768364 -1.0511794
2.138912 8.2600183 -1.0506898
2.1910825 8.2524939 -1.0514241
2.2440228 8.2475138 -1.0525256
2.2935205 8.2297649 -1.0520362
2.3434296 8.2136288 -1.0517913
2.3940616 8.2000475 -1.0519137
2.4414909 8.1756935 -1.0506898
2.4968274 8.1776447 -1.0528928
2.5363135 8.1280632 -1.0484868
2.5779986 8.0868177 -1.0451823
2.6260335 8.0661278 -1.0445704
2.6779814 8.0573978 -1.0455495
2.7359786 8.0661917 -1.048854
2.788991 8.0595684 -1.0502003
2.8340967 8.030138 -1.0486093
2.8860037 8.0200672 -1.0495883
2.9423375 8.0217752 -1.0521585
2.9873326 7.9924145 -1.0506898
3.0341976 7.9683695 -1.0499555
3.0790856 7.9394231 -1.0486093
3.1222746 7.9065347 -1.0467734
3.1625845 7.8669686 -1.0440809
3.2153065 7.858438 -1.0455495
3.274909 7.8660483 -1.0492212
3.3265965 7.8540306 -1.0503227
3.377867 7.8407636 -1.0513018
3.4275067 7.8235254 -1.0517913
3.4738307 7.7987213 -1.0513018
3.5113821 7.7546568 -1.0482421
3.5526733 7.7194424 -1.0464063
3.5903008 7.6768208 -1.0435913
3.6386154 7.6573358 -1.0439584
3.6872575 7.6384406 -1.044448
3.7283762 7.6040878 -1.0428569
3.7670002 7.5650759 -1.0406539
3.796329 7.5081639 -1.0360032
3.8364341 7.4732504 -1.0344121
3.8748779 7.4354882 -1.0324539
3.9106824 7.3931489 -1.0298837
3.9498692 7.3576469 -1.0282927
3.9887679 7.3219423 -1.0267016
4.0374608 7.3042789 -1.0276808
4.0880289 7.2897553 -1.0291494
4.1341534 7.2671223 -1.0295166
4.1662641 7.2201285 -1.0264568
4.2049727 7.1850071 -1.0251106
4.2413812 7.1462684 -1.0232747
4.2697964 7.0945992 -1.019603
4.3132477 7.0682664 -1.019603
4.3497477 7.0306959 -1.018012
4.3885865 6.9971476 -1.0170329
4.4346328 6.9751134 -1.0177672
4.4843369 6.9586167 -1.0193583
4.5296636 6.9351249 -1.0199702
4.5732269 6.9088559 -1.020215
4.5873346 6.8386307 -1.0139731
4.6046591 6.77424 -1.0085881
4.6450124 6.7442241 -1.0083432
4.6851707 6.7139683 -1.0080985
4.7131009 6.6664553 -1.0052835
4.7383122 6.6156254 -1.001979
4.7648268 6.5671482 -0.99904168
4.7985668 6.5289912 -0.99769539
4.8409081 6.5026093 -0.99818498
4.8603992 6.4458408 -0.99402374
4.8769674 6.3859243 -0.98937297
4.8954129 6.3291883 -0.98521173
4.943336 6.310751 -0.98704755
4.9881339 6.2880754 -0.98827147
5.0030022 6.2279491 -0.98362064
5.0129375 6.1624885 -0.97811317
5.0235214 6.0986738 -0.97285044
5.048769 6.0532546 -0.97052503
5.0749292 6.0092721 -0.96844441
5.1033206 5.9682136 -0.96685338
5.139195 5.936038 -0.96673101
5.1637449 5.8909588 -0.96452796
5.1714654 5.8272448 -0.95926523
5.1832433 5.768827 -0.95485926
5.2165389 5.7347121 -0.95449209
5.2502832 5.7011361 -0.9542473
5.2729836 5.6557474 -0.95204431
5.2925992 5.6074085 -0.94935173
5.3166208 5.5640645 -0.9475159
5.3548017 5.5356178 -0.94825023
5.3976946 5.5118752 -0.94984132
5.435606 5.4828801 -0.95057565
5.4698486 5.4501257 -0.95069802
1.3269067 1.3062576 -0.2281132
1.3220874 1.2856386 -0.2259102
1.2948743 1.2438176 -0.21991314
1.3089623 1.2419963 -0.22101463
1.2941071 1.2129046 -0.21722057
1.2898709 1.194155 -0.21526235
1.3147539 1.2022899 -0.21819969
1.3323716 1.1887078 -0.21868925
1.3664498 1.2041286 -0.22309525
1.3311354 1.1585869 -0.21611908
5.7024117 4.9010077 -0.92573065
5.7346468 4.8678527 -0.92609781
5.7788582 4.8446884 -0.92842323
5.7916574 4.7952147 -0.92573065
1.4298218 1.169351 -0.22627737
1.4130319 1.1412277 -0.22248331
1.4106957 1.1251111 -0.22101463
1.434728 1.1299413 -0.2237072
1.426747 1.1095426 -0.2213818
1.4374644 1.1037891 -0.22199374
1.4434191 1.0943487 -0.22187136
1.4429551 1.0801196 -0.22076985
1.4711083 1.0871688 -0.22407436
5.8374915 4.1491747 -0.88167059
6.0529623 4.2466555 -0.91030967
6.0650339 4.1998305 -0.90822905
6.0923285 4.1636572 -0.90847379
6.1111789 4.121757 -0.90749472
6.1388335 4.0858316 -0.90786189
6.1554918 4.0426397 -0.90663797
6.1710191 3.9988577 -0.90529168
6.1996202 3.9635906 -0.90590364
6.2204657 3.9233577 -0.9054141
6.2233543 3.8720093 -0.90235436
6.2317691 3.8244069 -0.90015137
6.2568159 3.7871253 -0.90039611
6.2807879 3.7491717 -0.90051854
6.3207803 3.7206314 -0.90296632
6.3391986 3.6792872 -0.90235436
6.343565 3.6299703 -0.89978421
6.3363276 3.5743999 -0.89562297
6.3425269 3.5267725 -0.89341998
6.3666582 3.4892201 -0.89378715
6.3975544 3.455277 -0.89513338
6.4089975 3.4108286 -0.89378715
6.4007983 3.356231 -0.88974828
6.4027534 3.3073287 -0.88717812
6.4149652 3.2639296 -0.88607663
6.4118009 3.2129471 -0.88289452
6.4109235 3.1634443 -0.88007957
6.433784 3.1257825 -0.8805691
6.4456797 3.0828211 -0.87958997
6.4267592 3.0254602 -0.87444967
6.4271913 2.9776258 -0.87200189
6.4417281 2.936487 -0.87151229
6.4523802 2.8936572 -0.87053323
6.4518523 2.8460011 -0.86808544
6.4464307 2.7964861 -0.8650257
6.4516001 2.7518175 -0.86343467
6.4610415 2.7091093 -0.86245555
6.4656134 2.6644986 -0.86086446
6.48736 2.6270111 -0.86159879
6.4904461 2.5820203 -0.85988539
6.4886026 2.5352848 -0.85755998
6.4947705 2.4918687 -0.85633606
6.4950776 2.4463739 -0.85437787
6.4941397 2.4006255 -0.85229725
6.519011 2.364455 -0.85364354
6.5380716 2.3260739 -0.8542555
6.5175481 2.2738183 -0.84972709
6.5210471 2.2302518 -0.8483808
6.5261397 2.1873591 -0.84727931
6.5318947 2.1447976 -0.84630018
6.5572147 2.1086278 -0.84789121
6.5700297 2.0683537 -0.84789121
6.566473 2.0230346 -0.84581065
6.5721102 1.9807009 -0.84495389
6.5603399 1.9333249 -0.84189415
6.5854311 1.8968804 -0.8436076
6.5816603 1.8521363 -0.84164941
6.6005569 1.8138207 -0.84262854
6.5751343 1.7635176 -0.83797771
6.5474243 1.7130927 -0.83308214
6.5424256 1.6689616 -0.83112395
6.5438743 1.6266321 -0.83002245
6.5286517 1.5803789 -0.82684034
6.5275993 1.5377871 -0.82549405
6.547554 1.5001433 -0.82684034
6.5391974 1.4560579 -0.82463735
6.5460687 1.4154873 -0.82439256
6.5274329 1.3695892 -0.82096565
6.5191803 1.3261491 -0.81888503
6.5252471 1.2857395 -0.81864029
6.4988909 1.2391722 -0.81435663
6.4565935 1.1900991 -0.80811483
6.403192 1.1396794 -0.80052668
6.3249631 1.0857631 -0.78987885
6.2786293 1.0381923 -0.78326982
6.2299919 0.99091953 -0.77641606
6.0564127 0.92525262 -0.75401884
6.0492096 0.886204 -0.75242782
6.024065 0.84479851 -0.74863374
6.0055265 0.8046574 -0.74569643
5.9434052 0.75924391 -0.73737395
5.9183946 0.71917111 -0.7337023
5.8832579 0.6782977 -0.72880673
5.8350177 0.63648421 -0.72232008
5.7914243 0.59579605 -0.71644545
5.7149525 0.5525167 -0.70653194
5.6707892 0.51314873 -0.70065725
5.6421838 0.47567704 -0.69674081
5.6143227 0.43865308 -0.69294673
5.5812716 0.40163308 -0.6885407
5.5638237 0.36607715 -0.68609297
5.562993 0.33175415 -0.68572575
5.5480762 0.29671374 -0.68364519
5.4932837 0.25999382 -0.676669
5.484859 0.22587486 -0.67544508
5.5049877 0.19287558 -0.6777705
5.5080514 0.15915123 -0.67801529
5.5049553 0.12526132 -0.6775257
5.4877582 0.091185197 -0.67532271
5.5080628 0.057718337 -0.6777705
5.5251851 0.023992928 -0.67985111
4.6537256 0.012972538 -0.66390347
1.7839398 -0.0063632461 -0.25342724
1.7769381 -0.017244397 -0.2524361
1.7837274 -0.028254453 -0.25342724
1.7795616 -0.039113063 -0.25286087
1.7763195 -0.049949091 -0.2524361
1.7502563 -0.059975293 -0.2487547
1.7627141 -0.071228519 -0.25059539
1.7671882 -0.082271405 -0.25130337
1.769616 -0.093268365 -0.25172815
1.7907515 -0.10539668 -0.25484318
1.7752531 -0.11542439 -0.25271928
1.7547625 -0.12491622 -0.24988744
4.6162739 -0.35606506 -0.66050529
4.6228809 -0.38512173 -0.66177964
4.6145148 -0.41295132 -0.66093004
4.6316028 -0.44314066 -0.66376191
4.6140242 -0.47004837 -0.66163802
4.5992427 -0.49707583 -0.65993893
4.5902042 -0.52461326 -0.65908939
4.5996761 -0.55430633 -0.66093004
4.6069918 -0.58388662 -0.66248757
4.5993967 -0.61162221 -0.6619212
4.6034012 -0.64092308 -0.66305393
4.6189747 -0.6720047 -0.66588581
4.4777403 -0.67955792 -0.64606285
1.765931 -0.2794871 -0.25399363
1.770044 -0.29127976 -0.25484318
1.7691991 -0.30230147 -0.25498477
1.767311 -0.31315136 -0.25498477
1.7575663 -0.32256269 -0.25385204
1.7536089 -0.3329722 -0.25356883
1.7505614 -0.34353557 -0.25342724
1.7484205 -0.35427037 -0.25342724
1.7481519 -0.3653962 -0.25371042
1.7429736 -0.37549135 -0.25328565
1.7493354 -0.3881056 -0.25455999
4.4358854 -1.0117396 -0.64903629
4.5654902 -1.0707924 -0.6690008
4.5232248 -1.0902082 -0.66376191
4.5049191 -1.1150889 -0.66206282
4.4682484 -1.1351576 -0.65767342
4.454493 -1.1608064 -0.65668231
4.4597201 -1.1914365 -0.65852302
4.4809709 -1.2266155 -0.66277075
4.4857516 -1.2575593 -0.66461146
4.439889 -1.2741424 -0.65894777
4.4215388 -1.2982945 -0.65739024
4.4352965 -1.3319457 -0.66064686
4.4270401 -1.3591352 -0.66064686
4.4233403 -1.3877543 -0.66135484
4.3996582 -1.4100374 -0.65908939
4.3758698 -1.4320824 -0.65682387
4.3641834 -1.4579647 -0.65639913
4.3307929 -1.4764136 -0.65271771
4.3057566 -1.4974334 -0.65031064
4.3002195 -1.525148 -0.650877
4.3168478 -1.5609266 -0.6548416
4.2988291 -1.5843052 -0.65356725
4.2779055 -1.6064777 -0.65186816
4.2762895 -1.6358783 -0.65314251
4.2551017 -1.6577756 -0.65144336
4.231967 -1.6787448 -0.64946109
4.2344379 -1.7098675 -0.65144336
4.2229514 -1.7354411 -0.6513018
4.1939564 -1.7536848 -0.64846992
4.1730957 -1.7751243 -0.6469124
4.1675773 -1.8030542 -0.647762
4.1482797 -1.8250054 -0.64648765
4.1505594 -1.8564854 -0.64861155
4.1282754 -1.8770026 -0.6469124
4.1085925 -1.8985617 -0.64563811
4.0807357 -1.9161645 -0.64308941
4.0501375 -1.9322189 -0.64011598
4.0328603 -1.9544442 -0.63926643
4.0394449 -1.9883306 -0.64223987
4.0147715 -2.0068839 -0.6402576
3.996202 -2.0283449 -0.63926643
3.9863212 -2.0541868 -0.63969123
3.9745193 -2.0790665 -0.63983279
3.960813 -2.1029506 -0.63969123
3.9504497 -2.1286223 -0.64011598
3.9503438 -2.1599436 -0.64223987
3.9197021 -2.1745396 -0.63940805
3.8950701 -2.192239 -0.63756734
3.8746674 -2.212172 -0.63643461
3.8678746 -2.2398725 -0.63756734
3.8574729 -2.265568 -0.6381337
3.8383956 -2.2861557 -0.63728416
3.8081942 -2.2999434 -0.6345939
3.7813461 -2.3155141 -0.63247001
3.7906179 -2.3532887 -0.63643461
3.7937028 -2.3875735 -0.63940805
3.7472653 -2.3905792 -0.63402754
3.7441654 -2.4210505 -0.63600981
3.6919777 -2.4195666 -0.62963814
1.7959285 -1.1931806 -0.30666599
1.7869308 -1.2030724 -0.30638281
1.780333 -1.2145718 -0.3065244
1.7761052 -1.2277235 -0.30709076
1.7717825 -1.2408688 -0.30765712
1.7681729 -1.2545799 -0.30836508
1.784561 -1.2827321 -0.31261286
1.7510433 -1.2750188 -0.3080819
1.7583269 -1.2968991 -0.31077215
1.7630275 -1.3171395 -0.31303763
3.524334 -2.6660442 -0.63034612
3.5000503 -2.6815999 -0.62893021
1.7603856 -1.3663568 -0.31700221
1.7418491 -1.3691827 -0.31516153
1.7341897 -1.3804611 -0.31530312
1.7256867 -1.3910758 -0.31530312
1.7209541 -1.404767 -0.31601107
1.7107759 -1.4140393 -0.31572789
1.7035859 -1.4257801 -0.31601107
1.6963161 -1.4374858 -0.31629425
1.6867125 -1.4472227 -0.31615266
1.7450756 -1.5159546 -0.32889599
3.303045 -2.904362 -0.62737268
3.2792461 -2.9193094 -0.62623996
3.2649488 -2.9426887 -0.62694788
3.2314732 -2.9486566 -0.62397444
3.223501 -2.9778316 -0.62595677
3.2008302 -2.9934983 -0.62510717
3.1723368 -3.0035548 -0.6231249
3.138123 -3.0078957 -0.6200099
3.1359503 -3.0429475 -0.62326652
3.1080382 -3.0531149 -0.62142581
3.089246 -3.0721281 -0.62142581
3.0745242 -3.0952389 -0.62227535
3.045073 -3.1034482 -0.62015146
3.0053017 -3.1007516 -0.61590368
2.9958048 -3.129143 -0.61788601
2.9962766 -3.1683209 -0.62199217
2.9828625 -3.1931558 -0.62326652
2.9618709 -3.2099433 -0.62298334
2.9307811 -3.2156203 -0.62057626
2.8871477 -3.2070606 -0.61547893
2.8595204 -3.2158394 -0.61377978
2.8325477 -3.2251439 -0.61222231
2.8237345 -3.2551742 -0.61462939
2.8030639 -3.2716873 -0.61448777
2.7727034 -3.2767355 -0.61222231
2.7398472 -3.2784967 -0.60939044
2.7209396 -3.2967732 -0.60967362
2.7081664 -3.3226135 -0.61137271
2.6895907 -3.341481 -0.61179751
2.6591799 -3.3455234 -0.60953206
2.6263757 -3.3462043 -0.60670018
2.606401 -3.363039 -0.6068418
2.6073782 -3.4072666 -0.61193913
2.5571759 -3.3845036 -0.60500109
2.5363605 -3.4001305 -0.60500109
2.5365872 -3.4443214 -0.61009842
2.5014317 -3.4406066 -0.60670018
2.4698818 -3.4414155 -0.60415155
2.4424231 -3.4476213 -0.60259402
2.4240599 -3.4665985 -0.603302
2.4016187 -3.4797778 -0.60301876
2.3980591 -3.5206268 -0.60754973
2.3675737 -3.5221312 -0.60528427
2.3464651 -3.5374167 -0.60542583
2.32092 -3.5459504 -0.60443473
2.2889125 -3.5443258 -0.60174447
2.2570131 -3.5424428 -0.59905422
2.2289116 -3.5461683 -0.59735507
2.2076323 -3.5606191 -0.59749669
2.1831605 -3.5698757 -0.5967887
2.1601923 -3.5815091 -0.59650552
2.1407065 -3.5989497 -0.59721351
2.1245952 -3.622263 -0.5989126
2.0924151 -3.6180935 -0.59608078
2.0569334 -3.6076472 -0.5922578
2.0274813 -3.6072571 -0.59013391
2.0077085 -3.6239591 -0.59084183
1.991129 -3.6466351 -0.59254098
1.9602706 -3.6430936 -0.58999228
1.9327779 -3.6454332 -0.58843476
1.910832 -3.6581016 -0.58857638
1.8874443 -3.6679969 -0.58829319
1.868036 -3.6856894 -0.5892843
1.8555572 -3.7174518 -0.59254098
1.8239766 -3.7110004 -0.5897091
1.792114 -3.7034111 -0.58673567
1.7765961 -3.7295296 -0.58914274
1.7591436 -3.7520113 -0.59098345
1.734844 -3.7600381 -0.59055865
1.6990505 -3.7426713 -0.5861693
1.6683818 -3.7358534 -0.58347905
1.6287011 -3.7079561 -0.57753217
1.6141652 -3.7369626 -0.58050561
1.5881084 -3.7395077 -0.57937288
1.5739077 -3.7701914 -0.5826295
1.5593901 -3.8008409 -0.58588612
1.5330772 -3.8029931 -0.58475339
1.508255 -3.8086467 -0.58418703
1.4737293 -3.7892306 -0.57979763
1.4575173 -3.8166966 -0.5826295
1.4406757 -3.8431785 -0.58531976
1.4027065 -3.8129282 -0.57937288
1.3802931 -3.8242567 -0.57979763
1.3591154 -3.8391857 -0.58078879
1.3394302 -3.8586745 -0.58248788
1.3141335 -3.8621349 -0.58177996
1.2882183 -3.8635521 -0.58078879
1.2555702 -3.8440962 -0.57668263
1.2226063 -3.8225002 -0.57229322
1.1988329 -3.8289855 -0.57215166
1.1915632 -3.8892708 -0.58008081
1.1662552 -3.8917677 -0.57937288
1.136227 -3.8779516 -0.57625782
1.109139 -3.873431 -0.57455873
1.0914879 -3.9020891 -0.57781535
1.0719609 -3.9249463 -0.58022243
1.0376539 -3.8931901 -0.57455873
1.0154908 -3.9061899 -0.57554984
0.99783051 -3.9372959 -0.57923126
0.97080362 -3.931812 -0.57753217
0.94156623 -3.9165204 -0.57441711
0.91909659 -3.9289713 -0.57540828
0.89497155 -3.9345367 -0.57540828
0.87380588 -3.953486 -0.57739055
0.85535133 -3.9858732 -0.58135515
0.82360947 -3.9561584 -0.57625782
0.7975558 -3.9524043 -0.57498348
0.77575934 -3.9698534 -0.57682419
0.75359464 -3.9862108 -0.57852334
0.72823119 -3.9858906 -0.57781535
0.70462096 -3.9951582 -0.57852334
0.67610735 -3.9759853 -0.5751251
0.65233886 -3.9839661 -0.57569146
0.62818968 -3.98985 -0.57597464
0.60280788 -3.9877567 -0.5751251
0.57534397 -3.9708071 -0.57215166
0.5472942 -3.9477882 -0.56832868
0.52293068 -3.9500909 -0.56818706
0.50389355 -3.9944744 -0.57413393
0.47819424 -3.9876621 -0.57271802
0.45674109 -4.0170779 -0.57654101
0.43250796 -4.0237412 -0.57710737
0.40721115 -4.0204101 -0.57625782
0.37981263 -3.9942548 -0.57215166
0.35275054 -3.9679155 -0.5680455
0.3254537 -3.9344897 -0.56294817
0.30251735 -3.9522049 -0.56521362
0.28035095 -3.9836111 -0.56946141
0.25564831 -3.9813044 -0.56889504
0.23006411 -3.9630332 -0.56606317
0.20718405 -3.9920509 -0.57002777
0.1822768 -3.9843469 -0.56875342
0.15648872 -3.9517593 -0.56393927
0.13167286 -3.9358261 -0.5615322
0.1075206 -3.9365599 -0.5615322
0.083195381 -3.9292281 -0.56039947
0.05923494 -3.9395626 -0.56181544
0.035482615 -3.9863763 -0.56847024
0.010998852 -3.9785998 -0.56733751
-0.013362702 -3.9627538 -0.56507206
-0.037640434 -3.9586375 -0.56450564
-0.061898813 -3.9563525 -0.56422246
-0.086280376 -3.9608464 -0.56493044
-0.11063699 -3.9622216 -0.56521362
-0.13474537 -3.9555321 -0.56436408
-0.15826085 -3.9358373 -0.56167382
-0.18190522 -3.9239144 -0.56011629
-0.20551273 -3.9138277 -0.55884194
-0.22854082 -3.8956928 -0.55643493
-0.25109863 -3.873472 -0.55346143
-0.27353227 -3.853097 -0.55077124
-0.29648533 -3.842463 -0.54949689
-0.32079512 -3.8494501 -0.55077124
-0.34229442 -3.8237455 -0.547373
-0.36292556 -3.7920101 -0.54312521
-0.38718799 -3.7995601 -0.54454112
-0.41219413 -3.8128603 -0.54680663
-0.43782711 -3.8299298 -0.54963845
-0.46463138 -3.8546906 -0.55360305
-0.48529059 -3.8281972 -0.55020481
-0.50577265 -3.8025775 -0.54694819
-0.53891432 -3.8699973 -0.55714285
-0.55880553 -3.840168 -0.55331987
-0.57953829 -3.8180704 -0.55062962
-0.60666019 -3.8379104 -0.55402786
-0.63067889 -3.8370464 -0.5544526
-0.65104938 -3.814563 -0.55176234
-0.67323625 -3.803673 -0.55077124
-0.69460064 -3.7887595 -0.54921371
-0.71930951 -3.792207 -0.55034643
-0.74028105 -3.7760646 -0.54864734
-0.76598781 -3.7840648 -0.550488
-0.78656352 -3.7666957 -0.54864734
-0.80404103 -3.7356682 -0.5448243
-0.83037263 -3.7461283 -0.54708982
-0.85840273 -3.7631617 -0.55034643
-0.88057321 -3.7539687 -0.54978007
-0.89849043 -3.7273219 -0.54666501
-0.92205715 -3.7246218 -0.54708982
-0.9368543 -3.6872311 -0.54241723
-0.96145713 -3.6890769 -0.54355001
-0.99301273 -3.7165828 -0.54850572
-1.0103126 -3.6903684 -0.54553229
-1.0358752 -3.6945851 -0.54708982
-1.0607088 -3.6957719 -0.54822254
-1.0758389 -3.6635475 -0.54439956
-1.1011436 -3.6663587 -0.54581547
-1.1175208 -3.6396594 -0.54284203
-1.1427944 -3.6421797 -0.54425794
-1.1690468 -3.6473546 -0.54609865
-1.1950978 -3.6514032 -0.54779774
-1.2102685 -3.6224055 -0.54454112
-1.2222549 -3.5849266 -0.54001021
-1.2494292 -3.5923202 -0.54227567
-1.2767401 -3.5995147 -0.54454112
-1.2920725 -3.5729933 -0.5417093
-1.3098654 -3.5538514 -0.54001021
-1.3372129 -3.5605757 -0.54227567
-1.3586814 -3.551379 -0.54213405
-1.3897868 -3.5669589 -0.54581547
-1.4200395 -3.5795295 -0.54907209
-1.4353069 -3.5542254 -0.54652345
-1.4315099 -3.4830859 -0.53689516
-1.4551452 -3.4797168 -0.5377447
-1.5004854 -3.527204 -0.54652345
-1.5244573 -3.5233824 -0.547373
-1.5400701 -3.5003695 -0.5452491
-1.5594985 -3.4863358 -0.54454112
-1.5792226 -3.4730961 -0.54397476
-1.5805774 -3.4202042 -0.53717834
-1.6128906 -3.4346368 -0.54100132
-1.6330826 -3.4228885 -0.54071814
-1.6600966 -3.425276 -0.54270047
-1.6823937 -3.41769 -0.54312521
-1.7042174 -3.4090738 -0.54340839
-1.7188323 -3.3861938 -0.54142612
-1.743657 -3.3835037 -0.54270047
-1.7616328 -3.3674777 -0.54185086
-1.7562728 -3.3076389 -0.53392172
-1.7943741 -3.3299186 -0.53930223
-1.8199949 -3.3284009 -0.54085976
-1.8187785 -3.2782142 -0.53448808
-1.8485672 -3.2842474 -0.53731996
-1.8731005 -3.2805808 -0.53859425
-1.8832752 -3.2518916 -0.53576243
-1.9087063 -3.249665 -0.53731996
-1.9331679 -3.2455473 -0.53859425
-1.9770933 -3.2734547 -0.5452491
-1.9790523 -3.2317116 -0.5402934
-1.9941463 -3.2119377 -0.53901905
-1.9995836 -3.1770184 -0.53519607
-2.0259595 -3.1755395 -0.53703678
-2.0604534 -3.1863265 -0.54100132
-2.0821354 -3.1769361 -0.54156768
-2.0955665 -3.1550291 -0.54001021
-2.1148858 -3.1421113 -0.54001021
-2.1313374 -3.1249859 -0.53930223
-2.1544104 -3.1175508 -0.5402934
-2.16839 -3.0969739 -0.53901905
-2.1850615 -3.0803804 -0.53845268
-2.2085416 -3.0733471 -0.53958541
-2.2267752 -3.0589375 -0.53944379
-2.2372797 -3.034061 -0.53746152
-2.2540772 -3.0178964 -0.53703678
-2.2635956 -2.9921653 -0.53491288
-2.3053885 -3.0088696 -0.54043496
-2.3049977 -2.9704196 -0.53604561
-2.3097267 -2.939095 -0.53293055
-2.3357291 -2.9349382 -0.53477126
-2.3779144 -2.9506154 -0.5402934
-2.3953483 -2.9352024 -0.54015177
-2.4076393 -2.9135807 -0.53887743
-2.4280119 -2.9017899 -0.53944379
-2.4502497 -2.8921251 -0.54043496
