# .PCD v0.7 - Point Cloud Data file format
VERSION 0.7
FIELDS x y z
SIZE 4 4 4
TYPE F F F
COUNT 1 1 1
WIDTH 1434
HEIGHT 1
VIEWPOINT 0 0 0 1 0 0 0
POINTS 1434
DATA ascii
-0.010059061 -2.8817699 -0.67888004
-0.027589748 -2.8660846 -0.67519653
-0.045329478 -2.8755913 -0.6774987
-0.062887333 -2.8713675 -0.67657781
-0.080750838 -2.8796823 -0.67864978
-0.097818665 -2.8616264 -0.67450583
-0.11396052 -2.825968 -0.66621792
-0.13179615 -2.8359084 -0.66875035
-0.14991172 -2.8486514 -0.67197341
-0.16653 -2.833106 -0.66852015
-0.18296316 -2.8174648 -0.66506684
-0.20128402 -2.8308492 -0.66852015
-0.21527204 -2.7859001 -0.65816027
-0.23309112 -2.7932546 -0.66023225
-0.25118244 -2.8024337 -0.66276467
-0.26818728 -2.7989023 -0.66230422
-0.28505942 -2.7942996 -0.66161352
-0.3029331 -2.7992704 -0.66322505
-0.32287157 -2.8215294 -0.6689806
-0.33749497 -2.7972744 -0.6636855
-0.35514271 -2.7990124 -0.66460639
-0.37166789 -2.7919576 -0.66345531
-0.3879855 -2.7838414 -0.66207397
-0.40491924 -2.7804456 -0.66184378
-0.42226458 -2.7798328 -0.66230422
-0.44281253 -2.7992964 -0.66759926
-0.45903215 -2.7907655 -0.66621792
-0.46991828 -2.7514455 -0.65746957
-0.49205595 -2.7782149 -0.66460639
-0.50575554 -2.7569575 -0.66023225
-0.52175462 -2.749022 -0.6590811
-0.5367384 -2.7362196 -0.65677893
-0.55371064 -2.7338285 -0.65700912
-0.57246584 -2.7399051 -0.65931135
-0.58598751 -2.7211199 -0.65562785
-0.60225135 -2.7155731 -0.6551674
-0.62431788 -2.7355447 -0.66092288
-0.63931167 -2.7240834 -0.6590811
-0.65784025 -2.7276773 -0.66092288
-0.66660708 -2.6914742 -0.65309542
-0.68838549 -2.708082 -0.65816027
-0.70277846 -2.6953323 -0.65608829
-0.71402431 -2.6712272 -0.65125364
-0.73322988 -2.6771197 -0.65378606
-0.75174582 -2.6800659 -0.65562785
-0.76737028 -2.6725969 -0.65493715
-0.78402895 -2.6687717 -0.6551674
-0.79310668 -2.6396799 -0.64918166
-0.8092885 -2.634764 -0.64918166
-0.82777208 -2.6371763 -0.65102345
-0.84423512 -2.6329741 -0.65125364
-0.85401404 -2.6083236 -0.64641905
-0.87925929 -2.630722 -0.65332562
-0.88910002 -2.6068571 -0.64872122
-0.90475887 -2.6004336 -0.64849102
-0.91972125 -2.592082 -0.64780039
-0.93461531 -2.5836446 -0.64710969
-0.95146084 -2.5806003 -0.64780039
-0.96111536 -2.5583169 -0.64365643
-0.97192401 -2.5396478 -0.64043337
-0.99173051 -2.5445166 -0.64319599
-1.0019392 -2.524816 -0.63974267
-1.0195997 -2.5240343 -0.64112401
-1.0339574 -2.5150306 -0.64043337
-1.0437355 -2.4951735 -0.63698006
-1.0616938 -2.4949899 -0.63859159
-1.0765963 -2.4875355 -0.63836139
-1.0934075 -2.4844453 -0.63928223
-1.1086313 -2.4776895 -0.63928223
-1.1217983 -2.4664116 -0.63813114
-1.1409948 -2.4683149 -0.64043337
-1.1540495 -2.4568636 -0.63928223
-1.1686836 -2.448858 -0.63905203
-1.1828383 -2.4398897 -0.63859159
-1.1973569 -2.4317131 -0.63836139
-1.2035489 -2.4069135 -0.633757
-1.2147696 -2.3925421 -0.63191521
-1.2231836 -2.3729341 -0.62869215
-1.2480997 -2.3852146 -0.63398719
-1.2709293 -2.3929806 -0.63813114
-1.281894 -2.3782845 -0.63628942
-1.2959957 -2.3695207 -0.63605917
-1.3053153 -2.3521645 -0.63352674
-1.3287957 -2.3602216 -0.63790095
-1.3364952 -2.3401942 -0.63467783
-1.3513169 -2.3327916 -0.63490808
-1.3710285 -2.3336852 -0.6374405
-1.3868164 -2.3277366 -0.63813114
-1.3688631 -2.2658784 -0.62339711
-1.3883326 -2.2665641 -0.62592953
-1.3883504 -2.2356832 -0.6197136
-1.4175979 -2.251827 -0.62662017
-1.4376709 -2.2529299 -0.62938279
-1.4572821 -2.2530539 -0.63191521
-1.4716128 -2.2448835 -0.63214546
-1.4853594 -2.2358115 -0.63214546
-1.4691553 -2.18226 -0.61948335
-1.5132331 -2.2182195 -0.63237566
-1.5268152 -2.2088926 -0.63237566
-1.5436898 -2.2042649 -0.633757
-1.5650705 -2.205862 -0.63698006
-1.5490376 -2.1551304 -0.62500864
-1.5559304 -2.1369319 -0.62247622
-1.5724791 -2.1320434 -0.62385756
-1.5884439 -2.1262524 -0.62500864
-1.6002859 -2.1149139 -0.6245482
-1.6161928 -2.1089168 -0.62569928
-1.613587 -2.078974 -0.6197136
-1.6202986 -2.061384 -0.61741138
-1.6335226 -2.0521646 -0.61764163
-1.6442513 -2.0398302 -0.61695093
-1.66166 -2.0357332 -0.61879271
-1.6505581 -1.9969981 -0.61004436
-1.6621556 -1.9860867 -0.60981417
-1.6824903 -1.9855012 -0.61280698
-1.6946415 -1.9751403 -0.61280698
-1.7322594 -1.9940884 -0.62201577
-1.7251796 -1.9615022 -0.61510921
-1.7591884 -1.9755876 -0.62293667
-1.7523786 -1.9437975 -0.61626029
-1.7491822 -1.9164784 -0.61096525
-1.7483592 -1.8921309 -0.60659105
-1.7685796 -1.8906054 -0.60958391
-1.8022308 -1.9030327 -0.61718118
-1.8192621 -1.8975575 -0.61902291
-1.8247706 -1.8800749 -0.61695093
-1.8246763 -1.8570439 -0.61303723
-1.8429 -1.8527116 -0.6153394
-1.8362786 -1.8235422 -0.60935372
-1.8328427 -1.7979314 -0.60451907
-1.857819 -1.8001937 -0.60912347
-1.871642 -1.7914517 -0.61004436
-1.8783559 -1.7759229 -0.60866302
-1.8941963 -1.769013 -0.61027455
-1.9157453 -1.7672536 -0.61372787
-1.9279915 -1.7567762 -0.61418831
-1.945245 -1.7507716 -0.61626029
-1.9566784 -1.7394494 -0.61649048
-1.9695085 -1.7293367 -0.61718118
-1.9822882 -1.7191319 -0.61787182
-1.9698858 -1.687314 -0.610735
-1.9995203 -1.6915345 -0.61672074
-2.00314 -1.6736193 -0.61464876
-2.0261328 -1.6718242 -0.61856246
-2.0310717 -1.655058 -0.61695093
-2.0358813 -1.6382945 -0.6153394
-2.0558004 -1.6336412 -0.61833227
-2.0665512 -1.6215969 -0.61856246
-2.0795395 -1.6112701 -0.61948335
-2.1002083 -1.606757 -0.62270641
-2.1053681 -1.5903213 -0.62132514
-2.1143064 -1.5767914 -0.62109488
-2.1074839 -1.5516738 -0.61626029
-2.1201138 -1.5410016 -0.61718118
-2.1461346 -1.5398756 -0.62201577
-2.1499836 -1.5227418 -0.62040424
-2.1552982 -1.5067335 -0.61925316
-2.1669059 -1.4951383 -0.6199438
-2.1736259 -1.4801713 -0.61925316
-2.1907446 -1.4722334 -0.62155533
-2.2029812 -1.4609145 -0.62247622
-2.2045743 -1.442575 -0.62040424
-2.2207429 -1.4337705 -0.62247622
-2.2245736 -1.416981 -0.62109488
-2.2332261 -1.4033046 -0.62109488
-2.2467577 -1.392651 -0.62247622
-2.2511091 -1.3763013 -0.62132514
-2.2753463 -1.3720089 -0.62569928
-2.2795396 -1.3555353 -0.6245482
-2.2903326 -1.3429992 -0.62523884
-2.2985299 -1.3289208 -0.62523884
-2.2939584 -1.307565 -0.62178558
-2.3180585 -1.3025206 -0.62615973
-2.3089802 -1.2788447 -0.62155533
-2.3432641 -1.2791044 -0.62869215
-2.3553538 -1.267007 -0.62984324
-2.3398674 -1.2402282 -0.62362731
-2.3577847 -1.2312522 -0.62638992
-2.36443 -1.2163168 -0.62615973
-2.3657718 -1.1987078 -0.6245482
-2.3626328 -1.1789562 -0.62178558
-2.3811772 -1.170015 -0.62477839
-2.4154692 -1.168517 -0.63191521
-2.4094141 -1.1473991 -0.6284619
-2.4252207 -1.1367228 -0.63076413
-2.4374523 -1.1242656 -0.63214546
-2.4443047 -1.1092885 -0.63214546
-2.4519536 -1.0946662 -0.63237566
-2.4461496 -1.0741245 -0.6291526
-2.4267843 -1.0479099 -0.62247622
-2.4394391 -1.0356611 -0.62408775
-2.4529326 -1.023671 -0.62592953
-2.4672711 -1.0119234 -0.62800151
-2.4869733 -1.0022203 -0.63145477
-2.4985051 -0.98909026 -0.6328361
-2.5108764 -0.97620887 -0.63444763
-2.5231831 -0.96321285 -0.63605917
-2.5035298 -0.93815398 -0.62961304
-2.5064988 -0.92176753 -0.62892234
-2.5331619 -0.91396475 -0.63421744
-2.5570707 -0.90489542 -0.63882178
-2.5469453 -0.88376683 -0.63490808
-2.5357361 -0.8624835 -0.63076413
-2.5492895 -0.84967685 -0.6328361
-2.5572302 -0.83492446 -0.63352674
-2.5548897 -0.81684786 -0.63168502
-2.5997896 -0.81365037 -0.64158446
-2.6112468 -0.79967707 -0.64319599
-2.6095786 -0.78168571 -0.64158446
-2.6236651 -0.7683931 -0.64388663
-2.6086831 -0.74665874 -0.63905203
-2.6010315 -0.72723287 -0.63605917
-2.6101387 -0.71254045 -0.63721025
-2.6727643 -0.71203756 -0.65148389
-2.6196282 -0.68070096 -0.6374405
-2.6256423 -0.66509217 -0.63790095
-2.6372323 -0.65083361 -0.63974267
-2.6496923 -0.63668501 -0.64181465
-2.6611297 -0.62218648 -0.64365643
-2.6639483 -0.60563076 -0.64342618
-2.6676145 -0.58927369 -0.64342618
-2.6968708 -0.5784018 -0.64964211
-2.6870306 -0.55906934 -0.64641905
-2.6894565 -0.5423792 -0.64618886
-2.6545293 -0.51840967 -0.63698006
-2.7131221 -0.51258475 -0.65033281
-2.7382348 -0.49994564 -0.65562785
-2.684706 -0.47317457 -0.6420449
-2.668371 -0.45343399 -0.6374405
-2.7114389 -0.44364843 -0.64710969
-2.6881542 -0.42292202 -0.64089376
-2.6839631 -0.40540314 -0.63928223
-2.7181826 -0.39352518 -0.64687949
-2.7186182 -0.37657249 -0.64641905
-2.7150891 -0.35911921 -0.64503771
-2.7317243 -0.34427679 -0.64849102
-2.7279878 -0.32681477 -0.64710969
-2.7405779 -0.31127706 -0.64964211
-2.7337282 -0.29352117 -0.64757013
-2.7345095 -0.27664393 -0.64733994
-2.761344 -0.26224986 -0.65332562
-2.7309129 -0.24246469 -0.64572841
-2.7420478 -0.22650374 -0.64803058
-2.7482376 -0.21004492 -0.64918166
-2.7921877 -0.19617496 -0.65931135
-2.7884831 -0.17872797 -0.65816027
-2.7749546 -0.16077189 -0.65470695
-2.7389588 -0.14183332 -0.6459586
-2.7631087 -0.1260871 -0.65148389
-2.7784162 -0.10970512 -0.65493715
-2.7819548 -0.092752017 -0.65562785
-2.7688525 -0.075311407 -0.65240479
-2.7906668 -0.058769334 -0.65746957
-2.7900019 -0.041630596 -0.65723938
-2.7814469 -0.024434585 -0.6551674
-2.8156042 -0.007454427 -0.66322505
-2.8379788 0.0099021401 -0.66852015
-2.7969949 0.026918225 -0.65885091
-2.8172104 0.044403758 -0.6636855
-2.8314784 0.062009983 -0.66713881
-2.7814343 0.077986673 -0.65539759
-2.8266139 0.09661857 -0.66621792
-2.8415256 0.11458937 -0.66990143
-2.8349364 0.13175088 -0.66852015
-2.8253286 0.14868215 -0.66644818
-2.8097911 0.16515733 -0.66299486
-2.832031 0.18391047 -0.66852015
-2.8240545 0.20080025 -0.66690862
-2.8295608 0.21865 -0.66852015
-2.8204081 0.23535961 -0.66667837
-2.8363571 0.25422627 -0.67082232
-2.8531489 0.27339035 -0.67519653
-2.843673 0.29010096 -0.67335474
-2.8457093 0.30796313 -0.67427564
-2.8534343 0.32652554 -0.67657781
-2.8388174 0.34251121 -0.67358494
-2.8424549 0.36065891 -0.67496628
-2.8266838 0.37629405 -0.67174321
-2.842634 0.39618513 -0.67611736
-2.8661497 0.41740873 -0.68233329
-2.8500652 0.43293992 -0.67911023
-2.8627338 0.45285365 -0.68279374
-2.8551002 0.46962035 -0.68164265
-2.8320212 0.4836877 -0.67680806
-2.8404984 0.50309324 -0.67957067
-2.8258722 0.51840454 -0.67680806
-2.7987368 0.53119528 -0.67105258
-2.8192978 0.55304331 -0.67680806
-2.8272965 0.57265097 -0.67957067
-2.8151565 0.58819616 -0.6774987
-2.8229101 0.60791802 -0.68026131
-2.8267272 0.62691396 -0.6821031
-2.8209298 0.64381343 -0.68164265
-2.8207157 0.66199994 -0.68256354
-2.8222766 0.68066454 -0.68394482
-2.8152134 0.6972667 -0.68325418
-2.8410621 0.72220212 -0.6906212
-2.842227 0.74109471 -0.69200253
-2.8113031 0.75148141 -0.68555635
-2.8047621 0.76820278 -0.68509597
-2.8477802 0.79880631 -0.69683713
-2.8026066 0.80471289 -0.68693769
-2.8181565 0.82793063 -0.69200253
-2.8353903 0.85192961 -0.69752783
-2.8263886 0.86816788 -0.69660693
-2.7736578 0.87062621 -0.68486571
-2.7812364 0.89178967 -0.68808877
-2.7442689 0.89853978 -0.68026131
-2.7285519 0.91196716 -0.67772889
-2.749614 0.93780446 -0.68440527
-2.7557559 0.95881647 -0.68739814
-2.7489038 0.97538185 -0.68716794
-2.7858756 1.0077932 -0.69798821
-2.7887697 1.0282353 -0.70029044
-2.7742097 1.0422467 -0.69821846
-2.7904828 1.0679469 -0.70397395
-2.7530508 1.0730307 -0.69614649
-2.7418923 1.0881077 -0.6949954
-2.7387733 1.1063694 -0.69591624
-2.7202332 1.1183419 -0.69292343
-2.7366607 1.1447783 -0.6989091
-2.6991413 1.1485902 -0.69108164
-2.7197273 1.1771152 -0.69821846
-2.7427359 1.2071118 -0.70604593
-2.718401 1.216365 -0.70167178
-2.7162011 1.2354398 -0.70305306
-2.7209353 1.2578005 -0.70627612
-2.7061203 1.2711616 -0.70443439
-2.7202251 1.2982225 -0.71018988
-2.7095811 1.3136153 -0.70949924
-2.711946 1.3353759 -0.71226186
-2.6915164 1.3458966 -0.70903879
-2.6936193 1.3676739 -0.71180141
-2.6557689 1.3690132 -0.70397395
-2.6412835 1.3821241 -0.70236242
-2.6490817 1.4069788 -0.70673656
-2.6138446 1.4088908 -0.6995998
-2.620518 1.4333096 -0.70374376
-2.6159284 1.4517232 -0.70489484
-2.6222343 1.4763417 -0.70903879
-2.6004515 1.4851635 -0.70558548
-2.6005518 1.506458 -0.7081179
-2.6197855 1.5391492 -0.71594536
-2.615308 1.5581838 -0.7173267
-2.5807111 1.5591033 -0.71042007
-2.5935004 1.5886352 -0.716636
-2.5704772 1.5963033 -0.71295249
-2.5754571 1.6213789 -0.71709645
-2.56546 1.637151 -0.71709645
-2.5553663 1.6528615 -0.71709645
-2.5313418 1.6594388 -0.71318275
-2.5089543 1.6668608 -0.70972943
-2.5446894 1.7132061 -0.72285193
-2.5003681 1.7057514 -0.71318275
-2.4882538 1.7199544 -0.7127223
-2.4872181 1.7418894 -0.71548492
-2.4844193 1.7627497 -0.71778715
-2.4846187 1.7859133 -0.72101021
-2.4681072 1.797115 -0.71939868
-2.4711299 1.8226237 -0.72354263
-2.4567816 1.8354219 -0.72262174
-2.4260745 1.8357801 -0.71686625
-2.4193988 1.8541838 -0.71824753
-2.4018264 1.8642201 -0.71640581
-2.4025829 1.8885458 -0.72008932
-2.4038923 1.9135563 -0.72400308
-2.3739238 1.9136113 -0.71847779
-2.3787212 1.9416809 -0.72354263
-2.379513 1.9667807 -0.72745633
-2.3726239 1.9857163 -0.72906786
-2.3566833 1.9970912 -0.72791678
-2.3406925 2.0083451 -0.72676569
-2.31143 2.0079896 -0.72147065
-2.2946818 2.0182779 -0.72008932
-2.3200428 2.0659757 -0.73206073
-2.3131044 2.0853858 -0.73390251
-2.2851725 2.0857613 -0.72906786
-2.2530355 2.0819101 -0.72285193
-2.2338235 2.0897117 -0.72077996
-2.2365022 2.1181016 -0.7258448
-2.2073088 2.1162932 -0.72054976
-2.2159274 2.15081 -0.72768658
-2.208935 2.1705053 -0.72975856
-2.2031641 2.1915681 -0.73229098
-2.1992745 2.2147133 -0.73551404
-2.1788299 2.2212183 -0.73321182
-2.1665139 2.2359436 -0.73367226
-2.1742837 2.2716932 -0.74103928
-2.1489396 2.2729695 -0.73712558
-2.1422579 2.2939363 -0.739658
-2.1050508 2.2820008 -0.73160028
-2.0936303 2.2977517 -0.73252118
-2.081445 2.3127248 -0.73321182
-2.0691547 2.327635 -0.73390251
-2.0606117 2.346869 -0.73597449
-2.0582855 2.3734381 -0.74034864
-2.0449495 2.3875012 -0.74080908
-2.0195782 2.3873725 -0.73689532
-2.0055156 2.4004664 -0.73712558
-1.9932257 2.4157295 -0.73804647
-1.9709897 2.4188609 -0.73528379
-1.961601 2.4377329 -0.73735577
-1.9508438 2.4550567 -0.7389673
-1.9381458 2.4700434 -0.73988819
-1.928317 2.4888129 -0.74196017
-1.8810836 2.4588585 -0.72952831
-1.8683068 2.4734607 -0.7304492
-1.89614 2.5426087 -0.74748546
-1.875311 2.547142 -0.74541348
-1.8602188 2.5593879 -0.74564368
-1.8609294 2.5936849 -0.75232005
-1.855665 2.6201444 -0.75669426
-1.8245009 2.6099451 -0.75047833
-1.7907696 2.595458 -0.74311125
-1.7627621 2.5887001 -0.73804647
-1.7604127 2.6196613 -0.74380195
-1.7566736 2.6490681 -0.74909699
-1.7260019 2.6378095 -0.74288106
-1.7076731 2.6450801 -0.74196017
-1.7128426 2.6891623 -0.75139916
-1.6761206 2.6674848 -0.74242061
-1.6745874 2.7017071 -0.74909699
-1.6488429 2.696986 -0.74495304
-1.6297514 2.7028852 -0.74380195
-1.6350174 2.749639 -0.75393158
-1.6033504 2.7344344 -0.74702501
-1.5724192 2.7197878 -0.74034864
-1.5508831 2.7209299 -0.73804647
-1.522243 2.7091842 -0.73229098
-1.5272758 2.7576349 -0.74288106
-1.5061309 2.7592661 -0.74080908
-1.5140619 2.8147368 -0.75324094
-1.4671448 2.7680826 -0.73827666
-1.0186769 1.9506142 -0.5177263
-0.98354524 1.9118273 -0.50575489
-0.97355503 1.9212987 -0.50667578
-0.95783806 1.919399 -0.5046038
-0.94647187 1.9261135 -0.504834
-0.93166977 1.9257523 -0.50322247
-0.91523457 1.9217676 -0.50069004
-0.90466434 1.9299908 -0.50138074
-0.89117509 1.9319705 -0.50045985
-0.8809123 1.9409471 -0.50138074
-0.87453902 1.9587567 -0.5046038
-0.9462133 2.1547728 -0.5538708
-1.2793243 2.9628506 -0.76060796
-1.2557976 2.9581034 -0.7573849
-1.2398716 2.9711418 -0.75876623
-1.2290013 2.9967015 -0.76337057
-1.1894991 2.951833 -0.75001788
-1.1885537 3.0025089 -0.7610684
-1.1665827 3.000675 -0.75876623
-1.148149 3.0077765 -0.75876623
-1.1306962 3.0174987 -0.75945687
-1.0701863 2.9102085 -0.73067939
-0.74227202 2.0571473 -0.51450324
-0.69782919 1.9717556 -0.49194172
-0.68093377 1.9622095 -0.48848841
-0.67013419 1.9700359 -0.4894093
-0.65864891 1.9759572 -0.48986974
-0.6459083 1.9781111 -0.4894093
-0.63494378 1.985745 -0.49033019
-0.62274748 1.9896035 -0.49033019
-0.60881865 1.9878041 -0.48894885
-0.89753234 2.996459 -0.73712558
-0.92260373 3.1504059 -0.77373046
-0.89924061 3.1419735 -0.7702772
-0.86999106 3.1118176 -0.76152885
-0.85011232 3.1142807 -0.76083821
-0.8302362 3.1166172 -0.76014751
-0.80962944 3.1160016 -0.75876623
-0.7869119 3.10676 -0.75531292
-0.76107538 3.0841305 -0.74863654
-0.74418259 3.0972583 -0.75070852
-0.73025769 3.1235611 -0.75600356
-0.70331514 3.093821 -0.74771565
-0.68746573 3.1123321 -0.75116897
-0.6642763 3.0974612 -0.74656457
-0.64803207 3.1148174 -0.74978763
-0.63832968 3.1654787 -0.7610684
-0.61013252 3.1244454 -0.75024807
-0.59113038 3.1290865 -0.75047833
-0.57890725 3.170948 -0.75968707
-0.56433547 3.2022336 -0.76636344
-0.54027718 3.1797321 -0.76014751
-0.52311218 3.1973929 -0.76360083
-0.5042392 3.2053492 -0.76475191
-0.48485255 3.2103074 -0.76521236
-0.46598136 3.2190006 -0.76659369
-0.44502038 3.2131236 -0.76452172
-0.42618921 3.2225468 -0.76613325
-0.40847495 3.2415152 -0.77004695
-0.38360429 3.2024119 -0.76014751
-0.36438638 3.2085733 -0.7610684
-0.34188962 3.184624 -0.75485247
-0.31901556 3.1537426 -0.74702501
-0.30011815 3.1604846 -0.7481761
-0.28226751 3.1797147 -0.75232005
-0.26235175 3.1765375 -0.75116897
-0.24359661 3.1877906 -0.75347114
-0.22484945 3.2008746 -0.75623381
-0.20595084 3.2138476 -0.75899643
-0.18622716 3.2150507 -0.75899643
-0.16619509 3.2103019 -0.75761509
-0.14631686 3.2073727 -0.75669426
-0.12663403 3.2082102 -0.75669426
-0.10733444 3.220598 -0.75945687
-0.08791396 3.2338421 -0.76244974
-0.067417152 3.203187 -0.75508267
-0.047545116 3.1889451 -0.75162941
-0.028112501 3.2047462 -0.75531292
-0.0085225366 3.2340524 -0.76221949
0.011328371 3.23599 -0.76267993
0.031070322 3.2241826 -0.75991732
0.05082209 3.2219851 -0.75945687
0.06988471 3.189507 -0.75185961
0.089809619 3.201664 -0.75485247
0.11085309 3.2419004 -0.76452172
0.13011408 3.2256017 -0.76083821
0.15026569 3.2325191 -0.76267993
0.16907258 3.2121007 -0.75807554
0.19106625 3.249861 -0.76728433
0.21138236 3.2544541 -0.76866567
0.22768445 3.2016494 -0.756464
0.24740018 3.2011626 -0.75669426
0.26647037 3.192796 -0.75508267
0.28692561 3.2007933 -0.7573849
0.30795363 3.2135029 -0.76083821
0.32766548 3.2115526 -0.76083821
0.3494609 3.2288315 -0.76544255
0.37092695 3.2411287 -0.76889586
0.38742411 3.2107742 -0.76221949
0.40871134 3.2208867 -0.76521236
0.42525402 3.1942029 -0.75945687
0.44202244 3.1712933 -0.75462228
0.46441981 3.1887436 -0.75945687
0.48222196 3.174289 -0.75669426
0.50336349 3.1818433 -0.75922662
0.52524793 3.1930981 -0.76267993
0.54974812 3.2185922 -0.7695865
0.56524163 3.1912031 -0.76383102
0.58270365 3.1761889 -0.7610684
0.60054743 3.1639493 -0.75899643
0.61994982 3.1602046 -0.75899643
0.63584989 3.139174 -0.75485247
0.65609515 3.139976 -0.75600356
0.68272781 3.1701384 -0.76429147
0.70427448 3.1753898 -0.76659369
0.72656107 3.1833422 -0.7695865
0.73651534 3.1380868 -0.75968707
0.7582671 3.1439145 -0.76221949
0.77356476 3.1231451 -0.75830579
0.80134749 3.1522923 -0.76659369
0.81600785 3.1294248 -0.76221949
0.83871371 3.1375206 -0.76544255
0.8587209 3.1351306 -0.76613325
0.87636405 3.124181 -0.76475191
0.8836965 3.0775909 -0.75462228
0.90256357 3.0721107 -0.75462228
0.91635478 3.0497396 -0.75047833
0.93790859 3.0533617 -0.7527805
0.96070737 3.0605476 -0.75600356
0.98184615 3.0620084 -0.75784534
1.0112172 3.088294 -0.765903
1.0301476 3.0820312 -0.765903
1.0367844 3.0397329 -0.75692445
1.0656521 3.0627241 -0.76429147
1.07173 3.0203617 -0.75531292
1.1067986 3.0594823 -0.76682389
1.1208361 3.0398512 -0.76360083
1.1240627 2.9919243 -0.75324094
1.151793 3.0095091 -0.75945687
1.1769534 3.0196118 -0.76383102
1.1940231 3.0087154 -0.76291019
1.2153784 3.0085504 -0.76475191
1.2393672 3.0145366 -0.76820523
1.2480747 2.9835346 -0.76221949
1.26712 2.9776111 -0.76267993
1.2996711 3.0028229 -0.77119803
1.3121903 2.9814317 -0.76774478
1.3356274 2.9848711 -0.77073765
1.3523052 2.9730766 -0.76981676
1.371339 2.9664898 -0.7702772
1.3982054 2.9765155 -0.77511179
1.4139273 2.9626112 -0.77373046
1.4248607 2.9389939 -0.76981676
1.4531864 2.9511478 -0.77534199
1.4651726 2.929991 -0.77211893
1.478276 2.9114015 -0.7695865
1.5121669 2.9334137 -0.77787441
1.520661 2.9059741 -0.77303982
1.543485 2.9060423 -0.77557224
1.5622108 2.8982301 -0.77603269
1.5696893 2.869808 -0.77096784
1.5816011 2.8499124 -0.76820523
1.6024005 2.8460896 -0.76981676
1.6106627 2.8201492 -0.76544255
1.6337909 2.8203173 -0.76820523
1.6481071 2.8052053 -0.76682389
1.6692737 2.8017278 -0.76866567
1.696499 2.8080902 -0.77327001
1.7055631 2.7843513 -0.7695865
1.7256963 2.7787936 -0.77096784
1.7447882 2.7714467 -0.77188873
1.779562 2.7885785 -0.77971619
1.7622802 2.7244978 -0.76475191
1.7997746 2.7453718 -0.77373046
1.8155088 2.7326558 -0.77327001
1.8371338 2.7287295 -0.77534199
1.853294 2.7166018 -0.77511179
1.8583062 2.6883693 -0.7702772
1.8836998 2.6896691 -0.77396071
1.9052364 2.6852028 -0.77603269
1.9290614 2.6837339 -0.77902555
1.9357531 2.658474 -0.77511179
1.9202552 2.6034753 -0.76244974
1.9554158 2.6173689 -0.77004695
1.9726135 2.6068735 -0.7705074
1.995084 2.6032164 -0.77303982
2.0038586 2.5817013 -0.7702772
2.0196619 2.5693574 -0.7702772
2.0462997 2.5706203 -0.77442116
2.0553155 2.5496826 -0.77188873
2.0733831 2.5400388 -0.77280962
2.0914097 2.5302689 -0.77373046
2.1131418 2.5248508 -0.77603269
2.1116059 2.4917934 -0.76981676
2.1306579 2.4832211 -0.77119803
2.1471312 2.4715698 -0.77165848
2.167398 2.4641941 -0.77350026
2.1734159 2.440675 -0.7702772
2.1987777 2.4388566 -0.77396071
2.2038593 2.4145389 -0.7705074
2.1968367 2.3773868 -0.76291019
2.2213559 2.3745215 -0.76636344
2.2311993 2.3559012 -0.76475191
2.2435923 2.3400593 -0.76406127
2.2538412 2.3220594 -0.76267993
2.2803247 2.3206797 -0.76682389
2.3151119 2.3273401 -0.77373046
2.3293486 2.313091 -0.77373046
2.3393288 2.2946665 -0.77234918
2.340085 2.2674043 -0.76797497
2.369421 2.2678051 -0.77303982
2.3832915 2.2532239 -0.77303982
2.3899593 2.2319164 -0.77073765
2.4243541 2.2363431 -0.77741396
2.4416273 2.2247021 -0.77856511
2.4422107 2.1979618 -0.77442116
2.4694715 2.1952186 -0.7787953
2.4755812 2.173605 -0.77649313
2.4778428 2.1488113 -0.77303982
2.496155 2.1379981 -0.77465135
2.4832213 2.1006463 -0.76659369
2.5117478 2.0984714 -0.77142829
2.5508499 2.1046944 -0.77948594
2.5795596 2.1019108 -0.78432059
2.5734527 2.0707932 -0.77856511
2.5838246 2.0531478 -0.77787441
2.5871863 2.0300469 -0.77511179
2.5618973 1.9849325 -0.76383102
2.5933523 1.9839561 -0.7695865
2.601594 1.9650739 -0.76843542
2.6034606 1.9415119 -0.76544255
2.6552932 1.9549223 -0.77718377
2.6570046 1.9311559 -0.7741909
2.6719668 1.9170854 -0.77511179
2.6757376 1.8950309 -0.77280962
2.6921005 1.881922 -0.7741909
2.6995921 1.8626052 -0.77303982
2.7182097 1.8509347 -0.77511179
2.7287078 1.8336786 -0.7748816
2.7285528 1.8093725 -0.77165848
2.7444897 1.7957931 -0.77303982
2.7718089 1.7894744 -0.77764422
2.7203536 1.7327061 -0.76014751
2.7358782 1.7190878 -0.76152885
2.7505109 1.7048314 -0.76267993
2.7908111 1.7061934 -0.77096784
2.8137286 1.6965736 -0.77442116
2.8240855 1.6792771 -0.77442116
2.8368549 1.6633936 -0.77511179
2.8520627 1.6488777 -0.77649313
2.862972 1.6318284 -0.77672333
2.8440843 1.5980258 -0.76889586
2.8444712 1.5753592 -0.76636344
2.8651886 1.5639365 -0.76935631
2.8893008 1.5541624 -0.77327001
2.9194198 1.5473404 -0.7787953
2.9323096 1.5311996 -0.77971619
2.9260724 1.5051671 -0.77557224
2.9387255 1.4889438 -0.77649313
2.9277778 1.4608926 -0.77119803
2.967257 1.4579178 -0.77925575
2.994544 1.4485812 -0.78409034
2.9647157 1.4117739 -0.77396071
2.9830155 1.3980982 -0.77649313
3.0189331 1.392401 -0.78362989
2.9946306 1.3589745 -0.77511179
3.0820019 1.3758738 -0.79560137
3.0119729 1.3225145 -0.77534199
2.9896538 1.290895 -0.76751453
3.0190175 1.2816514 -0.77303982
3.0429904 1.2698474 -0.77718377
3.050725 1.2511522 -0.77718377
3.0529287 1.2302278 -0.77580243
3.0739925 1.2168438 -0.77925575
3.0868433 1.2000744 -0.78063709
3.0941486 1.1811113 -0.78063709
3.0767326 1.1528864 -0.77442116
3.0700481 1.1289493 -0.77096784
3.0467088 1.0991948 -0.76337057
3.0488091 1.0788569 -0.76221949
3.0599682 1.0617241 -0.76337057
3.0784028 1.047001 -0.76636344
3.1373937 1.0456266 -0.77948594
3.1594772 1.0314893 -0.7833997
3.129596 1.0005295 -0.77442116
3.1616812 0.98944366 -0.78086728
3.0904603 0.94638169 -0.76175904
3.0523937 0.91428125 -0.75093871
1.7765841 0.52039838 -0.43507749
1.751676 0.5014571 -0.42817089
1.7547199 0.49069953 -0.42817089
1.7623917 0.48120445 -0.42932197
1.7549671 0.46762693 -0.42678958
1.7540358 0.45587125 -0.42586869
1.7539699 0.44438353 -0.42517805
1.7509948 0.43221459 -0.42379671
1.7564524 0.42214438 -0.42448738
1.7542716 0.41025174 -0.42333627
1.7510622 0.39818618 -0.42195496
1.7601242 0.38890308 -0.42356649
3.1355219 0.6724354 -0.75577337
3.2339118 0.67279899 -0.77856511
3.1921895 0.64371371 -0.76751453
3.1903484 0.62299609 -0.76613325
3.1778548 0.60033917 -0.76221949
3.1872227 0.58187705 -0.76360083
3.2252347 0.56838709 -0.77188873
3.2593625 0.55380058 -0.77925575
3.2310064 0.52860868 -0.77165848
3.187084 0.50136739 -0.76037776
3.1747046 0.47947848 -0.75669426
3.2334471 0.46807143 -0.77004695
2.0554218 0.28477496 -0.48802799
2.0185404 0.26705739 -0.47881919
2.0191755 0.25454521 -0.47858897
2.0226319 0.24238232 -0.47904941
2.0192463 0.22941847 -0.47789833
2.0157783 0.21650532 -0.47674721
2.0190051 0.20432837 -0.47720766
2.0173144 0.1916604 -0.47651699
2.0300844 0.1803104 -0.47927964
2.0379415 0.16841076 -0.48089117
2.3096547 0.1765673 -0.54512244
3.2581489 0.22886796 -0.76981676
3.2439532 0.20787758 -0.76613325
3.2500253 0.18825009 -0.76728433
3.2443163 0.16795316 -0.7656728
3.2064006 0.14627258 -0.756464
3.2568293 0.12854907 -0.76820523
3.2507486 0.10833678 -0.76659369
3.2173049 0.087465748 -0.75853598
3.2382123 0.068151399 -0.76337057
3.2677605 0.048713595 -0.7702772
3.2563207 0.028560614 -0.76751453
3.0832188 0.0083812643 -0.79309261
3.0764344 -0.010515395 -0.79134232
3.1247218 -0.029844411 -0.80384439
3.0712333 -0.048192229 -0.79009211
3.0476475 -0.066533692 -0.78409106
3.0258889 -0.084641285 -0.77859014
3.0736966 -0.10484666 -0.79109228
3.0671906 -0.12347206 -0.78959203
3.049933 -0.14153007 -0.78534126
3.0451393 -0.16003898 -0.7843411
3.0682647 -0.18013428 -0.79059219
3.0168583 -0.1957086 -0.77758998
3.0387802 -0.21585771 -0.78359097
3.0721521 -0.23717512 -0.79259253
3.0532708 -0.2545765 -0.78809172
3.05358 -0.27347854 -0.7885918
3.0441337 -0.29147312 -0.78659147
3.0625165 -0.31220406 -0.7918424
3.0836465 -0.33348322 -0.7978434
3.0546067 -0.34932309 -0.79084224
3.0831673 -0.37176204 -0.79884356
3.056814 -0.38763279 -0.79259253
3.0140662 -0.40102676 -0.78209072
3.0163438 -0.42018005 -0.78334093
2.9945457 -0.43589473 -0.7783401
2.9975584 -0.45513156 -0.77984035
3.0033166 -0.47487482 -0.78209072
3.0089455 -0.49470583 -0.7843411
2.9896274 -0.51039249 -0.78009039
3.0226703 -0.53513348 -0.78959203
2.9993298 -0.55000687 -0.7843411
2.9825802 -0.56587607 -0.78084052
2.9666996 -0.5817467 -0.77758998
2.9725645 -0.6018585 -0.78009039
2.9735546 -0.62107533 -0.7813406
2.9498093 -0.63503397 -0.77608973
2.9316773 -0.64998096 -0.77233911
2.9474585 -0.67247587 -0.77758998
2.9885256 -0.70115477 -0.78959203
2.9295712 -0.70632768 -0.77508956
2.9336412 -0.72638249 -0.77733994
2.931006 -0.74484587 -0.77784002
2.9113889 -0.75891167 -0.77383935
2.8776782 -0.76901823 -0.76608807
2.8673017 -0.78512782 -0.76458782
2.8708212 -0.80505759 -0.76683819
2.8565204 -0.81998789 -0.76433778
2.8941717 -0.85004205 -0.77583969
2.8842647 -0.86639261 -0.77458948
2.8751917 -0.88293761 -0.77358931
2.862329 -0.89824522 -0.77158898
2.8447766 -0.9119513 -0.76833844
2.8133605 -0.92096055 -0.76133722
2.7846968 -0.93053895 -0.75508618
2.8311746 -0.96540898 -0.76933861
2.8636088 -0.99611515 -0.77984035
2.784436 -0.98778534 -0.75983697
2.8293152 -1.0232822 -0.77383935
2.8266175 -1.0419621 -0.77483952
2.7938831 -1.0494186 -0.76758832
2.7177548 -1.0399137 -0.74833506
2.7663591 -1.0780029 -0.76358765
2.7578924 -1.0942429 -0.76308757
2.7502284 -1.1107821 -0.76283753
2.7317181 -1.1228534 -0.75958693
2.7194169 -1.1373534 -0.75808668
2.7052588 -1.150987 -0.75608635
2.6972568 -1.1671802 -0.75583631
2.7015665 -1.1887754 -0.75908685
2.7021766 -1.2088864 -0.76133722
2.6991155 -1.227447 -0.76258749
2.7003231 -1.2480457 -0.7650879
2.684726 -1.2608883 -0.76283753
2.6865523 -1.2819223 -0.76558799
2.6533663 -1.2861406 -0.75833672
2.6402123 -1.2998323 -0.75683647
2.6148646 -1.3073518 -0.75183564
2.6033397 -1.3216193 -0.75083548
2.5960422 -1.3380116 -0.75108552
2.6126657 -1.3669269 -0.75833672
2.6170578 -1.3897409 -0.76208735
2.602514 -1.4025587 -0.76033705
2.5581758 -1.3989968 -0.74983531
2.5757923 -1.4292244 -0.7575866
2.5340645 -1.426486 -0.74783498
2.5076051 -1.431929 -0.74258411
2.5431828 -1.4729985 -0.75583631
2.5382719 -1.4910266 -0.75708652
2.5623527 -1.5263869 -0.76708823
2.4932594 -1.5060489 -0.74908519
2.4881005 -1.5238464 -0.7503354
2.4803488 -1.5401057 -0.75083548
2.4790473 -1.5604519 -0.75333589
2.4514663 -1.5641797 -0.74783498
2.4686563 -1.5965378 -0.75608635
2.4555738 -1.6095328 -0.75508618
2.4343591 -1.6170717 -0.7515856
2.4067178 -1.620087 -0.74608469
2.4167318 -1.6484596 -0.75233573
2.3922322 -1.6533515 -0.74783498
2.3756962 -1.6635572 -0.74583465
2.3654442 -1.678103 -0.74583465
2.3598213 -1.6959748 -0.7473349
2.3501534 -1.7109922 -0.74758494
2.354419 -1.7362958 -0.75233573
2.3429449 -1.7501303 -0.75208569
2.3236673 -1.758049 -0.74933523
2.3266726 -1.7828712 -0.75383598
2.3088038 -1.7917728 -0.7515856
2.2749245 -1.7879615 -0.74408436
2.2737613 -1.8097228 -0.7473349
2.2618601 -1.8230329 -0.74708486
2.239378 -1.8276963 -0.74333423
2.2161777 -1.8315362 -0.73933357
2.2204943 -1.8581454 -0.74458444
2.1964903 -1.8610972 -0.74033374
2.1806195 -1.8707579 -0.73883349
2.1625197 -1.8783897 -0.73658311
2.1749516 -1.9127187 -0.74483448
2.1212242 -1.8886931 -0.73033202
2.1139114 -1.9055619 -0.73183227
2.1000333 -1.9165392 -0.73108214
2.1109958 -1.9504098 -0.73908353
2.0940378 -1.9586971 -0.73733324
2.0777609 -1.9675155 -0.73583299
2.0824275 -1.9963046 -0.74183398
2.0784788 -2.0171344 -0.74483448
2.0577731 -2.0217087 -0.74183398
2.0233567 -2.0124526 -0.7338326
2.0232544 -2.0371928 -0.7383334
2.0093598 -2.048187 -0.73783332
1.9799056 -2.0430984 -0.73158222
1.9767076 -2.0649984 -0.73508281
1.9659959 -2.0791986 -0.73583299
1.9479128 -2.0855629 -0.7338326
1.9166918 -2.077554 -0.72683144
1.903908 -2.0892756 -0.72683144
1.8968841 -2.107394 -0.72908181
1.8993614 -2.1363564 -0.73508281
1.8772706 -2.1377869 -0.73158222
1.8495231 -2.1324453 -0.72583127
1.8616064 -2.1731608 -0.73583299
1.8626246 -2.2015405 -0.74158394
1.8217573 -2.1802421 -0.73058206
1.832386 -2.2204986 -0.74033374
1.8199503 -2.233201 -0.74083382
1.8135 -2.253376 -0.74383432
1.7960241 -2.2599137 -0.74233407
1.7468464 -2.2259593 -0.72758156
1.7568847 -2.2672443 -0.73758328
1.7458827 -2.281826 -0.73883349
1.7499467 -2.3164411 -0.74658477
1.7032735 -2.2836788 -0.73258239
1.6697038 -2.2675824 -0.72408098
1.6876496 -2.3216357 -0.73808336
1.6733726 -2.3319473 -0.73808336
1.6601522 -2.343751 -0.73858345
1.6157714 -2.3110497 -0.72508115
1.5905588 -2.3049846 -0.72008032
1.627634 -2.389915 -0.74358428
1.5961907 -2.374949 -0.73583299
1.5735582 -2.3725965 -0.73208231
1.5483632 -2.3660061 -0.72708148
1.5222578 -2.3575697 -0.72158056
1.514008 -2.3766637 -0.72458106
1.4880583 -2.3678758 -0.71908015
1.4724808 -2.3753161 -0.71858007
1.4568678 -2.3826547 -0.71807998
1.455726 -2.4139326 -0.7248311
1.4384116 -2.4186587 -0.7235809
1.417174 -2.4165831 -0.72033036
1.4061983 -2.4319379 -0.72233069
1.3974857 -2.4514539 -0.72558123
1.3814687 -2.4582946 -0.72508115
1.364012 -2.4624906 -0.72383094
1.3535182 -2.479311 -0.72633135
1.3387389 -2.4884219 -0.72658139
1.3184546 -2.4871802 -0.72383094
1.2870256 -2.4643304 -0.71482944
1.2758689 -2.4799292 -0.71707982
1.2514334 -2.4695759 -0.71182895
1.234959 -2.4746094 -0.71107882
1.2163341 -2.4751892 -0.70907849
1.2066083 -2.4939351 -0.71232903
1.1792036 -2.475944 -0.70507777
1.1648116 -2.4848862 -0.70557785
1.1503543 -2.4937449 -0.70607793
1.1226197 -2.4734273 -0.69832665
1.1101867 -2.4864571 -0.70007694
1.1046472 -2.515383 -0.70632797
1.0903445 -2.52478 -0.7070781
1.0846763 -2.5545924 -0.71357924
1.0641303 -2.5495849 -0.7103287
1.0451574 -2.5480049 -0.70807827
1.0298656 -2.5552678 -0.70832831
1.0234399 -2.5849431 -0.71482944
1.0033464 -2.5803461 -0.71182895
0.98611271 -2.5828359 -0.71082878
0.97058618 -2.5897446 -0.71107882
0.94932652 -2.5811131 -0.7070781
0.92722309 -2.5695865 -0.70232731
0.91596454 -2.5880051 -0.70582789
0.90927958 -2.6201012 -0.71307915
0.88912934 -2.6137156 -0.70982862
0.87613916 -2.6283069 -0.71232903
0.85488278 -2.6179874 -0.70807827
0.82965457 -2.5945964 -0.70032698
0.82095492 -2.6227372 -0.70657802
0.79775238 -2.6045823 -0.70032698
0.78008747 -2.6038635 -0.69882673
0.75892037 -2.5909474 -0.69407594
0.7502088 -2.6206865 -0.70082706
0.73072189 -2.6131194 -0.69757652
0.71084571 -2.603544 -0.6938259
0.69136417 -2.594759 -0.69032532
0.67981768 -2.6158192 -0.69482607
0.66089845 -2.6086788 -0.69182557
0.64093131 -2.5967057 -0.68757486
0.61887145 -2.5751722 -0.68082368
0.61519682 -2.6307721 -0.69457603
0.59345567 -2.6099513 -0.68807495
0.57429355 -2.5993626 -0.68432432
0.56138289 -2.6170373 -0.68807495
0.54847425 -2.6355987 -0.69207561
0.53210056 -2.6379654 -0.69182557
0.51794857 -2.6516333 -0.69457603
0.49590844 -2.6243181 -0.6865747
0.48084161 -2.6330261 -0.68807495
0.46366668 -2.6302059 -0.6865747
0.45434287 -2.6730907 -0.69707644
0.43761933 -2.6739173 -0.69657636
0.41773722 -2.6545541 -0.6908254
0.39448762 -2.6111152 -0.67882335
0.3836014 -2.6489403 -0.68807495
0.36973658 -2.6685069 -0.69257569
0.34686759 -2.6217735 -0.67982352
0.33453542 -2.6536312 -0.68757486
0.31732327 -2.6479433 -0.68557453
0.30238423 -2.6613846 -0.68857503
0.28646311 -2.6670408 -0.6895752
0.269409 -2.6620052 -0.6878249
0.25004053 -2.6318004 -0.67957348
0.23259902 -2.6188188 -0.67582285
0.21620598 -2.6163368 -0.67482269
0.20022242 -2.6185796 -0.67507273
0.18530947 -2.6361783 -0.67932343
0.17049906 -2.6585228 -0.68482441
0.154296 -2.6614521 -0.68532449
0.13579828 -2.6207709 -0.67457265
0.1200702 -2.6292925 -0.67657298
0.10397337 -2.6309474 -0.67682302
0.087893285 -2.633471 -0.6773231
0.071759544 -2.6349287 -0.67757314
0.055879701 -2.6488717 -0.68107373
0.039802026 -2.6607821 -0.68407428
0.023641681 -2.6793718 -0.68882507
0.006954662 -2.5952303 -0.6670714
-0.0089881662 -2.6010334 -0.66857165
-0.025101511 -2.6173887 -0.67282236
-0.041086074 -2.6123447 -0.67157215
-0.057302736 -2.6207557 -0.67382252
-0.073140472 -2.611644 -0.67157215
-0.090049691 -2.6372736 -0.67832327
-0.10530009 -2.6134522 -0.67232227
-0.12361272 -2.6620843 -0.68507445
-0.13807186 -2.6255 -0.67582285
-0.15406594 -2.6226702 -0.67532277
-0.1702804 -2.6236079 -0.67582285
-0.18582809 -2.6147871 -0.67382252
-0.20201729 -2.6155286 -0.67432261
-0.21725956 -2.6045907 -0.67182219
-0.23315075 -2.6022441 -0.67157215
-0.24966596 -2.6065476 -0.6730724
-0.26418474 -2.5905178 -0.66932178
-0.27789286 -2.5686324 -0.6640709
-0.29375827 -2.5678411 -0.66432095
-0.3104344 -2.5736806 -0.66632128
-0.32828772 -2.5880568 -0.67057198
-0.34135658 -2.5648782 -0.66507107
-0.3552205 -2.5493095 -0.66157049
-0.37350219 -2.5652869 -0.66632128
-0.38662282 -2.5457156 -0.66182053
-0.40012154 -2.529906 -0.65831995
-0.4140684 -2.517849 -0.65581954
-0.43048632 -2.5209875 -0.65731978
-0.44594669 -2.5182986 -0.65731978
-0.46139029 -2.5155151 -0.65731978
-0.47825876 -2.520247 -0.65932012
-0.49054971 -2.501112 -0.65506941
-0.50300789 -2.4838197 -0.65131873
-0.51645899 -2.472156 -0.64906836
-0.53426462 -2.4812465 -0.65231889
-0.55157298 -2.4873748 -0.65481937
-0.56574893 -2.4792233 -0.6535691
-0.57896185 -2.467221 -0.65131873
-0.59590346 -2.4711528 -0.65331906
-0.61058992 -2.4655702 -0.65281898
-0.62284756 -2.4505155 -0.64981848
-0.64812124 -2.4860008 -0.66032028
-0.6648615 -2.4875901 -0.66182053
-0.6739803 -2.4610498 -0.65581954
-0.69141948 -2.4652591 -0.65806991
-0.70573211 -2.4581778 -0.65731978
-0.71480346 -2.4333622 -0.65181881
-0.727494 -2.4215117 -0.64981848
-0.739214 -2.4068201 -0.64706802
-0.75541663 -2.4068584 -0.64831823
-0.77223825 -2.4086328 -0.65006852
-0.78218633 -2.3891249 -0.64606786
-0.80143106 -2.3980563 -0.64981848
-0.80488741 -2.3601003 -0.64081699
-0.8250761 -2.3715792 -0.64531773
-0.83702409 -2.3591712 -0.6433174
-0.85247129 -2.3567226 -0.64406753
-0.86658114 -2.350539 -0.64381748
-0.88949406 -2.3678393 -0.65006852
-0.90573519 -2.3668587 -0.65131873
-0.92410588 -2.3711815 -0.65406919
-0.93221372 -2.3492653 -0.64956844
-0.94806069 -2.3470926 -0.6505686
-0.96244431 -2.3412313 -0.6505686
-0.97343117 -2.3272417 -0.64831823
-0.98466146 -2.3140969 -0.6463179
-1.00576 -2.3240077 -0.65081865
-1.0231192 -2.3248835 -0.65281898
-1.0393412 -2.3229814 -0.65406919
-1.0379506 -2.2821834 -0.64431757
-1.0369114 -2.2432492 -0.63506603
-1.0518904 -2.2394741 -0.63581616
-1.0710299 -2.2443388 -0.6390667
-1.0742273 -2.2159407 -0.63281566
-1.0899413 -2.2136514 -0.63406587
-1.1069658 -2.213851 -0.6360662
-1.1218432 -2.2096074 -0.63681632
-1.1300592 -2.1923532 -0.63381582
-1.140798 -2.1802301 -0.63231558
-1.1650484 -2.1937151 -0.63831657
-1.1862926 -2.2010164 -0.64256728
-1.1821288 -2.161411 -0.6330657
-1.1991254 -2.1608911 -0.63506603
-1.2080889 -2.1458981 -0.63281566
-1.222193 -2.1401267 -0.63331574
-1.2386972 -2.1384528 -0.63506603
-1.2478733 -2.1241326 -0.6330657
-1.2435464 -2.0873179 -0.62431419
-1.2703428 -2.1028571 -0.63131541
-1.2761445 -2.0834618 -0.62781483
-1.2899256 -2.0772376 -0.62831491
-1.3072875 -2.0766592 -0.63056529
-1.3220874 -2.0718644 -0.63156545
-1.333724 -2.0620868 -0.63106537
-1.3431679 -2.049005 -0.62956512
-1.3717822 -2.0649238 -0.63706636
-1.3833454 -2.0548611 -0.63656628
-1.3855647 -2.0311346 -0.63181549
-1.4029543 -2.0297644 -0.63406587
-1.4176031 -2.0242906 -0.63506603
-1.4361579 -2.0242424 -0.63781649
-1.451376 -2.0193241 -0.6390667
-1.465448 -2.0127292 -0.63981682
-1.4668549 -1.9888914 -0.63506603
-1.4691832 -1.9666641 -0.63081533
-1.4858949 -1.9637905 -0.63281566
-1.4985054 -1.955405 -0.6330657
-1.50098 -1.9339329 -0.62906504
-1.5158088 -1.9284935 -0.63031524
-1.5137489 -1.9017292 -0.62456423
-1.5205296 -1.8863734 -0.6225639
-1.5284034 -1.8725066 -0.62106365
-1.5386307 -1.8616003 -0.62056357
-1.5562365 -1.8595512 -0.62306398
-1.5607339 -1.8418398 -0.62031353
-1.5720057 -1.8322287 -0.62031353
-1.5756012 -1.8137751 -0.61731303
-1.5835044 -1.8004372 -0.61606282
-1.604821 -1.8022596 -0.62006348
-1.6255711 -1.8031683 -0.62381411
-1.6359521 -1.7924447 -0.62356406
-1.6541455 -1.7901973 -0.62631452
-1.6710502 -1.7863793 -0.62856495
-1.6793174 -1.7732795 -0.62756473
-1.6982051 -1.7713312 -0.63056529
-1.6739852 -1.7247394 -0.61756307
-1.6899638 -1.7199622 -0.6195634
-1.6943418 -1.7033806 -0.61731303
-1.7020142 -1.6902224 -0.61631286
-1.7317016 -1.6987373 -0.62331402
-1.7455682 -1.6914495 -0.62456423
-1.7475224 -1.6726708 -0.62156373
-1.7633799 -1.6672399 -0.62356406
-1.7721617 -1.6550665 -0.62306398
-1.7744573 -1.6369379 -0.62031353
-1.7801749 -1.6221052 -0.61881328
-1.7944114 -1.6150393 -0.62031353
-1.8165861 -1.6149379 -0.62456423
-1.8293706 -1.6063173 -0.6255644
-1.8362671 -1.5925241 -0.62456423
-1.8548262 -1.5887877 -0.62756473
-1.8682351 -1.5805045 -0.628815
-1.8682406 -1.5609385 -0.6255644
-1.8703166 -1.5432817 -0.62306398
-1.8857542 -1.5366712 -0.62506431
-1.8943934 -1.5244641 -0.62481427
-1.9021959 -1.5116067 -0.62431419
-1.9213355 -1.5076793 -0.62756473
-1.9267241 -1.4928958 -0.62631452
-1.9235467 -1.471629 -0.62231386
-1.9418094 -1.4668044 -0.62531435
-1.9693972 -1.4687591 -0.63131541
-1.9557655 -1.4399935 -0.62406415
-1.9676965 -1.4302438 -0.62506431
-1.9646374 -1.4096735 -0.62131369
-1.9771998 -1.4003913 -0.6225639
-1.9849619 -1.387678 -0.62231386
-1.9942359 -1.3760226 -0.6225639
-2.0034416 -1.3643055 -0.62281394
-2.0045438 -1.3471245 -0.62056357
-2.0232599 -1.3417588 -0.62381411
-2.0508962 -1.342048 -0.62981516
-2.0542123 -1.3262863 -0.62831491
-2.0655775 -1.3157386 -0.62931508
-2.0809889 -1.3076779 -0.63156545
-2.0930877 -1.2974364 -0.63281566
-2.105139 -1.2870953 -0.63406587
-2.1196291 -1.2781558 -0.6360662
-2.1274316 -1.2651259 -0.6360662
-2.1476808 -1.2593982 -0.63981682
-2.1536918 -1.2452269 -0.63931674
-2.1554043 -1.2286307 -0.63756645
-2.1713424 -1.2201276 -0.64006686
-2.1830223 -1.2091283 -0.64131707
-2.1844523 -1.1924617 -0.63956678
-2.2173049 -1.1928033 -0.64706802
-2.2074747 -1.1701021 -0.64206719
-2.2180452 -1.1583289 -0.64306736
-2.2044501 -1.1340621 -0.63706636
-2.2018678 -1.115698 -0.63431591
-2.2242646 -1.1099524 -0.63881665
-2.2414596 -1.1014104 -0.64181715
-2.2499185 -1.0884801 -0.64231724
-2.2521846 -1.0725718 -0.64106703
-2.2692428 -1.0636663 -0.64406753
-2.2616608 -1.0432301 -0.64006686
-2.2865326 -1.0377409 -0.64531773
-2.3131895 -1.0327755 -0.65106869
-2.3230286 -1.0201207 -0.65206885
-2.3310218 -1.0066158 -0.65256894
-2.3237872 -0.98661476 -0.64881831
-2.3280103 -0.97159135 -0.64831823
-2.3222837 -0.95250922 -0.64506769
-2.318207 -0.93425834 -0.64231724
-2.3211954 -0.91894662 -0.64156711
-2.3430324 -0.91100657 -0.64606786
-2.3304887 -0.88970172 -0.64106703
-2.3485959 -0.88014537 -0.64456761
-2.3594041 -0.86772466 -0.64606786
-2.3510237 -0.84829855 -0.64231724
-2.3853903 -0.84420121 -0.65031856
-2.3850374 -0.82764298 -0.64881831
-2.3442419 -0.79739136 -0.63631624
-2.3766446 -0.79218441 -0.64381748
-2.3851421 -0.77878982 -0.64481765
-2.3917201 -0.76473039 -0.64531773
-2.4397933 -0.76364464 -0.65706974
-2.4305472 -0.74440342 -0.65331906
-2.413738 -0.72307986 -0.64756811
-2.4079089 -0.70525956 -0.64481765
-2.4363914 -0.6974054 -0.65131873
-2.4219768 -0.6772235 -0.6463179
-2.4288883 -0.6631155 -0.64706802
-2.4403956 -0.65019572 -0.64906836
-2.4349687 -0.63277185 -0.64656794
-2.4256663 -0.61448711 -0.64306736
-2.4604101 -0.607256 -0.65131873
-2.4527931 -0.58943015 -0.64831823
-2.4761615 -0.57900351 -0.6535691
-2.4891083 -0.56594819 -0.65606958
-2.4688995 -0.54543698 -0.64981848
-2.4911327 -0.53434384 -0.65481937
-2.4953125 -0.51924598 -0.65506941
-2.4927571 -0.50277525 -0.6535691
-2.4929445 -0.486913 -0.65281898
-2.4987392 -0.47214743 -0.6535691
-2.4958744 -0.45576158 -0.65206885
-2.5176938 -0.44380498 -0.65706974
-2.5184608 -0.42802343 -0.65656966
-2.5391936 -0.41553789 -0.66132045
-2.5216105 -0.39678431 -0.65606958
-2.5144243 -0.37985587 -0.6535691
-2.5320392 -0.36664435 -0.65756983
-2.5371182 -0.35150051 -0.65831995
-2.5440264 -0.33656251 -0.65957016
-2.5431619 -0.32058233 -0.65882003
-2.5383518 -0.30416372 -0.65706974
-2.5392082 -0.28847343 -0.6568197
-2.5447812 -0.27330223 -0.65781987
-2.5406303 -0.25709626 -0.65631962
-2.5460157 -0.24186964 -0.65731978
-2.5542028 -0.22684428 -0.65907007
-2.57774 -0.21300708 -0.66482103
-2.5558288 -0.19540915 -0.65882003
-2.5647063 -0.1802682 -0.66082036
-2.5715616 -0.16490126 -0.66232061
-2.5754247 -0.14928815 -0.66307074
-2.5811269 -0.13373451 -0.66432095
-2.5848005 -0.1180277 -0.66507107
-2.5912809 -0.10239623 -0.66657132
-2.5870221 -0.086331867 -0.66532111
-2.6000853 -0.070802256 -0.66857165
-2.6149909 -0.055156883 -0.67232227
-2.6085033 -0.039007574 -0.67057198
-2.6086936 -0.023001365 -0.67057198
-2.6068492 -0.0069886288 -0.6700719
-2.628144 0.0090752579 -0.67557281
-2.6193252 0.025119614 -0.67332244
-2.6036317 0.040951148 -0.66932178
-2.5810673 0.056444529 -0.66357082
-2.5884154 0.072495565 -0.66557115
-2.6208229 0.089491934 -0.67407256
-2.6347363 0.1061525 -0.67782319
-2.6195273 0.12164672 -0.67407256
-2.6090624 0.1372114 -0.67157215
-2.5820737 0.15169095 -0.66482103
-2.63327 0.17090516 -0.67832327
-2.637001 0.1874014 -0.67957348
-2.6358016 0.20357822 -0.67957348
-2.6229239 0.21878435 -0.67657298
-2.6253896 0.23521885 -0.67757314
-2.6219692 0.25113934 -0.67707306
-2.6165259 0.26683071 -0.6760729
-2.6081009 0.28215307 -0.67432261
-2.6101685 0.29858997 -0.67532277
-2.611171 0.31494719 -0.6760729
-2.6178346 0.3320576 -0.67832327
-2.6646976 0.35461661 -0.69107544
-2.6030135 0.36269018 -0.67557281
-2.6543965 0.38645422 -0.6895752
-2.6337867 0.39997622 -0.68482441
-2.5987656 0.41099474 -0.67632294
-2.6143484 0.42991349 -0.68107373
-2.6546121 0.45327014 -0.69232565
-2.6527343 0.46971861 -0.69257569
-2.6421831 0.4845911 -0.69057536
-2.6496241 0.50277716 -0.69332582
-2.6293862 0.51567543 -0.68882507
-2.6745725 0.54158843 -0.70157719
-2.6702511 0.55779135 -0.70132715
-2.6421671 0.56887227 -0.69482607
-2.6442986 0.58632982 -0.69632632
-2.6472595 0.60405016 -0.69807661
-2.6510446 0.62204981 -0.70007694
-2.64153 0.63694412 -0.69857669
-2.6187742 0.64848989 -0.69357586
-2.6203763 0.66597587 -0.69507611
-2.6340435 0.68667823 -0.6998269
-2.6325867 0.7035768 -0.70057702
-2.60674 0.71384013 -0.69482607
-2.6079051 0.73138875 -0.69632632
-2.5996454 0.74630892 -0.69532615
-2.5996625 0.76360935 -0.69657636
-2.6236763 0.78817517 -0.70432764
-2.61046 0.8017025 -0.70207727
-2.6110349 0.81944323 -0.70357752
-2.6031916 0.83456272 -0.70282739
-2.5906599 0.84811157 -0.70082706
-2.5633659 0.85663158 -0.69482607
-2.5864725 0.88202524 -0.70257735
-2.5142493 0.87467104 -0.68432432
-2.5480764 0.90399313 -0.69507611
-2.5497663 0.92224377 -0.69707644
-2.5486023 0.93954498 -0.69832665
-2.5527606 0.95890814 -0.7010771
-2.5703423 0.98354483 -0.70757818
-2.5371921 0.98875672 -0.70007694
-2.5319774 1.0046629 -0.70032698
-2.5562923 1.0325019 -0.70882845
-2.5293097 1.0397055 -0.70307744
-2.5246694 1.0559524 -0.70357752
-2.5502198 1.085063 -0.71257907
-2.5408478 1.0995374 -0.71182895
-2.4968283 1.0987364 -0.70132715
-2.5041819 1.1203593 -0.70532781
-2.4954975 1.1349022 -0.70482773
-2.476181 1.1445086 -0.70132715
-2.4892709 1.1691432 -0.7070781
-2.4925375 1.1893964 -0.71007866
-2.4712508 1.1979138 -0.70607793
-2.4786229 1.2203217 -0.7103287
-2.5143945 1.2571471 -0.72283077
-2.5049067 1.2716753 -0.72233069
-2.4402475 1.2577571 -0.70582789
-2.4324841 1.2727065 -0.70582789
-2.4708121 1.31212 -0.71933019
-2.4601572 1.3258784 -0.71858007
-2.4528248 1.341413 -0.71883011
-2.4377742 1.3526813 -0.71682978
-2.4353352 1.3709372 -0.71858007
-2.4193094 1.3815347 -0.71632969
-2.3948658 1.3871366 -0.71157891
-2.3896492 1.4037659 -0.71257907
-2.4034531 1.4317765 -0.71933019
-2.3523498 1.4209745 -0.70657802
-2.3865278 1.4616681 -0.71958023
-2.380805 1.4783264 -0.7205804
-2.347923 1.4779543 -0.7133292
-2.3698316 1.5121168 -0.72283077
-2.3588824 1.5255781 -0.72233069
-2.3543365 1.5432069 -0.72383094
-2.3472433 1.5592306 -0.72458106
-2.3368285 1.573063 -0.72433102
-2.3087325 1.5748272 -0.71858007
-2.2942464 1.5856618 -0.71707982
-2.269402 1.5891603 -0.71232903
-2.2722456 1.6120161 -0.71632969
-2.2717481 1.6327068 -0.71933019
-2.2546413 1.6414878 -0.71707982
-2.2546587 1.6627597 -0.72033036
-2.2669129 1.6933616 -0.72758156
-2.2541633 1.7054871 -0.72683144
-2.2459621 1.7210525 -0.72758156
-2.240715 1.7389553 -0.72933185
-2.1934562 1.7239608 -0.71732986
-2.1888986 1.7422094 -0.71933019
-2.1811833 1.7580372 -0.72033036
-2.1658537 1.7677153 -0.71883011
-2.1691494 1.7926877 -0.7235809
-2.17222 1.8177667 -0.72833169
-2.1440315 1.8166685 -0.72258073
-2.1431346 1.8386137 -0.72608131
-2.1128035 1.8352249 -0.71958023
-2.0840499 1.8328122 -0.71357924
-2.0742114 1.8468525 -0.71407932
-2.0736299 1.8692669 -0.71782994
-2.0692744 1.8884805 -0.72033036
-2.0697401 1.9123092 -0.72458106
-2.0600893 1.9269567 -0.72533119
-2.0468206 1.9382297 -0.7248311
-2.0432785 1.958791 -0.7278316
-2.0388656 1.9787072 -0.73058206
-2.0204687 1.9850744 -0.72833169
-2.0103104 1.9994824 -0.72908181
-2.0075581 2.0213954 -0.73258239
-1.9998649 2.0385127 -0.73433268
-1.9758618 2.0389276 -0.73008198
-1.9586262 2.0461178 -0.72833169
-1.9520229 2.0644276 -0.73058206
-1.9399803 2.0770736 -0.7308321
-1.9311392 2.0932069 -0.73233235
-1.9228253 2.1100254 -0.73408264
-1.9195611 2.1325765 -0.73783332
-1.9103007 2.1486552 -0.73933357
-1.8817439 2.1428788 -0.73333251
-1.8653872 2.150728 -0.73208231
-1.8710574 2.1841886 -0.73958361
-1.8501137 2.1867597 -0.73658311
-1.8198943 2.1780136 -0.72983193
-1.8410159 2.2309518 -0.74383432
-1.8187267 2.2317002 -0.74033374
-1.804999 2.2428176 -0.74033374
-1.799037 2.2637031 -0.74358428
-1.7833195 2.2724144 -0.74283415
-1.7835802 2.3016791 -0.74883515
-1.7623615 2.3033535 -0.74583465
-1.7668768 2.3388419 -0.75383598
-1.7414907 2.3348951 -0.74908519
-1.7248343 2.3424184 -0.74808502
-1.7030256 2.3427782 -0.74483448
